-8.157300 -5.172700 21.960699 0 255 0
-8.250000 -4.530000 26.700001 0 255 0
-8.557500 -4.870000 23.950001 0 255 0
-8.200000 -5.850000 26.280001 0 255 0
-8.708000 -4.822700 12.812000 255 0 0
-8.716800 -5.032100 -0.640000 255 0 0
-8.709000 -4.763500 9.561100 0 255 0
-8.705000 -4.965000 -0.955000 255 0 0
-8.727500 -4.780000 12.910000 255 0 0
-8.698900 -4.832200 16.059999 255 0 0
-8.709200 -5.012400 2.211000 255 0 0
-8.105000 -4.882500 -1.790000 0 255 255
-8.463300 -5.125000 25.270000 0 255 0
-8.477500 -4.740000 -0.032500 255 0 0
-7.950000 -5.570000 24.170000 0 255 0
-7.953300 -4.371700 -1.931700 0 255 255
-7.970000 -5.560000 24.219999 0 255 0
-7.962900 -4.380700 -1.882100 0 255 255
-7.867800 -4.478900 13.672200 0 255 0
-8.870000 -4.970000 18.980000 255 0 0
-8.854000 -5.078000 12.660000 255 0 0
-8.840000 -5.040000 15.910000 255 0 0
-8.452500 -4.230000 18.660000 0 255 0
-8.880000 -4.770000 2.340000 255 0 0
-8.863200 -4.715000 5.513400 255 0 0
-8.858300 -4.117000 18.559099 0 255 0
-8.947100 -4.862900 4.705700 255 0 0
-8.940000 -4.715000 1.675000 255 0 0
-8.946700 -4.811700 7.956700 255 0 0
-8.951400 -4.877100 5.055000 255 0 0
-8.958300 -4.821700 8.210000 255 0 0
-8.946900 -4.719200 1.713800 255 0 0
-8.700000 -4.187500 18.670000 0 255 0
-8.375000 -4.950000 24.865000 0 255 0
-8.380000 -4.850000 18.370001 0 255 0
-8.660000 -5.163300 15.176700 255 0 0
-8.660000 -5.040000 25.059999 255 0 0
-8.653300 -5.056700 21.920000 255 0 0
-7.722500 -5.827500 25.000000 0 255 0
-7.730000 -5.820000 24.980000 0 255 0
-7.658000 -4.970000 25.362000 0 255 0
-8.430000 -4.090000 -1.870000 0 255 255
-8.140000 -5.300000 26.430000 0 255 0
-7.561000 -5.371000 19.306000 0 255 0
-7.561400 -5.316800 -0.701400 0 255 255
-8.875000 -4.875000 -0.795000 255 0 0
-8.880000 -4.240000 15.530000 0 255 0
-8.876700 -4.750000 5.516700 255 0 0
-8.855000 -4.740000 8.770000 255 0 0
-8.860000 -4.165900 18.562401 0 255 0
-7.805000 -4.760000 16.325001 0 255 0
-8.802500 -6.020000 26.360001 0 255 0
-8.047500 -6.120000 19.262501 0 255 0
-9.190000 -4.000000 -1.110000 0 255 255
-9.145000 -5.950000 25.025000 0 255 0
-8.561900 -4.721000 16.165701 0 255 0
-8.610000 -5.165000 13.620000 255 0 0
-8.617500 -5.010000 3.857500 255 0 0
-8.606700 -4.983300 0.970000 255 0 0
-8.621200 -5.058700 7.110000 255 0 0
-8.610000 -5.103300 10.366700 255 0 0
-8.109100 -4.020000 16.400900 0 255 0
-7.480000 -4.690000 14.030000 0 255 0
-7.710000 -4.750000 25.719999 0 255 0
-7.730000 -4.440000 16.430000 0 255 0
-8.357500 -5.222500 21.947500 0 255 0
-8.615500 -4.120900 -1.806400 0 255 255
-8.196700 -4.223300 -1.826700 0 255 255
-8.850000 -3.682000 -0.830000 0 255 255
-7.820000 -5.080000 25.530001 0 255 0
-7.808300 -4.971700 19.155001 0 255 0
-8.111700 -5.205000 -1.433300 0 255 255
-8.780000 -4.690000 9.500000 255 0 0
-8.755300 -4.580000 3.204000 255 0 0
-8.759400 -4.706100 6.357600 255 0 0
-8.761200 -4.627400 0.058900 255 0 0
-8.520000 -5.380000 -1.650000 0 255 255
-7.803300 -5.680000 20.406700 0 255 0
-8.830000 -4.950000 15.410000 255 0 0
-8.810000 -5.073300 21.906700 255 0 0
-7.810000 -5.710000 -1.230000 0 255 255
-7.710000 -5.110000 25.650000 0 255 0
-7.710000 -4.816700 19.103300 0 255 0
-7.690000 -4.810000 19.240000 0 255 0
-7.690000 -5.120000 25.410000 0 255 0
-8.256000 -5.110000 26.708000 0 255 0
-8.400000 -4.130000 25.590000 0 255 0
-9.355000 -3.810000 -1.670000 0 255 255
-7.710000 -4.620000 10.305000 0 255 0
-8.450000 -5.250000 -1.810000 0 255 0
-7.707800 -4.667800 17.863300 0 255 0
-9.460000 -5.720000 18.990000 0 255 0
-7.658800 -4.218200 13.906500 0 255 0
-7.650000 -4.132500 -1.552500 0 255 255
-8.200000 -5.976700 -1.140000 0 255 255
-8.760000 -5.085000 10.150000 255 0 0
-8.762000 -5.022800 0.414800 255 0 0
-8.752500 -5.100000 6.925000 255 0 0
-8.750000 -4.980000 3.675000 255 0 0
-8.750000 -4.925000 19.570000 255 0 0
-8.763100 -4.820000 13.063100 255 0 0
-7.672000 -4.722000 16.350000 0 255 0
-8.711700 -5.114200 10.466700 255 0 0
-8.713000 -5.073000 7.213500 0 255 0
-8.696700 -5.080000 14.160000 255 0 0
-8.697500 -5.120000 17.317499 255 0 0
-8.720000 -5.020000 23.629999 255 0 0
-8.710000 -4.970000 20.459999 255 0 0
-8.610000 -5.730000 26.307501 0 255 0
-8.610000 -5.308000 -1.932000 0 255 255
-8.563300 -5.573300 17.709999 0 255 0
-8.770000 -5.780000 -2.010000 0 255 255
-8.810000 -4.940000 1.950000 255 0 0
-8.100000 -5.510000 24.040001 0 255 0
-7.956400 -5.677300 19.063601 0 255 0
-7.950000 -5.720000 19.270000 0 255 0
-8.655000 -5.375000 22.670000 0 255 0
-8.640000 -5.330000 26.570000 0 255 0
-7.552300 -4.663800 13.505400 0 255 0
-8.210000 -4.936700 6.466700 0 255 0
-8.060000 -4.575000 19.004999 0 255 0
-7.958000 -4.568000 16.170500 0 255 0
-7.662000 -4.722000 20.445999 0 255 0
-7.630000 -4.500000 20.650000 0 255 0
-8.670000 -5.530000 18.910000 0 255 0
-8.660000 -4.930000 20.070000 255 0 0
-8.677500 -5.115000 6.212500 255 0 0
-8.640000 -4.980000 15.980000 255 0 0
-8.653300 -4.873300 23.293301 0 255 0
-8.653300 -5.077500 9.458300 0 255 0
-8.650000 -5.020000 12.725000 255 0 0
-8.780000 -5.040000 20.700001 255 0 0
-8.775000 -4.967500 23.969999 0 255 0
-8.410000 -4.740000 26.200001 0 255 0
-8.712500 -5.077500 9.805000 255 0 0
-8.706700 -5.006700 19.543301 255 0 0
-8.705600 -5.116700 13.061100 255 0 0
-7.615500 -4.623500 -1.640500 0 255 255
-8.402000 -5.432000 -1.778000 0 255 255
-8.370000 -5.200000 20.410000 0 255 0
-8.380000 -5.100000 13.900000 0 255 0
-8.640000 -5.680000 21.969999 0 255 0
-8.690000 -5.200000 19.559999 255 0 0
-8.730000 -5.155000 16.400000 255 0 0
-8.725000 -5.057500 23.152500 255 0 0
-8.130000 -4.570000 19.080000 0 255 0
-8.660000 -4.930000 16.260000 255 0 0
-8.662800 -5.060600 6.860000 255 0 0
-8.654000 -5.030000 10.104000 255 0 0
-8.013300 -3.969300 16.402700 0 255 0
-8.290000 -5.120000 25.290001 0 255 0
-8.319100 -5.217300 19.002701 0 255 0
-8.358300 -4.424000 16.208500 0 255 0
-8.660000 -4.700000 1.890000 255 0 0
-8.665100 -4.680900 5.159900 0 255 0
-9.560000 -6.010000 -1.295000 0 255 255
-9.560000 -5.763700 14.615000 0 255 0
-7.920000 -5.600000 -1.070000 0 255 255
-8.657100 -4.214100 18.660601 0 255 0
-8.020000 -4.330000 25.100000 0 255 0
-8.415000 -4.313800 18.667500 0 255 0
-8.773300 -6.120000 18.906700 0 255 0
-8.450000 -4.400000 18.709999 0 255 0
-8.530000 -5.000000 9.130000 255 0 0
-8.520000 -5.260000 24.910000 255 0 0
-8.519900 -4.871400 -1.187600 255 0 0
-7.506000 -5.170000 25.417999 0 255 0
-8.060000 -5.180000 26.480000 0 255 0
-7.956700 -5.163300 25.316700 0 255 0
-7.655400 -5.274200 -0.790800 0 255 255
-8.290000 -5.500000 -1.980000 0 255 255
-7.880000 -5.480000 26.340000 0 255 0
-7.706700 -4.523300 16.309999 0 255 0
-7.990000 -3.825000 -1.850000 0 255 255
-8.000000 -5.320000 26.379999 0 255 0
-8.493300 -6.176700 19.018299 0 255 0
-8.580000 -3.466000 -0.855000 0 255 255
-8.866700 -3.563300 -1.720000 0 255 255
-8.358000 -4.770000 19.004000 0 255 0
-9.560000 -4.620000 23.410000 0 255 0
-9.824300 -4.625700 -1.191400 0 255 255
-9.820000 -4.566700 -1.350000 0 255 255
-8.410000 -4.500000 18.650000 0 255 0
-8.418000 -4.568000 22.010000 0 255 0
-9.314000 -3.868700 -1.648000 0 255 255
-8.390000 -4.980000 6.590000 0 255 0
-9.207200 -5.966700 -1.534600 0 255 255
-8.902500 -4.870800 9.955800 255 0 0
-8.913700 -4.818100 6.713000 255 0 0
-8.906700 -4.886700 12.416700 255 0 0
-8.891100 -4.687800 -0.647800 255 0 0
-8.899400 -4.823900 9.255600 255 0 0
-8.918300 -4.821300 6.010800 255 0 0
-8.905800 -4.871100 9.262600 255 0 0
-7.820000 -4.170000 -1.390000 0 255 255
-8.662000 -4.824000 15.452000 255 0 0
-8.660000 -4.850000 12.416700 255 0 0
-8.655400 -5.026700 1.210900 255 0 0
-8.664300 -4.771400 18.717100 0 255 0
-8.649000 -4.984000 4.458000 255 0 0
-8.710500 -4.586300 1.160700 255 0 0
-8.713400 -4.633300 4.311800 255 0 0
-8.770000 -5.175000 17.995001 255 0 0
-7.540000 -4.770000 13.670000 0 255 0
-8.720000 -4.470000 16.995001 0 255 0
-8.705700 -4.656400 3.961400 255 0 0
-8.706400 -4.717900 7.111900 255 0 0
-8.573300 -3.723300 -1.703300 0 255 255
-8.760000 -5.430000 17.730000 0 255 0
-8.060000 -5.268600 -2.084300 0 255 255
-7.620000 -4.880000 -1.660000 0 255 255
-8.157500 -5.277500 -1.492500 0 255 255
-8.050000 -5.960000 23.745001 0 255 0
-7.518600 -4.631400 -1.390000 0 255 255
-8.930000 -5.310000 19.709999 0 255 0
-8.680000 -5.010000 17.240000 255 0 0
-8.664000 -5.312000 -1.690000 0 255 255
-8.655000 -5.075000 14.120000 255 0 0
-8.642500 -4.965000 20.402500 255 0 0
-8.670000 -5.113800 10.960000 255 0 0
-7.955000 -4.381700 18.963301 0 255 0
-8.110000 -4.670000 26.580000 0 255 0
-7.820000 -4.420000 10.440000 0 255 0
-7.808100 -4.474400 13.714400 0 255 0
-9.161300 -5.965700 -1.541300 0 255 255
-8.250000 -4.971200 -1.691200 0 255 0
-8.280000 -5.390000 24.410000 0 255 0
-8.259100 -5.019100 -1.784500 0 255 0
-8.920000 -5.430000 26.629999 0 255 0
-8.670000 -4.840000 18.480000 255 0 0
-8.655000 -5.113700 -1.683700 0 255 0
-8.675000 -5.050000 1.560000 255 0 0
-8.650000 -4.990000 7.880000 255 0 0
-8.662500 -4.865800 15.412500 255 0 0
-8.657400 -5.015200 4.611000 255 0 0
-8.666700 -5.070000 -1.193300 255 0 0
-8.670000 -4.940000 8.310000 255 0 0
-8.660000 -4.828000 14.820000 255 0 0
-8.660000 -4.866700 11.460000 255 0 0
-8.660900 -5.005500 2.159500 255 0 0
-8.647500 -4.982500 5.310000 255 0 0
-8.350000 -6.060000 26.240000 0 255 0
-8.408300 -5.071700 -1.890000 0 255 0
-8.406700 -5.523300 26.653299 0 255 0
-8.160000 -4.313300 16.240000 0 255 0
-7.900000 -4.860000 23.379999 0 255 0
-7.858700 -5.065000 -1.547500 0 255 255
-8.770000 -5.571100 18.921101 0 255 0
-7.912400 -4.868800 -2.035300 0 255 255
-7.907700 -4.713800 13.752300 0 255 0
-7.808400 -4.473300 16.259501 0 255 0
-7.490000 -5.140000 19.430000 0 255 0
-8.705000 -3.772500 11.861300 0 255 0
-8.966700 -4.423300 23.353300 0 255 0
-8.950000 -4.480000 19.665001 0 255 0
-8.099200 -4.379200 16.306700 0 255 0
-7.753300 -5.255000 -1.431700 0 255 255
-8.430000 -5.490000 26.580000 0 255 0
-8.070000 -4.540000 16.180000 0 255 0
-8.058800 -5.674100 19.059401 0 255 0
-8.020000 -5.630000 19.260000 0 255 0
-8.610000 -5.125000 19.219999 255 0 0
-8.594300 -5.024300 12.705700 0 255 0
-8.597300 -4.928200 4.959500 255 0 0
-8.603100 -4.970000 8.111700 255 0 0
-8.607500 -5.167500 22.362499 255 0 0
-8.607700 -5.060800 15.857700 255 0 0
-8.910000 -4.610000 -1.436900 0 255 0
-8.897100 -4.681000 1.809000 255 0 0
-8.120000 -5.772000 -1.846000 0 255 255
-8.570000 -6.160000 22.764999 0 255 0
-8.363300 -4.968300 15.601700 0 255 0
-8.858600 -3.565000 -1.377100 0 255 255
-7.660000 -4.920000 17.510000 0 255 0
-7.661400 -4.877100 20.558599 0 255 0
-7.920000 -5.280000 -1.240000 0 255 255
-9.380000 -5.140000 -1.230000 0 255 255
-7.860000 -4.850000 20.389999 0 255 0
-7.590000 -4.460000 16.389999 0 255 0
-8.650000 -5.370000 22.750000 0 255 0
-8.680000 -5.330000 26.660000 0 255 0
-8.615000 -6.190000 22.760000 0 255 0
-8.640000 -5.430000 22.860001 0 255 0
-8.680000 -5.410000 20.260000 0 255 0
-8.730000 -5.260000 -2.100000 0 255 255
-8.701400 -5.080000 10.565700 255 0 0
-8.690000 -5.010000 20.030001 255 0 0
-8.706700 -5.121100 13.707800 255 0 0
-9.357500 -4.525000 -1.600000 0 255 255
-9.363300 -4.610000 10.268300 0 255 0
-8.760000 -5.215000 -1.745000 0 255 0
-8.760000 -5.117800 17.211100 255 0 0
-8.715000 -5.167500 14.262500 255 0 0
-8.710000 -5.100000 23.680000 255 0 0
-8.150000 -5.170000 25.340000 0 255 0
-8.158000 -5.865000 19.000999 0 255 0
-8.212000 -5.182000 21.952999 0 255 0
-8.773300 -5.573300 18.420000 0 255 0
-8.255000 -5.537500 23.309999 0 255 0
-8.008900 -4.220500 24.113199 0 255 0
-7.758800 -5.620000 24.258801 0 255 0
-7.975000 -5.815000 19.260000 0 255 0
-7.940000 -4.620000 16.459999 0 255 0
-8.163900 -5.023300 13.624400 0 255 0
-9.423300 -5.123300 11.816700 0 255 0
-9.408300 -5.273300 21.618299 0 255 0
-7.790000 -4.920000 20.430000 0 255 0
-7.820000 -4.550000 -1.720000 0 255 255
-7.844300 -5.561400 -1.401400 0 255 255
-8.140000 -5.510000 26.280001 0 255 0
-8.180000 -4.630000 18.490000 0 255 0
-8.323300 -5.123300 21.993299 0 255 0
-8.310000 -5.790000 19.160000 0 255 0
-7.799100 -4.711800 -1.500900 0 255 255
-8.456700 -5.123300 23.263300 255 0 0
-8.020000 -5.820000 25.500000 0 255 0
-8.890000 -5.050000 9.500000 255 0 0
-8.897800 -5.006700 6.261100 255 0 0
-8.896700 -4.905000 12.553300 255 0 0
-8.015000 -4.625000 -1.875000 0 255 255
-8.007500 -5.865000 25.650000 0 255 0
-8.710000 -3.513300 -0.973300 0 255 255
-8.565000 -4.670000 12.020000 0 255 0
-8.506200 -4.522500 22.000000 0 255 0
-8.090000 -4.770000 13.900000 0 255 0
-7.863300 -4.620000 13.613300 0 255 0
-7.850000 -4.878300 -1.781700 0 255 255
-9.060000 -5.140000 24.540001 0 255 0
-7.870000 -5.660000 26.290001 0 255 0
-7.820000 -5.960000 25.150000 0 255 0
-9.220000 -4.510000 10.030000 0 255 0
-8.113300 -5.730000 -1.785000 0 255 255
-9.557300 -4.216900 17.808500 0 255 0
-9.573300 -4.473300 14.006700 0 255 0
-9.560000 -4.720000 -1.800000 0 255 255
-7.855000 -5.621700 -1.296700 0 255 255
-8.300000 -6.070000 -1.190000 0 255 255
-7.714000 -4.522000 20.598000 0 255 0
-7.780000 -4.160000 17.740000 0 255 0
-8.246700 -5.900000 26.306700 0 255 0
-8.760000 -5.030000 25.400000 0 255 0
-8.775000 -5.320000 18.870001 0 255 0
-8.745000 -5.160000 15.612500 0 255 0
-7.775000 -5.685000 25.014999 0 255 0
-7.612700 -4.563300 13.818700 0 255 0
-8.010000 -5.780000 25.639999 0 255 0
-8.026700 -4.920000 -2.120000 0 255 255
-7.853300 -4.320000 25.150000 0 255 0
-8.004300 -5.114300 19.221399 0 255 0
-9.360000 -5.910000 -1.510000 0 255 255
-7.802100 -3.970000 13.810000 0 255 0
-7.550000 -5.220000 -0.540000 0 255 255
-7.565800 -5.218800 -1.383100 0 255 255
-7.570000 -4.980000 18.059999 0 255 0
-7.561200 -5.072800 -1.281600 0 255 255
-9.595000 -6.030000 -1.395000 0 255 255
-9.606700 -5.560000 21.563299 0 255 0
-9.560000 -5.600000 19.000000 0 255 0
-7.895000 -5.360000 -0.755000 0 255 255
-8.655600 -5.056700 -0.084400 255 0 0
-8.640000 -4.990000 6.200000 255 0 0
-8.660000 -4.835000 16.905001 255 0 0
-8.669500 -5.010000 3.056300 255 0 0
-8.654200 -4.860800 13.756700 255 0 0
-7.752200 -5.572200 19.068899 0 255 0
-7.807100 -4.266900 13.858800 0 255 0
-9.617500 -4.267500 16.367500 0 255 0
-8.405000 -4.875000 17.622499 0 255 0
-8.120000 -4.520000 26.365000 0 255 0
-7.503000 -5.223000 17.115000 0 255 0
-8.462500 -5.017500 24.857500 0 255 0
-8.530000 -5.050000 14.850000 255 0 0
-8.498800 -4.816400 -0.539900 255 0 0
-8.526200 -4.867800 2.611400 255 0 0
-8.516700 -5.030000 11.700000 255 0 0
-8.306200 -5.476900 17.860800 0 255 0
-7.630000 -5.010000 20.665001 0 255 0
-7.602300 -5.068200 -1.539100 0 255 255
-8.620000 -5.810000 24.570000 0 255 0
-8.660000 -5.725000 24.559999 0 255 0
-8.470000 -4.450000 22.090000 0 255 0
-8.450000 -4.400000 25.370001 0 255 0
-8.205000 -3.680000 -1.805000 0 255 255
-7.963300 -5.017800 19.218901 0 255 0
-8.850000 -5.076000 11.304000 255 0 0
-8.852200 -4.970000 17.613300 255 0 0
-9.565000 -5.620000 16.307501 0 255 0
-9.550000 -5.720000 21.660000 0 255 0
-8.906700 -5.003300 14.313300 255 0 0
-8.911800 -5.375500 -1.543600 0 255 255
-7.770000 -5.200000 22.090000 0 255 0
-7.770000 -5.650000 26.150000 0 255 0
-7.775000 -5.560000 19.205000 0 255 0
-8.923600 -4.864100 5.708600 255 0 0
-8.916000 -4.818400 2.560800 255 0 0
-7.755000 -4.420000 -1.360000 0 255 255
-7.758800 -4.724600 17.809200 0 255 0
-8.800000 -5.090000 23.580000 0 255 0
-8.802000 -5.014000 20.205999 255 0 0
-8.812500 -5.122500 26.700001 0 255 0
-8.810000 -4.960000 17.059999 255 0 0
-8.745000 -5.090000 12.355000 255 0 0
-8.762500 -5.015900 2.609400 255 0 0
-8.764300 -5.115000 9.117100 255 0 0
-8.754600 -4.816900 14.060000 255 0 0
-8.645500 -4.705000 5.067500 255 0 0
-9.310800 -4.419200 -1.640800 0 255 255
-9.230000 -4.740000 -1.660000 0 255 255
-9.200000 -4.624000 18.549999 0 255 0
-9.408700 -4.918800 -1.490000 0 255 255
-9.410000 -5.285000 20.645000 0 255 0
-9.760000 -4.535000 18.465000 0 255 0
-8.414000 -4.824000 13.858000 0 255 0
-8.800000 -5.705000 26.514999 0 255 0
-7.808500 -4.719500 -1.642500 0 255 255
-7.568900 -4.218900 -1.193900 0 255 255
-7.708300 -5.217500 19.170000 0 255 0
-7.755000 -5.212200 -0.744400 0 255 255
-8.160000 -5.205000 -1.105000 0 255 255
-8.356300 -4.070000 25.463200 0 255 0
-8.580000 -4.640000 2.310000 0 255 0
-8.556700 -5.026700 26.813299 0 255 0
-8.565000 -5.080000 23.575001 255 0 0
-8.567200 -4.877800 11.711700 255 0 0
-8.561100 -4.966700 18.010000 255 0 0
-8.572900 -4.770200 5.362900 255 0 0
-8.556900 -4.667900 -0.941300 255 0 0
-8.573300 -4.926700 21.270000 255 0 0
-9.662900 -4.424300 14.057100 0 255 0
-9.410000 -4.900000 24.155001 0 255 0
-8.515400 -6.211500 19.057699 0 255 0
-8.670000 -5.175000 20.865000 255 0 0
-8.680000 -5.500000 -1.840000 0 255 255
-8.640000 -5.210000 17.709999 255 0 0
-8.650000 -5.140000 24.240000 255 0 0
-8.676700 -5.063300 25.343300 255 0 0
-8.640000 -5.120000 22.120001 255 0 0
-8.705000 -4.752500 6.915000 255 0 0
-8.707500 -4.815000 10.070000 255 0 0
-8.705000 -5.015000 -1.390000 0 255 0
-8.610000 -4.540000 3.550000 255 0 0
-8.604500 -4.724500 16.199100 0 255 0
-8.711500 -5.106900 8.460000 255 0 0
-8.715000 -4.922500 22.705000 0 255 0
-8.713500 -5.062000 5.212500 255 0 0
-8.759100 -5.111800 16.108200 255 0 0
-8.790000 -5.200000 22.580000 255 0 0
-8.325000 -4.880000 17.709999 0 255 0
-8.680000 -4.075000 18.775000 0 255 0
-8.315000 -4.980000 17.615000 0 255 0
-8.515000 -5.360000 -2.055000 0 255 255
-8.361300 -5.411200 -1.727500 0 255 255
-8.350000 -5.240000 20.379999 0 255 0
-8.465000 -4.865000 1.850000 255 0 0
-9.600000 -4.460000 -1.045000 0 255 255
-9.270000 -3.921700 13.955000 0 255 0
-9.220000 -5.920000 25.549999 0 255 0
-8.060000 -5.390000 26.780001 0 255 0
-8.053300 -4.585600 -2.037800 0 255 255
-8.860000 -4.410000 18.200001 0 255 0
-8.871400 -4.709400 -0.589700 0 255 0
-8.760000 -4.327500 -1.742500 0 255 0
-8.812400 -4.119200 20.455200 0 255 0
-8.917100 -4.868600 3.810500 255 0 0
-8.890000 -4.140000 20.389999 0 255 0
-8.902300 -4.819200 0.657700 255 0 0
-8.910000 -4.780000 10.110000 255 0 0
-8.920000 -4.726000 6.968000 255 0 0
-8.615000 -5.877500 22.747499 0 255 0
-8.760000 -5.520000 23.950001 0 255 0
-8.870000 -3.850000 20.610001 0 255 0
-8.610000 -4.065700 25.515699 0 255 0
-8.610000 -3.676700 -1.706700 0 255 255
-7.676700 -5.526700 26.263300 0 255 0
-8.890000 -4.620000 1.975000 255 0 0
-8.896500 -4.669400 5.200000 255 0 0
-8.460000 -4.475000 18.502501 0 255 0
-8.700000 -5.084000 10.408000 255 0 0
-8.700000 -4.950000 16.910000 255 0 0
-8.710000 -5.118600 13.660000 255 0 0
-8.716700 -5.006700 20.153299 255 0 0
-8.700000 -5.090000 13.700000 255 0 0
-8.710000 -4.966700 20.010000 255 0 0
-8.717500 -5.012500 23.245001 255 0 0
-8.707100 -5.127100 16.945700 255 0 0
-9.256000 -5.708000 21.507000 0 255 0
-9.280000 -5.750000 17.780001 0 255 0
-7.655100 -5.121600 -0.896500 0 255 255
-8.753300 -5.033300 6.050000 255 0 0
-8.759200 -5.117500 12.563300 255 0 0
-8.770000 -4.830000 20.330000 255 0 0
-8.661800 -4.027300 11.813600 0 255 0
-8.690000 -5.030000 9.170000 255 0 0
-8.720000 -5.110000 2.670000 255 0 0
-8.706300 -5.055000 -0.582500 255 0 0
-8.710000 -4.920000 15.690000 255 0 0
-9.254100 -4.167700 -1.139500 0 255 255
-9.253300 -4.563300 24.956699 0 255 0
-9.250000 -5.680000 25.299999 0 255 0
-8.770000 -4.800000 -0.110000 255 0 0
-9.570000 -5.155000 13.805000 0 255 0
-8.450000 -4.500000 -1.640000 0 255 0
-9.316700 -3.860000 13.803300 0 255 0
-9.315300 -3.820500 10.656800 0 255 0
-9.240000 -5.720000 19.750000 0 255 0
-9.257800 -4.268900 18.012199 0 255 0
-7.890000 -4.740000 19.129999 0 255 0
-8.953300 -4.913300 6.950000 255 0 0
-7.760000 -5.420000 25.730000 0 255 0
-7.760000 -5.315700 19.163601 0 255 0
-8.650000 -5.100000 2.820000 255 0 0
-8.665500 -5.061800 6.060000 255 0 0
-8.650000 -5.020000 9.320000 255 0 0
-8.655000 -4.907000 17.052999 255 0 0
-9.675000 -4.655000 13.900000 0 255 0
-9.675000 -4.605000 16.315001 0 255 0
-9.656100 -4.319600 10.160300 0 255 0
-9.710000 -5.370000 21.090000 0 255 0
-9.700000 -5.240000 -1.400000 0 255 255
-8.971300 -4.375000 -0.843700 0 255 0
-9.751700 -5.223300 21.758301 0 255 0
-9.745600 -4.180000 -1.735600 0 255 255
-7.890000 -4.100000 11.330000 0 255 0
-7.670000 -5.673300 18.959999 0 255 0
-7.648000 -5.558000 -0.792000 0 255 255
-8.505000 -4.114000 25.509001 0 255 0
-8.698000 -4.422000 -1.534000 0 255 0
-8.540000 -4.260000 25.330000 0 255 0
-8.910000 -3.925000 11.875000 0 255 0
-7.916400 -4.379100 18.401800 0 255 0
-8.210000 -4.623300 18.967300 0 255 0
-8.765800 -4.268900 18.460501 0 255 0
-8.912000 -4.714700 -0.989600 255 0 0
-8.909800 -4.767100 2.264500 255 0 0
-8.908000 -4.422000 18.610001 0 255 0
-8.311700 -5.270800 17.610001 0 255 0
-8.400000 -3.560000 -1.490000 0 255 255
-8.466000 -6.228000 19.298000 0 255 0
-8.508200 -5.514100 17.670601 0 255 0
-8.650000 -5.080000 15.630000 0 255 0
-8.660000 -4.973300 22.110001 255 0 0
-8.640000 -4.920000 26.719999 0 255 0
-8.662500 -5.122500 12.460000 255 0 0
-7.518000 -5.210700 6.346000 0 255 0
-8.708000 -4.738000 10.520000 255 0 0
-8.710000 -4.682500 7.362500 255 0 0
-8.700000 -4.630000 17.000000 0 255 0
-8.766700 -4.785000 13.000000 255 0 0
-8.758400 -5.074200 7.060500 255 0 0
-8.770000 -4.910000 16.049999 255 0 0
-8.760000 -4.890000 19.290001 255 0 0
-8.757500 -4.817500 9.762500 255 0 0
-8.145000 -4.370000 26.257500 0 255 0
-8.165000 -5.073300 19.110800 0 255 0
-7.507500 -5.010800 -1.380000 0 255 255
-9.455400 -4.416900 -1.688500 0 255 255
-9.773300 -4.113300 10.363300 0 255 0
-9.816700 -5.130000 20.660000 0 255 0
-8.530000 -4.900000 17.950001 255 0 0
-8.530000 -4.990000 21.110001 255 0 0
-8.240000 -5.770000 -1.790000 0 255 255
-8.272500 -5.475000 17.770000 0 255 0
-7.560700 -4.970700 19.161400 0 255 0
-8.600000 -6.060000 19.260000 0 255 0
-8.530000 -5.820000 22.740000 0 255 0
-8.446700 -5.666700 19.256701 0 255 0
-8.710000 -5.370000 25.320000 0 255 0
-8.450000 -5.680000 19.059999 0 255 0
-9.040000 -5.740000 25.520000 0 255 0
-9.201700 -3.877200 -1.730000 0 255 255
-7.800000 -5.460000 19.190001 0 255 0
-7.762500 -5.362500 -1.787500 0 255 255
-8.262000 -4.658000 26.208000 0 255 0
-8.715800 -4.733200 9.360500 255 0 0
-8.713600 -4.680300 6.109100 255 0 0
-8.100000 -5.150000 25.299999 0 255 0
-8.265000 -4.220000 10.795000 0 255 0
-8.290000 -4.060000 22.160000 0 255 0
-8.301400 -4.120000 25.418600 0 255 0
-7.911300 -5.071300 25.316299 0 255 0
-8.430000 -4.970000 3.190000 255 0 0
-8.652900 -5.032900 9.258600 255 0 0
-8.662500 -4.917500 17.215000 255 0 0
-8.656000 -4.870000 20.365000 255 0 0
-8.666500 -5.061000 6.111500 255 0 0
-7.996700 -5.023300 26.446699 0 255 0
-7.570000 -4.760000 10.000000 0 255 0
-7.560300 -4.473100 16.165600 0 255 0
-8.540000 -5.100000 11.650000 255 0 0
-8.568300 -5.008300 5.361700 255 0 0
-9.390000 -4.720000 18.430000 0 255 0
-9.206700 -4.660000 22.056700 0 255 0
-9.452500 -3.910000 -1.042500 0 255 255
-8.270000 -4.370000 26.415001 0 255 0
-8.260000 -4.575000 13.775000 0 255 0
-9.170000 -5.760000 17.690001 0 255 0
-7.760000 -4.330000 16.440001 0 255 0
-8.415000 -3.530000 -1.425000 0 255 255
-9.158100 -4.119500 17.913799 0 255 0
-8.960000 -5.170000 -1.450000 0 255 0
-8.720000 -5.085000 11.660000 255 0 0
-8.706700 -5.126700 14.823300 255 0 0
-8.700000 -4.990000 18.180000 255 0 0
-8.713300 -5.030000 21.316700 255 0 0
-9.160700 -4.762000 13.910700 0 255 0
-8.770000 -5.085000 10.920000 255 0 0
-8.752000 -5.112000 7.752000 255 0 0
-8.755000 -4.755000 18.639999 0 255 0
-8.766700 -4.920000 21.996700 255 0 0
-8.756000 -4.828000 15.510000 255 0 0
-8.760900 -5.019100 1.260000 255 0 0
-8.110000 -5.280000 26.660000 0 255 0
-8.110000 -5.630000 -1.810000 0 255 255
-7.855000 -5.785000 25.110001 0 255 0
-7.630000 -4.830000 19.450001 0 255 0
-7.611100 -4.768900 16.304399 0 255 0
-7.603600 -4.659300 10.003900 0 255 0
-9.450000 -5.700000 19.680000 0 255 0
-7.860000 -5.820000 25.446699 0 255 0
-7.866700 -5.173300 -1.746700 0 255 255
-8.505000 -4.066300 25.453699 0 255 0
-8.205300 -4.374700 17.669399 0 255 0
-9.355700 -5.966400 21.558599 0 255 0
-7.767500 -4.917500 17.764999 0 255 0
-7.712000 -5.027300 16.952000 0 255 0
-8.814200 -4.216100 16.968399 0 255 0
-8.250000 -4.927500 -1.683700 0 255 0
-8.264000 -5.316000 24.420000 0 255 0
-8.254000 -5.414000 17.914000 0 255 0
-8.459400 -5.666000 17.708000 0 255 0
-8.673300 -3.780000 14.776700 0 255 0
-8.700000 -4.740000 23.270000 0 255 0
-8.715000 -4.985000 1.810000 255 0 0
-8.712500 -5.037500 5.050000 255 0 0
-8.690000 -5.130000 -1.240000 255 0 0
-8.711400 -4.785700 13.261400 255 0 0
-8.715700 -4.831400 16.508600 255 0 0
-7.510500 -4.518900 13.702600 0 255 0
-8.125000 -4.515000 26.465000 0 255 0
-8.105100 -4.323100 13.807100 0 255 0
-8.180000 -5.090000 -2.080000 0 255 255
-8.170000 -4.625000 26.459999 0 255 0
-8.160100 -4.419600 13.804500 0 255 0
-8.450000 -4.990000 23.230000 0 255 0
-8.459100 -4.724700 13.813700 255 0 0
-8.590000 -4.950000 10.930000 255 0 0
-8.590000 -5.140000 19.610001 255 0 0
-8.600000 -4.780000 -1.740000 0 255 0
-8.605000 -5.215000 25.745001 255 0 0
-8.600000 -4.919600 7.755000 0 255 0
-8.616700 -5.070000 16.260000 255 0 0
-8.630000 -5.150000 22.780001 255 0 0
-8.603300 -5.025000 13.102500 255 0 0
-8.780000 -4.800000 8.440000 255 0 0
-8.761700 -4.971700 -1.341700 255 0 0
-8.780000 -4.900000 14.960000 255 0 0
-8.746000 -4.870000 18.204000 255 0 0
-8.763800 -5.057700 5.158500 0 255 0
-8.754600 -4.776200 11.714200 255 0 0
-7.754000 -4.970000 -1.492000 0 255 255
-8.308000 -4.722000 23.972000 0 255 0
-8.872000 -4.704000 3.864000 255 0 0
-8.866400 -4.761400 0.607900 255 0 0
-8.603600 -4.869100 14.254500 255 0 0
-8.610000 -5.020000 22.440001 255 0 0
-8.613900 -4.921100 17.509399 255 0 0
-8.598700 -4.654800 1.208400 0 255 0
-8.610000 -4.978900 20.767799 255 0 0
-8.612800 -4.820800 11.008200 0 255 0
-8.619700 -4.777300 7.713400 255 0 0
-8.602100 -4.713900 4.461700 255 0 0
-8.590000 -5.070000 24.969999 255 0 0
-8.600000 -5.000000 21.820000 255 0 0
-8.603900 -4.863500 11.913500 255 0 0
-8.616700 -4.990000 18.206699 255 0 0
-8.630000 -4.700000 2.000000 255 0 0
-8.611100 -4.821400 8.761400 255 0 0
-8.596900 -4.763100 5.159100 0 255 0
-8.612000 -4.924000 15.065300 255 0 0
-8.596700 -4.656700 -1.136700 0 255 0
-8.870000 -4.810000 12.890000 255 0 0
-8.870000 -4.640000 0.240000 255 0 0
-8.870000 -4.855000 9.760000 255 0 0
-8.840000 -4.590000 3.620000 255 0 0
-8.630000 -5.200000 23.240000 255 0 0
-8.592000 -5.112000 16.507999 255 0 0
-8.595000 -5.290000 26.410000 0 255 0
-8.601600 -5.025600 10.206800 255 0 0
-8.596200 -4.969600 7.406300 255 0 0
-8.603600 -5.065000 13.360700 255 0 0
-8.605600 -5.166700 19.667801 255 0 0
-8.593300 -4.922900 4.257100 255 0 0
-7.561800 -4.664500 10.109100 0 255 0
-8.466000 -5.066000 20.356001 255 0 0
-8.876300 -4.713800 3.263800 255 0 0
-8.870800 -4.766900 0.010800 255 0 0
-7.795000 -5.705000 20.379999 0 255 0
-8.780000 -5.090000 14.030000 255 0 0
-8.766000 -5.112000 10.862000 255 0 0
-8.775000 -4.830000 18.805000 255 0 0
-8.760700 -5.030700 4.563600 255 0 0
-8.165000 -5.513000 -1.841000 0 255 255
-8.160000 -5.277500 26.615000 0 255 0
-8.648000 -5.116000 16.020000 0 255 0
-8.650000 -5.160000 13.105000 255 0 0
-8.652500 -5.012500 22.517500 255 0 0
-8.690000 -5.200000 19.260000 255 0 0
-8.715000 -5.162500 16.110001 255 0 0
-8.690000 -5.060000 22.660000 255 0 0
-8.030000 -5.400000 19.110001 0 255 0
-7.980000 -4.840000 19.250000 0 255 0
-9.107300 -5.971800 21.561800 0 255 0
-8.160000 -5.520000 19.090000 0 255 0
-7.580000 -4.990000 19.290001 0 255 0
-8.614700 -3.866800 11.804700 0 255 0
-8.309400 -4.176500 10.805300 0 255 0
-8.480000 -4.760000 16.299999 0 255 0
-8.466700 -4.321700 11.908300 0 255 0
-8.757500 -4.862500 14.610000 255 0 0
-8.762600 -4.759500 8.110000 255 0 0
-8.753800 -5.058500 4.910000 255 0 0
-8.750000 -4.900000 15.225000 255 0 0
-8.765200 -4.779500 11.860000 255 0 0
-8.740000 -4.874000 18.356001 255 0 0
-9.320000 -5.270000 26.650000 0 255 0
-8.730000 -6.020000 24.469999 0 255 0
-9.220000 -5.770000 25.260000 0 255 0
-9.520000 -5.240000 -1.430000 0 255 255
-9.606700 -5.370000 20.763300 0 255 0
-7.560000 -5.060000 25.410000 0 255 0
-8.430000 -5.030000 -1.580000 0 255 0
-8.416700 -5.420000 25.299999 0 255 0
-9.960000 -4.560000 -1.300000 0 255 255
-7.513000 -4.867000 17.764999 0 255 0
-9.457500 -5.070000 20.461300 0 255 0
-8.820000 -5.065000 24.379999 0 255 0
-8.813300 -4.960000 17.866699 255 0 0
-9.868300 -4.275000 -1.585000 0 255 255
-9.850000 -4.865500 11.860900 0 255 0
-8.463300 -5.463300 -1.728900 0 255 255
-8.453300 -3.933300 12.000000 0 255 0
-7.807000 -4.816000 19.153000 0 255 0
-8.710000 -4.600000 -1.580000 0 255 0
-9.210600 -5.021300 13.915000 0 255 0
-9.216700 -5.476700 20.770000 0 255 0
-8.758700 -4.417800 20.412800 0 255 0
-8.840000 -5.050000 19.760000 255 0 0
-8.870000 -4.520000 22.850000 0 255 0
-8.852000 -5.112000 9.810000 255 0 0
-8.861800 -4.572700 19.711800 0 255 0
-7.967800 -4.012200 11.412200 0 255 0
-7.960500 -4.120000 17.709000 0 255 0
-7.652900 -4.717600 17.758200 0 255 0
-8.570700 -4.518700 18.517300 0 255 0
-8.609200 -3.816900 11.958500 0 255 0
-8.859300 -3.870000 18.059999 0 255 0
-7.813300 -4.873300 17.663300 0 255 0
-8.730000 -4.680000 8.970000 255 0 0
-8.690000 -4.710000 12.100000 255 0 0
-8.711700 -4.621700 18.613300 0 255 0
-8.810400 -4.716200 18.563700 0 255 0
-8.340000 -3.470000 -1.230000 0 255 255
-8.116700 -4.833300 17.620001 0 255 0
-8.560000 -5.185000 -2.090000 0 255 0
-8.550000 -5.477500 17.709999 0 255 0
-8.860000 -3.730000 -0.780000 0 255 255
-8.607500 -4.158700 11.758700 0 255 0
-8.155000 -4.825000 26.430000 0 255 0
-8.830000 -4.930000 1.150000 255 0 0
-7.607800 -4.268400 13.811300 0 255 0
-9.220000 -4.373000 -1.649500 0 255 255
-8.567500 -4.212500 18.559999 0 255 0
-8.712200 -4.320600 14.716500 0 255 0
-9.090000 -5.680000 23.340000 0 255 0
-9.110000 -5.700000 26.530001 0 255 0
-9.156700 -3.820000 -1.136700 0 255 255
-7.667500 -4.582500 20.522499 0 255 0
-8.212200 -4.915600 23.255600 0 255 0
-8.212300 -4.769800 13.757500 0 255 0
-8.322500 -4.435000 -1.920000 0 255 0
-8.310000 -4.657500 26.417500 0 255 0
-8.311100 -4.873000 13.762000 0 255 0
-8.430000 -4.710000 26.620001 0 255 0
-8.403200 -4.266800 -1.851100 0 255 255
-8.414300 -4.980000 16.921400 0 255 0
-8.404500 -4.921600 13.559500 0 255 0
-8.460000 -5.222500 26.167500 0 255 0
-8.476400 -4.817700 -0.739100 0 255 0
-8.463900 -5.021200 13.512400 0 255 0
-9.106900 -4.724400 13.862900 0 255 0
-8.052500 -5.737500 26.155001 0 255 0
-7.800000 -4.862500 -1.547500 0 255 255
-8.356700 -4.936700 -2.060000 0 255 0
-8.895700 -4.637100 -1.140000 255 0 0
-8.899100 -4.673600 2.109100 255 0 0
-8.915000 -4.825000 11.920000 255 0 0
-8.608900 -5.064400 14.253300 255 0 0
-8.595500 -5.026400 11.109100 255 0 0
-8.597100 -4.972100 6.515400 255 0 0
-8.605900 -5.121200 17.616501 255 0 0
-8.598400 -4.926800 3.360500 255 0 0
-8.500100 -4.867600 -0.588600 255 0 0
-8.763300 -5.160000 10.810000 255 0 0
-8.680000 -4.990000 -0.420000 255 0 0
-8.642500 -4.810000 7.755000 255 0 0
-8.663500 -4.780000 11.010900 0 255 0
-8.642000 -4.804000 7.712000 255 0 0
-8.658300 -4.773300 10.856300 255 0 0
-8.570000 -5.063300 18.860001 255 0 0
-8.560000 -5.030000 22.120001 255 0 0
-8.546700 -4.780000 0.063300 255 0 0
-8.555000 -4.916000 16.354000 255 0 0
-8.565700 -4.873100 6.609200 0 255 0
-8.566800 -4.968500 13.107900 0 255 0
-8.560100 -4.719200 3.308500 0 255 0
-8.580000 -4.835700 9.855700 255 0 0
-8.680000 -5.910000 20.490000 0 255 0
-8.790000 -4.800000 6.570000 255 0 0
-9.070000 -5.100000 15.810000 0 255 0
-8.266700 -4.966700 6.560000 0 255 0
-8.710000 -5.570000 26.620001 0 255 0
-8.558300 -5.111700 23.174999 255 0 0
-8.550000 -5.180000 19.990000 255 0 0
-8.557500 -4.880000 -0.740000 255 0 0
-8.545000 -4.821000 2.405000 255 0 0
-8.562500 -5.009200 16.665001 255 0 0
-8.568000 -5.052000 13.524000 255 0 0
-8.570000 -4.960000 5.758200 255 0 0
-8.569500 -4.922400 8.909000 255 0 0
-8.830000 -4.940000 19.639999 255 0 0
-8.815000 -5.105000 8.205000 255 0 0
-8.812000 -4.974000 -1.237000 255 0 0
-8.802900 -5.011400 1.911400 255 0 0
-8.800000 -4.560000 23.270000 0 255 0
-8.817000 -5.066000 5.056000 255 0 0
-8.809300 -4.775200 10.210700 255 0 0
-8.800000 -4.873300 16.510000 255 0 0
-8.808700 -4.824000 13.360000 255 0 0
-8.810000 -4.800000 16.000000 255 0 0
-8.820000 -4.980000 -0.686700 255 0 0
-8.795000 -5.110000 8.855000 255 0 0
-8.805000 -4.790000 12.760000 255 0 0
-8.800400 -5.021900 2.557400 255 0 0
-8.803800 -5.065000 5.605000 255 0 0
-8.803800 -5.007500 -0.776300 255 0 0
-8.805000 -5.085000 2.555000 255 0 0
-8.810000 -4.940000 19.170000 255 0 0
-8.800000 -4.870000 16.010000 255 0 0
-8.808100 -4.770600 9.509700 255 0 0
-8.805700 -4.820000 12.665700 255 0 0
-8.590000 -5.200000 24.650000 255 0 0
-8.595000 -5.028000 12.007000 255 0 0
-8.620000 -5.110000 18.316700 255 0 0
-8.595700 -4.921400 5.659000 255 0 0
-8.609000 -5.067000 15.154000 255 0 0
-8.603800 -4.968600 8.813300 255 0 0
-8.600000 -5.250000 24.709999 0 255 0
-8.622500 -5.110000 15.017500 255 0 0
-8.601500 -5.073100 11.657700 255 0 0
-8.601900 -4.928100 2.760600 255 0 0
-8.601700 -4.974200 5.907200 255 0 0
-8.603500 -5.022800 8.508300 255 0 0
-8.670000 -5.100000 5.160000 255 0 0
-8.654000 -4.926000 18.219999 255 0 0
-8.656100 -5.068700 8.313900 255 0 0
-7.660900 -4.121300 13.809100 0 255 0
-8.460000 -5.590000 -1.890000 0 255 255
-8.570000 -5.260000 -1.520000 0 255 0
-8.420000 -5.440000 19.660000 0 255 0
-8.904800 -4.871000 1.610000 255 0 0
-8.906100 -4.718800 4.761200 255 0 0
-8.913900 -4.780400 7.909600 255 0 0
-8.806600 -4.626600 1.161400 255 0 0
-8.810600 -4.658100 4.414700 255 0 0
-8.807300 -4.727300 7.659800 255 0 0
-8.770000 -4.720000 4.270000 255 0 0
-8.750700 -4.572200 0.920400 255 0 0
-8.765000 -4.500000 16.924999 0 255 0
-8.758700 -4.683700 7.411200 255 0 0
-8.715600 -4.735600 10.557800 255 0 0
-8.717500 -4.682500 7.307500 0 255 0
-8.715700 -4.731400 10.455700 255 0 0
-8.717500 -4.685000 7.205000 255 0 0
-8.840000 -4.400000 15.640000 0 255 0
-8.680000 -4.450000 20.490000 0 255 0
-8.680000 -4.688000 7.060000 0 255 0
-8.655000 -4.710000 3.730000 255 0 0
-8.680000 -4.450000 20.420000 0 255 0
-8.670000 -4.686700 6.963300 255 0 0
-8.661200 -4.725700 6.859800 0 255 0
-8.663100 -4.724200 6.757500 255 0 0
-8.702500 -6.122500 24.572500 0 255 0
-7.770700 -5.085300 6.404000 0 255 0
-8.661200 -4.722600 6.664000 0 255 0
-8.309900 -4.971800 6.467900 0 255 0
-8.157000 -4.070000 25.457001 0 255 0
-7.562300 -4.267700 13.771800 0 255 0
-8.157700 -5.206200 13.651500 0 255 0
-8.550000 -4.840000 15.460000 255 0 0
-8.577500 -4.925000 21.959999 0 255 0
-8.556000 -5.078000 26.063999 0 255 0
-8.567500 -4.967500 18.697500 255 0 0
-8.572500 -4.633300 2.417500 255 0 0
-8.569100 -4.874500 12.205500 255 0 0
-8.559500 -4.668000 -0.842000 255 0 0
-8.570700 -4.775300 5.659600 0 255 0
-8.560000 -5.074000 26.160000 0 255 0
-8.564000 -4.966000 18.608000 255 0 0
-8.565600 -4.876700 12.309400 255 0 0
-8.573800 -4.640000 2.513700 255 0 0
-8.560600 -4.671800 -0.739700 255 0 0
-8.570200 -4.771900 5.558900 255 0 0
-8.870000 -5.080000 23.990000 0 255 0
-8.580000 -4.840000 15.140000 255 0 0
-8.540000 -4.910000 21.440001 255 0 0
-8.555000 -5.025000 26.600000 0 255 0
-8.560000 -5.070000 23.360001 255 0 0
-8.565000 -4.878500 11.917500 0 255 0
-8.565000 -4.973300 18.201700 255 0 0
-8.576700 -4.637800 2.112200 0 255 0
-8.553600 -4.666800 -1.139500 0 255 0
-8.572300 -4.774600 5.158600 255 0 0
-8.650000 -4.940000 3.900000 255 0 0
-8.640000 -4.990000 0.130000 255 0 0
-8.665000 -4.785000 13.567500 255 0 0
-8.658300 -4.811700 10.409200 255 0 0
-8.580000 -5.100000 13.740000 255 0 0
-8.570000 -5.160000 10.600000 255 0 0
-8.566300 -5.013700 7.258800 255 0 0
-8.553300 -5.203300 20.313299 255 0 0
-8.556700 -4.919400 2.310100 0 255 0
-8.549000 -4.969800 -0.840300 255 0 0
-9.466600 -4.021000 -0.935800 0 255 255
-9.445000 -5.175000 26.225000 0 255 0
-7.650000 -5.134500 -1.027500 0 255 255
-7.656200 -5.117700 -1.394600 0 255 255
-8.520000 -5.050000 19.719999 255 0 0
-8.530000 -5.000000 16.440001 255 0 0
-8.490000 -4.926700 -2.086700 0 255 0
-8.530000 -4.870000 7.465000 255 0 0
-8.503300 -5.323300 23.209999 0 255 0
-8.524800 -4.962600 1.160900 255 0 0
-8.524200 -4.826500 4.214200 255 0 0
-8.810000 -4.450000 20.500000 0 255 0
-8.806700 -4.623700 3.711800 255 0 0
-8.802900 -4.682100 7.059300 0 255 0
-8.756700 -4.736700 9.712000 255 0 0
-8.759400 -4.615500 3.409700 255 0 0
-8.540000 -5.120000 25.565001 255 0 0
-8.567500 -5.076200 15.907500 255 0 0
-8.544800 -4.708800 0.260900 0 255 0
-8.566900 -4.818800 6.410600 255 0 0
-8.570500 -4.918600 12.911400 255 0 0
-8.556400 -4.968400 9.751400 255 0 0
-8.549600 -4.870800 3.261000 255 0 0
-8.540000 -5.160000 22.370001 255 0 0
-8.566700 -5.067800 15.866700 255 0 0
-8.544400 -4.710600 0.306000 255 0 0
-8.567400 -4.821500 6.461000 0 255 0
-8.560000 -5.003300 19.116699 255 0 0
-8.561500 -4.965200 9.711500 255 0 0
-8.569100 -4.923000 12.964800 0 255 0
-8.551300 -4.872600 3.215700 255 0 0
-8.710000 -4.630000 6.320000 255 0 0
-8.717900 -4.584800 3.155900 255 0 0
-8.715000 -4.620000 6.360000 255 0 0
-8.718100 -4.585600 3.112600 255 0 0
-8.708800 -4.585600 2.963100 255 0 0
-8.570000 -5.170000 13.060000 255 0 0
-8.566700 -5.223300 22.653299 255 0 0
-8.580000 -5.050000 6.770000 255 0 0
-8.558400 -4.976900 -0.389600 255 0 0
-8.560300 -5.014500 10.007600 255 0 0
-8.558400 -4.919500 2.859200 255 0 0
-8.662000 -4.320000 18.459999 0 255 0
-8.660500 -4.621400 -0.339800 255 0 0
-8.668600 -4.587100 2.812900 255 0 0
-8.680000 -4.585000 -0.485000 255 0 0
-8.659400 -4.271300 18.513800 0 255 0
-8.656700 -4.325000 18.511700 0 255 0
-8.659200 -4.619200 -0.489200 0 255 0
-8.663100 -4.580800 2.755400 255 0 0
-8.680000 -4.580000 -1.670000 0 255 0
-8.640000 -4.300000 18.799999 0 255 0
-8.663800 -4.586200 2.463300 255 0 0
-8.660700 -4.612700 -0.788600 255 0 0
-8.670000 -4.300000 18.840000 0 255 0
-8.714000 -4.066000 25.520000 0 255 0
-8.662200 -4.615800 -0.741000 0 255 0
-8.665700 -4.587900 2.412900 255 0 0
-8.712900 -4.077100 25.600000 0 255 0
-8.659200 -4.613400 -0.839500 0 255 0
-8.664400 -4.585800 2.313500 0 255 0
-8.660000 -4.303300 14.773300 0 255 0
-8.654500 -4.323500 18.655001 0 255 0
-8.661800 -4.583600 2.210000 255 0 0
-8.659600 -4.607800 -0.940200 255 0 0
-8.623300 -4.586700 2.061700 255 0 0
-8.618000 -4.818000 17.622000 255 0 0
-8.657400 -4.615800 1.860600 255 0 0
-8.500000 -5.120000 13.660000 255 0 0
-8.510000 -5.040000 20.180000 255 0 0
-8.511100 -4.920700 0.610300 0 255 0
-8.530000 -4.970000 3.880000 255 0 0
-8.530000 -4.880000 11.305000 255 0 0
-8.495000 -5.180000 19.065001 255 0 0
-8.524300 -4.678000 -1.339800 0 255 0
-8.521900 -4.912300 1.660700 255 0 0
-8.666900 -4.587700 1.611500 255 0 0
-8.650000 -4.600000 -1.640000 0 255 0
-8.671300 -4.586100 1.513900 0 255 0
-8.672700 -4.588600 1.459200 255 0 0
-8.680000 -4.590000 4.520000 255 0 0
-8.650000 -4.400000 14.820000 0 255 0
-8.660000 -4.613200 1.361400 255 0 0
-8.661200 -4.612100 1.260200 0 255 0
-8.664800 -4.584800 1.066700 0 255 0
-8.463300 -4.914400 -2.044400 0 255 0
-8.476800 -4.865800 1.010000 255 0 0
-8.666500 -4.585500 0.749200 255 0 0
-8.474400 -4.864400 0.610800 0 255 0
-8.648400 -4.478900 10.822100 0 255 0
-8.657300 -4.614400 0.610000 255 0 0
-8.650600 -4.472400 10.854200 0 255 0
-8.656900 -4.616200 0.559600 0 255 0
-8.661500 -4.589200 0.454600 255 0 0
-8.709700 -4.615800 0.160500 255 0 0
-8.712200 -4.616900 0.110500 255 0 0
-8.776700 -4.466700 22.746700 0 255 0
-8.760600 -4.703900 6.157700 255 0 0
-8.752900 -4.585700 3.009300 255 0 0
-8.761800 -4.627000 -0.139400 255 0 0
-8.709800 -4.612500 2.961600 255 0 0
-8.713800 -4.587400 -0.292100 255 0 0
-8.480000 -5.355000 16.205000 0 255 0
-8.476500 -4.819100 -0.337400 255 0 0
-8.460000 -5.220000 26.330000 0 255 0
-8.476000 -4.817700 -0.585300 0 255 0
-7.698000 -5.074000 -0.734000 0 255 255
-7.764800 -5.134300 -0.792900 0 255 255
-8.171900 -5.368100 -1.139700 0 255 255
-7.458300 -4.915000 -1.131700 0 255 255
-9.464400 -5.420000 15.524400 0 255 0
-8.530000 -4.630000 1.900000 255 0 0
-8.530000 -5.110000 22.299999 255 0 0
-8.530000 -4.920000 8.050000 255 0 0
-8.505000 -5.155000 25.465000 255 0 0
-8.525700 -4.972900 11.210000 255 0 0
-8.515000 -4.769900 -1.439000 0 255 0
-7.760000 -5.085000 -1.435000 0 255 255
-8.750000 -4.990000 8.320000 255 0 0
-8.758300 -5.118300 11.465000 255 0 0
-8.751400 -5.034300 5.161400 255 0 0
-8.770000 -4.830000 18.205000 255 0 0
-8.760000 -5.320000 -1.600000 0 255 255
-8.520000 -5.140000 22.160000 255 0 0
-8.520000 -4.916700 8.316700 255 0 0
-8.530000 -5.170000 25.420000 255 0 0
-8.510000 -4.870000 17.870001 255 0 0
-8.521700 -4.981700 11.561700 255 0 0
-8.513500 -4.770100 -1.489300 0 255 0
-7.598800 -4.970000 -1.440000 0 255 255
-7.600700 -4.627100 -1.439300 0 255 255
-8.660000 -4.070900 25.555500 0 255 0
-7.605400 -4.209200 -1.386900 0 255 255
-8.520000 -4.910000 8.250000 255 0 0
-8.516000 -4.984000 11.404000 255 0 0
-8.513300 -5.180000 25.273300 255 0 0
-8.511500 -4.769100 -1.636700 0 255 0
-7.580000 -5.275000 19.110001 0 255 0
-9.450000 -5.070000 -1.580000 0 255 255
-9.440000 -4.890000 11.630000 0 255 0
-9.449400 -5.069400 -1.437500 0 255 255
-9.196700 -3.680000 -1.673300 0 255 255
-9.516700 -4.573300 21.473301 0 255 0
-9.515000 -4.710000 18.430000 0 255 0
-7.613300 -5.526700 24.551701 0 255 0
-9.514200 -4.111700 17.959999 0 255 0
-7.517900 -5.064300 -1.294300 0 255 255
-9.450000 -5.810000 25.209999 0 255 0
-9.017500 -3.912500 -1.825000 0 255 255
-8.580000 -6.260000 20.410000 0 255 0
-8.263800 -4.936900 6.470000 0 255 0
-7.662200 -5.309400 -0.938900 0 255 255
-9.110000 -5.190000 26.730000 0 255 0
-8.800000 -5.750000 26.580000 0 255 0
-7.950000 -5.440000 19.240000 0 255 0
-7.967500 -5.422500 19.110001 0 255 0
-9.102500 -4.970000 -1.690000 0 255 0
-9.690000 -5.650000 -1.610000 0 255 255
-8.616000 -3.921000 14.807000 0 255 0
-9.870000 -4.850000 18.680000 0 255 0
-8.870000 -4.830000 -0.580000 255 0 0
-8.860200 -4.712400 5.711300 255 0 0
-7.640000 -4.515000 16.305000 0 255 0
-7.873300 -4.963300 19.196699 0 255 0
-9.540000 -5.030000 -1.583300 0 255 255
-9.565000 -4.870000 20.705000 0 255 0
-9.650000 -4.430000 10.230000 0 255 0
-9.656000 -4.322000 16.504000 0 255 0
-9.300000 -5.680000 20.830000 0 255 0
-9.380000 -3.885000 -1.585000 0 255 255
-7.804200 -4.965000 19.113300 0 255 0
-8.530000 -3.450000 -1.650000 0 255 255
-8.520000 -5.800000 17.709999 0 255 0
-8.818900 -3.835600 20.468901 0 255 0
-8.310000 -5.280000 26.190001 0 255 0
-8.312500 -5.380000 19.697500 0 255 0
-8.760000 -5.075000 13.175000 255 0 0
-8.745000 -4.825000 16.450001 255 0 0
-8.752900 -5.111400 9.905700 255 0 0
-8.761600 -5.012500 3.409700 255 0 0
-8.762000 -4.768000 19.709000 0 255 0
-8.850000 -5.000000 16.570000 255 0 0
-8.845000 -5.065000 13.420000 255 0 0
-8.505000 -4.660000 22.020000 0 255 0
-8.512900 -4.627100 18.751400 0 255 0
-8.071700 -4.767500 13.803300 0 255 0
-8.055000 -4.965000 26.445000 0 255 0
-8.910000 -4.950000 -0.150000 255 0 0
-8.890000 -4.600000 15.500000 0 255 0
-8.930000 -4.650000 18.639999 0 255 0
-8.000000 -4.990000 -1.820000 0 255 255
-8.010000 -4.915000 20.379999 0 255 0
-7.815000 -5.027300 16.918100 0 255 0
-8.240000 -4.830000 -1.520000 0 255 255
-8.258900 -5.320600 17.614901 0 255 0
-9.811000 -4.318500 14.005500 0 255 0
-8.410000 -5.140000 24.400000 0 255 0
-8.410000 -5.420700 17.656099 0 255 0
-8.871000 -4.772000 0.755000 255 0 0
-8.871400 -4.710000 3.905700 255 0 0
-8.857600 -4.118400 16.960800 0 255 0
-8.150000 -4.850000 23.219999 0 255 0
-8.165000 -4.826700 26.351700 0 255 0
-8.513300 -5.530000 26.623301 0 255 0
-8.490000 -5.260000 24.000000 0 255 0
-8.710500 -4.629700 4.406300 0 255 0
-8.710300 -4.588100 1.264100 0 255 0
-8.477500 -4.832500 2.455000 255 0 0
-8.480000 -4.860000 -0.783300 255 0 0
-8.461400 -5.074300 13.467100 0 255 0
-8.460000 -5.250000 26.110001 0 255 0
-8.455000 -5.350000 19.820000 0 255 0
-8.662900 -4.023600 25.514999 0 255 0
-8.710000 -4.540000 3.300000 255 0 0
-8.680000 -4.870000 9.920000 255 0 0
-8.650000 -4.910000 6.650000 255 0 0
-8.640000 -4.750000 16.430000 0 255 0
-8.660000 -5.025700 0.510300 0 255 0
-8.659600 -4.826500 13.164600 255 0 0
-8.655200 -4.978700 3.764300 255 0 0
-8.640000 -4.900000 9.790000 255 0 0
-8.664300 -5.062900 0.718600 255 0 0
-8.664500 -5.011700 3.858300 255 0 0
-8.653100 -4.865000 12.963700 255 0 0
-8.663600 -4.824500 16.110901 255 0 0
-8.708800 -5.010000 2.411800 255 0 0
-8.706300 -4.781300 12.710000 255 0 0
-8.713300 -4.825000 15.858300 255 0 0
-7.710800 -4.273800 13.860000 0 255 0
-8.003800 -4.471200 13.721200 0 255 0
-8.157100 -5.430000 23.958599 0 255 0
-8.168900 -5.008900 -1.754400 0 255 255
-8.159300 -4.571600 13.809000 0 255 0
-8.258300 -4.623400 13.811700 0 255 0
-7.780000 -4.430000 20.629999 0 255 0
-7.696700 -4.573300 16.123301 0 255 0
-7.770000 -4.470000 17.790001 0 255 0
-8.620000 -4.970000 23.379999 255 0 0
-8.625000 -4.735000 7.480000 255 0 0
-8.610000 -4.874200 16.862499 255 0 0
-8.611900 -4.625000 0.959100 255 0 0
-8.620000 -4.935000 20.100000 255 0 0
-8.615500 -4.675600 4.210200 255 0 0
-8.618500 -4.783800 10.703100 255 0 0
-8.615700 -4.832900 13.605700 255 0 0
-8.617100 -4.781400 10.162900 255 0 0
-8.600000 -4.980000 22.799999 255 0 0
-8.606700 -5.023300 26.796700 0 255 0
-8.609400 -4.624500 0.711800 0 255 0
-8.612500 -4.671100 3.858100 0 255 0
-8.625200 -4.729100 7.012200 255 0 0
-8.620000 -4.916700 19.666700 255 0 0
-8.617300 -4.828200 13.358200 255 0 0
-8.612300 -4.876900 16.517700 255 0 0
-8.620000 -5.112500 10.057500 255 0 0
-8.615000 -5.008300 3.755000 255 0 0
-8.596000 -4.984000 1.060000 255 0 0
-8.610000 -5.260000 20.049999 255 0 0
-8.620000 -5.160000 13.290000 255 0 0
-8.625000 -5.056700 7.016700 255 0 0
-7.606500 -4.520000 17.766500 0 255 0
-8.761700 -4.020000 25.506701 0 255 0
-7.640000 -4.630000 25.510000 0 255 0
-7.665100 -4.518100 10.113700 0 255 0
-8.613200 -3.465300 -0.881800 0 255 255
-7.863300 -5.160000 -1.833300 0 255 255
-8.310000 -5.410000 -1.660000 0 255 255
-8.710000 -4.675000 7.850000 255 0 0
-8.715000 -4.717500 11.012500 255 0 0
-8.401400 -5.366700 -1.690500 0 255 255
-8.752000 -5.054000 -0.650000 255 0 0
-9.263700 -6.068900 17.609501 0 255 0
-8.710000 -3.826700 14.856700 0 255 0
-8.710600 -3.771600 11.612900 0 255 0
-8.718500 -3.826900 11.026900 0 255 0
-8.710000 -5.570000 -2.090000 0 255 255
-7.759700 -4.371100 10.314700 0 255 0
-8.401700 -4.185000 10.821700 0 255 0
-9.108000 -4.922000 13.954000 0 255 0
-7.856700 -4.436700 10.310000 0 255 0
-8.850000 -4.450000 15.520000 0 255 0
-8.580000 -4.840000 13.350000 255 0 0
-8.570000 -5.060000 21.943300 255 0 0
-8.570000 -5.025000 25.195000 255 0 0
-8.555100 -4.771300 3.759300 255 0 0
-8.563100 -4.969200 16.410000 255 0 0
-8.572600 -4.632900 0.711100 255 0 0
-8.570300 -4.872000 10.109700 255 0 0
-9.357600 -4.222100 10.120300 0 255 0
-8.580000 -4.720000 6.600000 255 0 0
-8.553300 -4.836700 12.966700 255 0 0
-8.550000 -5.025000 25.600000 255 0 0
-8.555000 -5.060000 22.370001 255 0 0
-8.547300 -4.766000 3.360100 255 0 0
-8.575000 -4.633100 0.306200 255 0 0
-8.570000 -4.920000 19.260000 255 0 0
-8.562700 -4.964700 16.015301 255 0 0
-8.568900 -4.873800 9.713800 255 0 0
-8.923700 -4.530000 9.807500 0 255 0
-7.705000 -4.755000 13.805000 0 255 0
-9.400000 -3.925000 -1.140000 0 255 255
-8.550000 -5.080000 22.490000 255 0 0
-8.563300 -4.828300 12.610000 255 0 0
-8.570000 -4.940000 19.090000 255 0 0
-8.565600 -4.965000 15.957200 255 0 0
-8.575000 -4.725000 6.070000 255 0 0
-8.546200 -4.768500 2.912000 255 0 0
-8.573500 -4.634500 -0.445500 0 255 0
-8.571000 -4.870200 9.463200 255 0 0
-8.270000 -4.823000 13.668000 0 255 0
-8.262400 -4.963100 6.503900 0 255 0
-9.400000 -4.750000 -1.660000 0 255 255
-9.210000 -4.786700 11.870000 0 255 0
-9.211700 -4.736700 8.611700 0 255 0
-8.240000 -3.910000 11.500000 0 255 0
-7.600000 -5.480000 25.480000 0 255 0
-7.595000 -4.535000 -1.335000 0 255 255
-8.412500 -3.817500 11.950000 0 255 0
-7.507800 -5.172900 6.318200 0 255 0
-8.564000 -4.838000 9.966000 0 255 0
-8.570000 -5.025000 22.205000 255 0 0
-8.555000 -5.170000 25.260000 255 0 0
-8.570000 -4.780000 -0.040000 255 0 0
-8.565000 -4.925000 16.254000 255 0 0
-8.559500 -4.974800 13.015200 255 0 0
-8.555700 -5.062900 18.967100 255 0 0
-8.556300 -4.717200 3.211800 255 0 0
-8.566200 -4.867400 6.708500 255 0 0
-7.620000 -5.650000 24.950001 0 255 0
-9.350000 -5.230000 26.389999 0 255 0
-9.362500 -5.315000 15.590000 0 255 0
