7.790000 13.950000 9.810000 255 0 0
7.785000 13.935000 9.960000 255 0 0
7.390000 13.480000 26.355000 0 255 0
8.570000 13.040000 26.809999 0 255 0
8.010000 13.860000 14.160000 0 255 0
7.782400 14.186800 4.660500 255 0 0
8.160000 14.130000 17.990000 255 0 0
8.133300 14.183300 21.059999 255 0 0
8.120000 14.240000 23.379999 0 255 0
8.130000 14.130000 16.860001 255 0 0
8.140000 14.120000 17.520000 255 0 0
8.136800 14.080000 14.253600 0 255 0
8.150000 14.180000 20.750000 255 0 0
7.785500 13.426000 21.805500 0 255 0
7.780000 13.350000 27.830000 0 255 0
7.639300 14.135600 4.106200 255 0 0
7.652000 14.032000 10.604000 255 0 0
7.780000 13.740000 23.510000 0 255 0
7.780000 13.990000 7.320000 255 0 0
7.790000 13.950000 10.450000 255 0 0
8.546700 14.373300 2.256700 0 255 255
8.550000 14.620000 18.580000 0 255 0
8.530000 14.700000 21.790001 0 255 0
8.190000 14.130000 3.210000 0 255 255
8.210000 14.135000 2.375000 0 255 255
8.685000 13.840000 19.855000 0 255 0
8.441300 14.975600 2.664400 0 255 255
8.035000 14.325000 14.065000 255 0 0
7.990000 13.820000 27.900000 0 255 0
7.950000 13.720000 2.140000 0 255 255
8.220000 15.040000 2.390000 0 255 255
8.304000 13.036000 22.962000 0 255 0
6.737700 14.088200 10.455000 0 255 0
7.447900 14.237900 4.660900 255 0 0
7.750000 14.730000 2.150000 0 255 255
7.755000 14.245000 21.764999 0 255 0
7.742800 14.176700 18.606100 0 255 0
7.440700 13.585300 10.405300 0 255 0
8.144400 14.431100 21.059999 0 255 0
8.140000 14.238000 13.318000 0 255 0
8.392000 13.486000 2.948000 0 255 255
8.440000 13.986700 2.856700 0 255 255
8.135000 13.733000 19.062000 0 255 0
8.136700 13.483300 2.470000 0 255 255
9.200000 14.070000 25.850000 0 255 0
8.346300 13.831300 14.220000 0 255 0
8.380000 15.210000 2.780000 0 255 255
8.530000 13.460000 27.459999 0 255 0
8.640000 14.980000 27.514999 0 255 0
8.460000 15.030000 27.280001 0 255 0
8.427500 15.117500 20.972500 0 255 0
7.860000 13.940000 11.640000 255 0 0
7.846800 14.069200 8.406000 255 0 0
7.840000 13.950000 11.110000 255 0 0
7.838000 14.074100 7.759300 255 0 0
7.830000 14.010000 16.100000 255 0 0
7.842700 14.075100 7.905900 0 255 0
7.792600 14.072600 7.109800 255 0 0
7.788500 14.030000 10.262100 255 0 0
7.799000 14.067600 7.664300 255 0 0
7.785900 14.030900 10.909100 255 0 0
7.780000 13.640000 2.880000 0 255 0
7.787300 14.024200 9.606400 255 0 0
7.792200 14.086700 6.360000 255 0 0
7.790000 13.925000 16.100000 0 255 0
7.805000 13.835000 22.650000 0 255 0
7.970000 14.420000 12.890000 255 0 0
7.986000 14.078000 10.017600 255 0 0
8.105000 13.810000 19.355000 0 255 0
8.093300 13.783300 22.110001 0 255 0
8.085000 13.495000 2.540000 0 255 255
8.095700 13.475700 3.012900 0 255 255
8.105000 13.495000 2.530000 0 255 255
8.092500 13.835000 18.917500 0 255 0
6.788200 13.880600 17.110001 0 255 0
7.890000 14.465000 27.809999 0 255 0
8.540000 14.070000 18.969999 0 255 0
8.050000 13.430000 2.952000 0 255 255
7.170000 13.760000 10.450000 0 255 0
7.195000 14.021900 20.263100 0 255 0
7.976700 14.183300 9.523300 255 0 0
7.981000 14.129000 12.762000 255 0 0
7.987700 14.073800 16.010000 255 0 0
7.985000 14.136400 13.104300 255 0 0
7.970000 14.172500 9.952500 255 0 0
8.000000 14.082500 16.260000 255 0 0
8.620000 13.480000 26.870001 0 255 0
8.580000 14.610000 18.400000 0 255 0
8.730000 13.640000 24.920000 0 255 0
8.460000 14.140000 2.450000 0 255 255
8.394000 14.082000 2.514000 0 255 255
8.570000 14.090000 18.500000 0 255 0
8.680000 13.738300 3.351700 0 255 255
8.340000 14.060000 14.080000 0 255 0
8.130000 14.060000 21.850000 255 0 0
8.183300 13.940000 18.556700 255 0 0
8.190000 13.920000 17.600000 255 0 0
8.190000 13.865000 20.665001 255 0 0
8.010000 15.050000 24.049999 0 255 0
7.546000 13.176000 2.796000 0 255 255
8.095300 13.930700 19.012699 255 0 0
8.090000 13.875000 22.245001 255 0 0
8.030000 14.050000 22.400000 0 255 0
8.039000 13.985000 19.254000 255 0 0
8.040000 13.930000 17.180000 255 0 0
8.690000 13.750000 19.030001 0 255 0
8.690000 13.865000 22.260000 0 255 0
6.792100 15.225800 2.452500 0 0 255
9.010000 14.690000 23.160000 0 255 0
9.233300 13.973300 22.780001 0 255 0
8.700000 13.830000 24.600000 0 255 0
8.600000 13.045000 24.410000 0 255 0
8.300000 13.675000 2.270000 0 255 255
8.380000 14.165000 2.150000 0 255 255
8.095000 14.128300 16.065001 255 0 0
8.470000 14.990000 27.340000 0 255 0
7.930000 14.480000 27.920000 0 255 0
7.850000 14.180000 11.610000 255 0 0
7.850000 14.110000 8.440000 255 0 0
7.841700 14.277300 5.105500 0 255 0
7.798000 14.420000 13.114000 255 0 0
7.780000 14.377500 15.107500 255 0 0
7.800000 15.360000 2.600000 0 255 255
7.803300 14.420000 12.600000 255 0 0
8.020000 14.800000 22.879999 0 255 0
7.690000 14.450000 4.570000 255 0 0
7.741500 13.829200 15.966900 0 255 0
7.682700 14.394000 7.710000 255 0 0
8.130000 13.720000 22.209999 0 255 0
8.137500 13.676700 18.959200 0 255 0
7.036000 14.022000 22.403999 0 255 0
8.550000 13.780000 2.510000 0 255 255
7.230000 14.370000 20.389999 0 255 0
8.260000 14.550000 25.930000 0 255 0
9.136700 14.680000 23.446699 0 255 0
8.542500 13.290000 23.977501 0 255 0
8.620000 13.890000 27.870001 0 255 0
8.097500 14.133800 15.605000 255 0 0
7.630000 14.182700 2.558000 0 255 0
7.090000 14.166000 2.228000 0 255 0
7.730000 14.470000 25.790001 0 255 0
7.729000 14.287000 13.153000 255 0 0
7.236700 14.366700 2.276700 0 255 0
7.196700 13.473300 22.860001 0 255 0
9.186700 14.235600 16.756701 0 255 0
7.890000 13.390000 22.010000 0 255 0
7.960000 13.350000 27.549999 0 255 0
8.470000 14.690000 27.620001 0 255 0
8.347500 14.072500 2.615000 0 255 255
8.341200 14.174500 14.212100 0 255 0
7.830000 14.480000 2.400000 0 255 0
7.842100 14.327800 5.456500 255 0 0
7.839000 14.381000 8.708600 255 0 0
7.830000 14.110000 18.110001 255 0 0
7.825000 14.285000 15.045000 255 0 0
8.070000 14.050000 21.160000 255 0 0
8.090000 13.873300 23.350000 0 255 0
8.102000 13.938000 20.118000 255 0 0
8.095000 13.730000 24.559999 0 255 0
8.037900 14.029300 16.558599 255 0 0
8.340000 13.980000 27.510000 0 255 0
7.770000 14.785000 21.600000 0 255 0
7.770000 14.120000 12.130000 255 0 0
7.806700 14.223300 5.261700 255 0 0
7.832900 14.091000 6.505700 255 0 0
7.855000 14.040000 3.250000 0 255 0
7.789400 14.230700 4.512100 255 0 0
6.640000 14.988000 2.374000 0 255 255
6.700000 14.960000 2.550000 0 255 255
7.285000 13.930000 2.615000 0 255 0
6.970000 13.690000 2.380000 0 255 255
6.690000 13.790000 2.300000 0 255 255
8.582500 13.880000 24.504999 0 255 0
7.980000 14.030000 26.610001 0 255 0
8.940000 13.750000 25.309999 0 255 0
8.282200 14.331100 2.105600 0 255 255
7.684000 14.194000 19.096001 0 255 0
7.360000 13.440000 2.490000 0 255 255
8.930000 14.340000 13.650000 0 255 0
7.995000 13.230000 27.065001 0 255 0
7.900000 15.075000 23.002501 0 255 0
8.573300 14.123300 3.026700 0 255 255
9.130000 13.740000 26.290001 0 255 0
8.940000 14.700000 22.299999 0 255 0
8.541700 13.940000 18.472500 0 255 0
7.080000 14.550000 14.020000 0 255 0
7.070000 14.640000 20.309999 0 255 0
6.586700 14.474400 10.272200 0 255 0
7.294200 13.630800 10.311300 0 255 0
8.430000 14.410000 19.540001 0 255 0
7.438900 13.878900 2.868900 0 255 0
8.440000 13.690000 27.900000 0 255 0
6.951400 13.825700 9.971400 0 255 0
7.840000 13.640000 2.450000 0 255 0
7.845000 13.626700 2.998300 0 255 0
8.255000 13.360000 3.390000 0 255 255
8.305000 14.240000 28.075001 0 255 0
8.310000 14.620000 2.590000 0 255 255
7.630000 13.980000 10.600000 255 0 0
7.631200 14.118200 7.355300 255 0 0
7.626700 14.086700 4.110000 255 0 0
8.440000 14.460000 2.550000 0 255 255
8.443300 14.723300 18.480000 0 255 0
8.420000 14.070000 27.840000 0 255 0
8.490000 13.060000 23.639999 0 255 0
9.100000 14.095000 16.455000 0 255 0
9.250000 14.490000 26.309999 0 255 0
7.750000 14.190000 16.556700 255 0 0
7.510000 13.810000 2.520000 0 255 0
8.220000 13.720000 2.330000 0 255 255
8.250000 13.788000 2.916000 0 255 255
8.110000 14.050000 21.530001 255 0 0
7.504000 14.143000 5.304000 255 0 0
7.743000 14.121900 5.162300 255 0 0
7.483300 13.586700 2.110000 0 255 255
7.903300 13.866700 14.473300 0 255 0
8.041000 14.131000 12.864000 255 0 0
8.090000 14.230000 13.630000 255 0 0
8.025000 14.120000 13.220000 255 0 0
8.050000 14.160000 2.390000 0 255 255
8.030000 14.370000 15.070000 255 0 0
7.610000 13.095000 22.209999 0 255 0
7.950000 13.230000 27.110001 0 255 0
7.660000 14.170000 27.650000 0 255 0
7.636200 14.333500 8.357800 255 0 0
7.640000 14.173000 11.712000 255 0 0
7.440000 14.130000 18.770000 0 255 0
7.520000 13.400000 10.230000 0 255 0
6.750000 14.840000 2.690000 0 255 255
6.985000 13.685500 10.357000 0 255 0
7.138700 14.422500 11.545000 0 255 0
8.020000 14.340000 27.879999 0 255 0
8.043300 14.140000 15.213300 255 0 0
8.040000 14.070000 11.950000 255 0 0
8.744400 13.828900 14.212200 0 255 0
7.642600 14.128400 16.100500 0 255 0
7.870000 14.000000 17.100000 255 0 0
7.900000 14.045000 26.570000 0 255 0
7.900000 14.072500 23.407499 0 255 0
8.570000 14.040000 16.469999 0 255 0
7.460000 14.240000 19.790001 0 255 0
8.930000 14.620000 24.020000 0 255 0
7.460000 14.273300 5.656700 255 0 0
7.500000 14.080000 6.740000 255 0 0
8.270000 14.340000 13.970000 0 255 0
8.310000 14.200000 23.850000 0 255 0
8.270000 14.090000 17.580000 255 0 0
8.295000 14.030000 18.565001 255 0 0
7.583300 14.172700 2.955300 255 0 0
7.580000 14.387500 16.018801 0 255 0
7.776700 15.020000 21.650000 0 255 0
7.840000 14.200000 2.680000 0 255 0
7.830000 14.700000 21.469999 0 255 0
7.550000 14.820000 2.440000 0 255 255
7.185000 14.042500 17.252501 0 255 0
7.240000 13.784300 2.564300 0 255 0
8.260000 13.940000 23.010000 255 0 0
6.883100 13.723100 10.398500 0 255 0
8.540000 14.680000 19.459999 0 255 0
6.970000 14.520000 11.620000 0 255 0
8.240000 14.330000 19.495001 0 255 0
8.230000 14.210000 25.809999 0 255 0
8.255000 14.715000 2.455000 0 255 255
7.360000 14.410000 3.730000 255 0 0
6.692000 13.676000 10.220000 0 255 0
8.090000 12.840000 22.700001 0 255 0
7.654000 14.410000 7.217000 0 255 0
7.485900 13.484700 10.357500 0 255 0
8.978900 13.893300 13.712200 0 255 0
8.175000 14.725000 2.465000 0 255 255
7.990000 13.940000 2.410000 0 255 255
7.270000 14.220000 2.790000 0 255 0
6.889000 14.284000 9.855000 0 255 0
6.960000 14.770000 17.270000 0 255 0
7.837500 14.387500 11.652500 255 0 0
7.820000 14.200000 24.730000 0 255 0
7.841000 14.429000 2.218300 0 255 0
7.830000 14.226000 15.266000 255 0 0
8.540000 13.230000 24.057501 0 255 0
8.660000 13.360000 27.500000 0 255 0
8.103300 13.940000 21.613300 255 0 0
8.086000 13.640000 2.822000 0 255 255
8.096800 13.630500 3.156400 0 255 255
8.100000 13.940000 22.959999 255 0 0
8.146700 13.883300 21.543301 255 0 0
8.140000 13.932500 24.705000 255 0 0
8.130000 13.890000 20.920000 255 0 0
8.140000 14.490000 21.160000 0 255 0
8.142000 14.478000 21.104000 0 255 0
7.681100 14.344400 10.162200 255 0 0
7.694000 14.285000 13.400000 255 0 0
7.702800 14.221300 3.859300 255 0 0
7.020000 14.225000 20.325001 0 255 0
7.046700 13.673300 10.403300 0 255 0
8.970000 14.780000 22.230000 0 255 0
8.385000 15.135000 25.155001 0 255 0
8.341700 14.625000 18.491699 0 255 0
8.340000 14.166700 2.363300 0 255 255
7.152000 13.982000 22.364000 0 255 0
7.430000 14.369400 11.457600 0 255 0
6.644300 15.135700 2.415700 0 255 255
7.946700 13.873300 14.493300 0 255 0
7.920000 14.000000 2.670000 0 255 0
7.930000 14.088600 8.970000 255 0 0
8.835000 13.180000 26.820000 0 255 0
9.370000 14.090000 26.830000 0 255 0
8.370000 14.070000 22.530001 255 0 0
6.844300 14.627300 15.012300 0 255 0
8.170000 14.310000 23.309999 0 255 0
8.660000 14.120000 14.150000 0 255 0
8.592800 13.923900 14.066700 0 255 0
7.633300 14.523300 2.513300 0 255 0
7.630000 14.420000 8.820000 255 0 0
8.484300 14.282100 14.022900 0 255 0
7.797100 14.118300 5.808500 0 255 0
7.785500 14.134800 5.260500 255 0 0
8.250000 14.650000 19.680000 0 255 0
8.530000 13.620000 14.270000 0 255 0
8.410000 13.390000 20.330000 0 255 0
7.975000 15.250000 2.662500 0 255 255
8.000000 15.220000 2.790000 0 255 255
8.003300 15.239300 2.756700 0 255 255
8.000000 13.440000 27.750000 0 255 0
7.391700 13.677200 2.097200 0 255 0
8.720000 13.380000 26.610001 0 255 0
7.930000 13.210000 2.630000 0 255 255
7.945000 13.132000 2.666000 0 255 255
7.387300 13.825300 2.072700 0 255 0
8.500000 14.227500 2.860000 0 255 255
8.380000 14.260000 3.270000 0 255 255
7.995700 13.227100 2.707100 0 255 255
7.970000 14.860000 23.980000 0 255 0
7.620000 14.140000 18.809999 0 255 0
8.234100 13.372000 3.211400 0 255 255
8.230700 14.634300 18.551399 0 255 0
8.242600 13.368900 3.114200 0 255 255
8.710000 14.780000 26.360001 0 255 0
8.593300 13.937000 14.110400 0 255 0
9.275000 13.730000 25.379999 0 255 0
7.390000 13.970000 2.430000 0 255 0
7.790000 13.920000 27.510000 0 255 0
7.785000 13.545000 2.225000 0 255 255
7.990000 12.880000 22.150000 0 255 0
7.970000 12.870000 22.020000 0 255 0
7.987500 12.877500 22.065001 0 255 0
8.020000 13.130000 25.400000 0 255 0
7.910000 13.900000 2.310000 0 255 0
8.470000 13.130000 23.740000 0 255 0
7.824000 14.320500 4.716000 255 0 0
7.840000 14.389300 7.854700 255 0 0
7.580000 13.560000 2.280000 0 255 255
7.995000 13.035000 27.247499 0 255 0
7.500000 14.130000 8.240000 255 0 0
7.485600 14.179400 5.107300 255 0 0
7.447800 13.478900 2.063300 0 255 255
7.510000 13.890000 2.140000 0 255 0
7.480000 13.725000 24.059999 0 255 0
7.670000 13.050000 22.400000 0 255 0
7.580000 13.015000 22.250000 0 255 0
7.810000 13.730000 2.330000 0 255 0
7.680000 13.030000 25.240000 0 255 0
7.680000 14.370000 27.620001 0 255 0
7.703300 14.183300 14.570000 255 0 0
7.670000 14.235000 11.425000 255 0 0
7.135000 14.679400 2.410600 0 255 0
7.440000 13.630000 10.510000 0 255 0
7.110000 14.070000 17.129999 0 255 0
7.110000 14.420000 20.340000 0 255 0
7.080000 14.350000 14.080000 0 255 0
7.590000 13.930000 27.750000 0 255 0
7.540000 14.270000 19.969999 0 255 0
7.090000 14.310000 14.130000 0 255 0
6.820000 14.290000 17.129999 0 255 0
6.790400 14.132300 10.157700 0 255 0
6.798800 14.033800 17.205000 0 255 0
6.760000 13.790000 2.420000 0 255 255
6.881400 13.872900 2.125700 0 255 255
6.888300 13.888300 2.643300 0 255 255
6.642500 14.130200 2.259800 0 255 255
6.782400 15.071000 2.464800 0 0 255
6.705700 14.717100 2.441400 0 255 255
7.080000 15.360000 2.310000 0 0 255
7.001200 14.287500 2.357500 0 255 0
7.305000 13.820000 25.465000 0 255 0
6.880000 13.270000 2.630000 0 255 255
7.260000 13.835000 2.755000 0 255 0
7.196000 14.016000 19.674000 0 255 0
6.680000 14.670000 10.150000 0 255 0
6.687500 14.667500 10.270000 0 255 0
8.582500 13.878800 19.004999 0 255 0
7.580000 14.170000 5.225000 255 0 0
7.628000 14.124000 8.606700 255 0 0
7.638800 14.071500 5.456800 0 255 0
7.680000 14.140000 2.750000 0 255 0
7.690600 14.072900 5.905500 0 255 0
7.831100 14.091100 6.760700 255 0 0
7.832000 14.083700 6.613700 255 0 0
7.830000 13.940000 9.870000 255 0 0
7.835000 13.825000 16.014999 0 255 0
7.840000 13.980000 13.100000 255 0 0
7.220000 14.570000 10.150000 0 255 0
6.641400 14.227900 10.365000 0 255 0
7.400000 13.340000 26.549999 0 255 0
7.385700 13.576900 10.362600 0 255 0
7.392500 13.528500 10.464000 0 255 0
7.440000 13.486700 10.560000 0 255 0
8.042300 14.080800 14.353800 255 0 0
8.028300 14.083300 15.403300 255 0 0
7.539400 14.277200 16.105000 0 255 0
8.720000 13.780000 3.110000 0 255 255
8.420000 14.250000 16.510000 0 255 0
6.940500 14.031500 17.263500 0 255 0
6.990000 14.230000 18.000000 0 255 0
7.280000 14.130000 13.810000 0 255 0
7.290000 14.245000 20.315001 0 255 0
8.230000 13.965000 23.270000 255 0 0
8.235000 13.950000 20.120001 255 0 0
8.310000 13.670000 20.340000 0 255 0
8.220000 14.510000 2.500000 0 255 255
8.350600 13.778700 14.218700 0 255 0
8.341900 13.482500 20.365000 0 255 0
8.997500 13.730000 24.660000 0 255 0
8.210000 14.490000 27.860001 0 255 0
7.240000 13.790000 3.240000 0 255 0
8.785000 14.275000 26.725000 0 255 0
8.520000 14.030000 18.990000 0 255 0
8.485600 14.426700 18.507799 0 255 0
8.520000 13.940000 18.650000 0 255 0
8.538000 13.686000 2.772000 0 255 255
6.692400 13.479800 10.265300 0 255 0
8.038300 13.343300 2.970000 0 255 255
8.045000 13.766700 19.148300 0 255 0
6.645000 13.815000 10.065000 0 255 0
8.041000 13.989000 19.311001 255 0 0
8.036700 14.043300 22.556700 0 255 0
8.020000 13.930000 17.120001 255 0 0
6.495000 14.965000 2.490000 0 255 255
8.095000 12.980000 27.150000 0 255 0
6.427300 14.618200 2.511800 0 255 255
6.631600 13.480500 2.805300 0 255 255
8.483300 13.723300 14.356700 0 255 0
6.680000 14.975000 2.625000 0 255 255
8.400000 13.690000 27.660000 0 255 0
8.410000 15.160000 2.830000 0 255 255
8.240000 13.800000 19.250000 255 0 0
8.243300 13.930000 2.970000 0 255 255
6.760000 13.770000 2.450000 0 255 255
7.550000 14.031000 18.521000 0 255 0
6.838600 13.580000 10.360000 0 255 0
7.550000 14.080000 8.800000 255 0 0
7.570000 13.740000 2.090000 0 255 0
6.958000 14.638000 2.440000 0 255 255
7.680000 14.120000 10.680000 255 0 0
9.170000 13.730000 27.180000 0 255 0
6.900900 14.980000 11.619100 0 255 0
8.230000 15.020000 23.059999 0 255 0
8.540000 13.860000 24.730000 0 255 0
8.525000 14.275000 21.105000 0 255 0
7.643300 14.323300 10.164400 255 0 0
7.660000 14.190000 13.510000 255 0 0
7.620000 14.300000 6.990000 255 0 0
6.933300 13.970000 17.213301 0 255 0
8.485000 15.125000 21.004999 0 255 0
8.600000 13.030000 24.270000 0 255 0
8.390000 14.135000 25.070000 0 255 0
8.086700 13.733800 14.406700 0 255 0
8.290000 14.020000 14.125000 0 255 0
6.984100 14.931800 11.660000 0 255 0
8.160000 14.290000 15.270000 255 0 0
8.140000 14.060000 2.160000 0 255 255
8.138700 14.082500 2.715000 0 255 255
8.130000 14.280000 15.370000 255 0 0
8.130000 14.324000 18.510000 0 255 0
7.650000 13.825000 22.670000 0 255 0
6.987100 13.588200 2.808800 0 255 255
8.755000 13.970000 26.105000 0 255 0
8.420000 14.050000 20.900000 0 255 0
7.010000 14.110000 2.500000 0 255 0
7.910000 15.250000 2.650000 0 255 255
8.440000 14.720000 2.375000 0 255 255
6.932900 13.875000 2.125700 0 255 255
7.010000 14.440000 20.180000 0 255 0
6.990000 14.560000 11.520000 0 255 0
8.092500 13.722500 22.152500 0 255 0
8.100000 13.420000 2.550000 0 255 255
8.100000 13.733300 22.123301 0 255 0
8.090000 13.450000 2.320000 0 255 255
8.080000 13.450000 2.870000 0 255 255
6.980000 14.850000 11.670000 0 255 0
7.431400 14.218600 3.062900 255 0 0
7.405000 13.630000 22.770000 0 255 0
7.400000 13.575000 26.360001 0 255 0
8.388900 14.266700 3.013300 0 255 255
7.880000 13.820000 16.056700 0 255 0
9.210000 14.260000 16.379999 0 255 0
7.989400 14.330600 2.154700 0 255 255
6.860000 14.160000 18.219999 0 255 0
6.846000 14.132000 2.308000 0 255 255
6.946500 14.321200 2.276500 0 255 255
7.893000 13.231000 2.760000 0 255 255
7.088600 13.830000 10.404300 0 255 0
7.401400 14.514300 3.665700 255 0 0
6.870000 13.960000 17.080000 0 255 0
6.803300 14.323300 2.203300 0 255 255
6.844100 13.575200 10.306700 0 255 0
7.050000 13.975000 20.209999 0 255 0
7.370000 13.725000 10.440000 0 255 0
6.980000 14.450000 20.355000 0 255 0
7.422000 14.392000 4.268000 255 0 0
7.460000 14.130000 3.205000 255 0 0
7.423300 14.443300 4.165000 255 0 0
7.020000 14.373300 17.303301 0 255 0
6.748900 14.273300 10.260000 0 255 0
7.150000 13.900000 24.980000 0 255 0
7.086700 15.185000 2.355000 0 0 255
6.990100 14.777800 2.361700 0 255 255
6.740000 14.060000 2.290000 0 255 255
7.030000 14.400000 2.420000 0 255 0
6.437500 14.400000 2.462500 0 255 255
7.134000 14.870000 2.492000 0 255 255
7.230000 13.440000 2.620000 0 255 255
7.005000 14.990000 2.550000 0 255 255
7.260000 13.700000 2.770000 0 255 255
6.800000 14.570000 11.710000 0 255 0
6.790000 15.330000 2.568000 0 255 255
7.854200 14.117500 7.311300 255 0 0
7.832500 14.285000 4.260000 255 0 0
7.340000 14.750000 2.440000 0 255 255
7.852000 14.120000 7.606000 255 0 0
7.832000 14.282000 4.368000 255 0 0
7.250000 13.760000 19.770000 0 255 0
7.240000 13.632500 10.259400 0 255 0
8.080000 14.830000 23.070000 0 255 0
8.790000 14.970000 24.600000 0 255 0
7.570000 14.220000 3.910000 255 0 0
7.570000 14.370000 20.100000 0 255 0
7.580000 14.174300 7.060000 255 0 0
7.630000 14.235000 10.460000 255 0 0
7.635000 14.162500 7.330000 255 0 0
7.645000 14.092500 4.312500 255 0 0
7.627400 14.121100 7.562600 0 255 0
7.830000 14.090000 2.152500 0 255 0
7.836700 13.990000 8.666700 255 0 0
7.830000 13.982000 9.324000 255 0 0
7.240100 14.330100 10.105300 0 255 0
7.290400 14.133000 10.112600 0 255 0
6.632300 14.137700 10.507700 0 255 0
7.338600 13.378600 10.462900 0 255 0
8.050000 14.120000 12.330000 255 0 0
8.060000 14.200000 2.760000 0 255 255
8.030000 14.400000 15.430000 255 0 0
8.030000 14.150000 11.360000 255 0 0
7.530000 14.422500 13.910000 0 255 0
6.788100 14.527100 2.318000 0 255 255
6.794000 14.740000 14.956000 0 255 0
7.629100 14.230000 9.608200 255 0 0
7.636500 14.528500 15.968000 0 255 0
7.627500 14.285000 9.565000 255 0 0
7.650000 14.330000 12.820000 255 0 0
7.647200 14.178300 16.071100 0 255 0
8.486500 13.730600 20.214100 0 255 0
8.940000 13.720000 23.129999 0 255 0
7.928300 14.181700 17.455000 255 0 0
7.941500 14.126200 14.208800 255 0 0
7.932200 14.131700 13.558300 255 0 0
8.010000 13.810000 20.410000 0 255 0
9.350000 14.340000 27.090000 0 255 0
6.390000 14.275000 2.525000 0 255 255
8.531400 13.782900 14.260000 0 255 0
8.440000 14.230000 13.890000 0 255 0
7.685000 14.400000 14.095000 0 255 0
7.103300 13.740000 3.246700 0 255 255
7.830000 14.160000 16.430000 255 0 0
7.834300 14.118300 13.261300 255 0 0
7.720000 14.460000 2.450000 0 255 0
7.750000 14.470000 2.900000 255 0 0
8.642500 13.928000 3.017500 0 255 255
8.140000 15.340000 3.360000 0 255 255
8.780000 14.487500 23.957500 0 255 0
8.795000 14.082500 14.252500 0 255 0
7.693000 14.334000 2.177000 0 255 0
7.695000 14.365000 12.155000 255 0 0
7.675000 14.460000 18.459999 0 255 0
7.882800 14.279300 6.512500 255 0 0
7.873000 14.279400 6.063600 255 0 0
7.884900 14.275700 6.561100 255 0 0
8.460000 14.050000 26.360001 0 255 0
8.490000 13.580000 24.305000 0 255 0
7.360000 13.470000 2.360000 0 255 255
7.342500 13.475000 21.252501 0 255 0
7.228300 14.178300 20.209999 0 255 0
7.250000 14.060000 26.730000 0 255 0
8.400000 14.090000 23.570000 255 0 0
8.370000 14.050000 26.920000 255 0 0
9.190000 14.410000 22.920000 0 255 0
9.185000 14.215000 16.799999 0 255 0
7.490000 13.490000 2.110000 0 255 255
8.338000 14.632000 18.417000 0 255 0
7.937900 14.181200 9.709600 255 0 0
7.210000 14.330000 20.080000 0 255 0
7.160000 14.040000 26.040001 0 255 0
7.140000 13.920000 19.740000 0 255 0
8.040000 14.190000 27.590000 0 255 0
9.226700 14.176700 16.250000 0 255 0
7.036700 14.883300 2.250000 0 0 255
7.710000 14.750000 21.530001 0 255 0
8.410000 14.440000 18.330000 0 255 0
7.680000 13.540000 2.080000 0 255 255
8.140000 13.810000 2.880000 0 255 255
8.120000 14.050000 15.920000 255 0 0
8.330000 13.725000 2.255000 0 255 255
8.220000 14.440000 19.660000 0 255 0
9.188900 14.323300 16.654400 0 255 0
6.885000 14.142500 18.004999 0 255 0
8.685000 13.975000 23.504999 0 255 0
8.127300 15.123600 3.359100 0 255 255
8.090000 13.390000 27.139999 0 255 0
8.360000 12.940000 26.270000 0 255 0
8.800000 14.140000 14.250000 0 255 0
8.870000 14.660000 24.240000 0 255 0
8.870000 14.810000 27.600000 0 255 0
8.195500 13.341800 3.412300 0 255 255
8.190000 14.620000 25.780001 0 255 0
7.056700 14.536700 2.566700 0 255 0
9.240000 14.320000 22.900000 0 255 0
7.870000 13.570000 27.680000 0 255 0
7.346700 14.436700 17.290001 0 255 0
7.330000 14.380000 14.040000 0 255 0
7.750000 14.160000 23.510000 0 255 0
6.739000 13.582000 10.308500 0 255 0
6.706700 13.533300 10.226700 0 255 0
7.640000 13.850000 15.850000 0 255 0
7.470000 13.585000 3.180000 0 255 255
8.930000 13.910000 24.570000 0 255 0
6.780000 13.750000 2.470000 0 255 255
6.845000 14.665000 15.008300 0 255 0
8.290000 14.275500 14.204500 0 255 0
8.300000 14.070000 26.879999 255 0 0
6.888700 14.083900 2.209100 0 255 255
7.010000 14.110000 17.389999 0 255 0
6.987300 13.635500 2.063600 0 255 255
6.996700 14.163300 17.370001 0 255 0
7.570000 13.520000 23.580000 0 255 0
7.603300 14.136700 10.510000 255 0 0
7.055000 13.975000 17.410000 0 255 0
6.985000 13.790000 10.455000 0 255 0
6.842200 13.982700 2.552200 0 255 255
7.090000 14.510000 17.209999 0 255 0
7.110000 14.590000 13.960000 0 255 0
7.060000 13.950000 20.030001 0 255 0
7.032600 14.183700 10.199600 0 255 0
6.999400 14.221900 10.194400 0 255 0
6.980000 14.070000 19.990000 0 255 0
6.920000 13.880000 17.080000 0 255 0
6.943800 13.921500 20.211500 0 255 0
7.040000 14.410000 19.260000 0 255 0
7.035000 13.981700 17.305799 0 255 0
7.036700 14.320000 17.343300 0 255 0
7.091300 13.677300 20.310699 0 255 0
7.142000 14.174000 17.452000 0 255 0
7.143400 14.579800 2.356800 0 255 0
7.000000 14.050000 20.760000 0 255 0
7.592100 14.093700 4.858900 255 0 0
7.738700 13.980000 2.121300 0 255 0
7.726700 14.066700 8.606700 255 0 0
7.720000 14.050000 5.340000 255 0 0
7.737500 14.110000 11.842500 255 0 0
7.070000 14.550000 2.270000 0 255 0
7.090000 15.325000 2.440000 0 0 255
7.900000 14.310000 3.000000 0 255 0
7.905000 14.180000 12.805000 255 0 0
7.886700 14.130000 16.043301 255 0 0
7.887500 14.125000 16.115000 255 0 0
7.870000 14.270000 18.139999 0 255 0
7.900000 14.310000 2.360000 0 255 0
7.886900 14.125000 15.015600 255 0 0
7.900000 14.785000 25.320000 0 255 0
7.991400 13.977900 3.064300 0 255 0
7.970000 13.980000 2.020000 0 255 255
7.830000 15.330000 2.450000 0 255 255
7.832900 14.411400 8.002900 255 0 0
7.246000 13.676000 2.712000 0 255 255
7.839500 14.028400 16.056801 255 0 0
7.890000 14.078200 9.854600 255 0 0
7.892500 14.040000 13.117500 255 0 0
8.030000 14.318000 13.458000 255 0 0
8.030000 14.330000 13.705000 255 0 0
8.033300 14.330000 13.776700 255 0 0
7.510000 13.820000 10.550000 0 255 0
7.499500 14.142600 4.011600 255 0 0
7.554700 14.268200 7.305300 0 255 0
7.520000 14.230000 4.160000 255 0 0
7.522500 14.172500 4.265000 255 0 0
7.602900 14.085700 8.067100 255 0 0
7.588100 14.115900 4.812200 255 0 0
7.605000 14.088000 8.160000 255 0 0
7.589600 14.120400 4.910800 0 255 0
7.590000 13.750000 27.940001 0 255 0
7.595000 14.025000 8.170000 255 0 0
7.596700 14.091300 5.010700 0 255 0
6.991100 14.381100 10.064400 0 255 0
8.530000 14.275000 19.350000 0 255 0
8.520000 14.010000 3.360000 0 255 255
7.646300 14.045000 5.813700 255 0 0
7.650000 13.980000 3.150000 0 255 0
7.648000 14.046000 6.306000 255 0 0
7.120000 14.020000 20.020000 0 255 0
7.134300 14.282900 10.194300 0 255 0
7.143100 13.889200 10.056200 0 255 0
7.139300 15.386300 2.406100 0 0 255
7.120000 15.120000 11.810000 0 255 0
7.793300 14.064400 9.012200 255 0 0
7.790700 14.034300 12.157900 255 0 0
7.786700 14.033300 12.503300 255 0 0
7.795000 14.066700 9.258300 255 0 0
7.788600 13.378600 2.501400 0 255 255
7.793300 14.041100 12.458300 255 0 0
7.780000 14.065600 9.310000 255 0 0
7.792800 14.041700 12.307200 255 0 0
7.810000 14.065000 9.050000 255 0 0
7.900000 13.980000 20.219999 0 255 0
7.880000 14.242500 5.512500 255 0 0
7.885000 14.280000 2.350000 0 255 0
6.930000 13.930000 20.320000 0 255 0
6.940000 13.880000 17.150000 0 255 0
8.583300 14.483300 18.353300 0 255 0
8.383700 14.175300 3.154200 0 255 255
8.482500 13.627500 19.112499 0 255 0
7.638000 15.075000 21.660000 0 255 0
7.641800 14.835500 21.615499 0 255 0
8.500000 14.360000 24.770000 0 255 0
8.498300 13.483300 20.403299 0 255 0
8.995000 13.880000 27.205000 0 255 0
8.190000 13.820000 22.170000 0 255 0
8.190000 13.882900 19.009300 255 0 0
8.186900 13.874600 18.963800 255 0 0
8.202000 13.974000 2.772000 0 255 255
7.294300 14.988600 2.506400 0 255 255
8.350000 14.810000 2.180000 0 0 255
8.634300 14.324300 3.046400 0 255 255
7.888000 15.126000 2.356000 0 255 255
7.870000 15.040000 21.719999 0 255 0
7.880800 15.127500 2.418300 0 255 255
7.741100 14.425700 5.909900 0 255 0
8.210000 14.990000 23.110001 0 255 0
7.650000 14.471400 2.224300 0 255 0
7.653300 14.366700 8.711700 255 0 0
7.700000 13.950000 26.160000 0 255 0
7.490000 14.080000 26.110001 0 255 0
7.424600 14.541500 2.405400 0 255 0
8.330000 13.890000 28.090000 0 255 0
7.935000 13.135000 27.209999 0 255 0
9.045000 14.145000 16.615000 0 255 0
6.970000 13.470000 10.325000 0 255 0
7.640000 13.750000 2.970000 0 255 0
8.760000 13.410000 24.990000 0 255 0
8.305000 14.410000 21.105000 0 255 0
8.320000 13.230000 26.350000 0 255 0
7.091700 13.683300 2.568300 0 255 255
7.090000 13.910000 24.709999 0 255 0
7.660000 14.450000 3.660000 255 0 0
7.710000 13.825000 2.355000 0 255 0
7.695000 13.990000 18.645000 0 255 0
8.540000 14.250000 22.670000 0 255 0
6.895900 13.675300 10.270000 0 255 0
8.500000 14.230000 19.180000 0 255 0
6.836700 13.870000 10.196700 0 255 0
7.441400 13.579700 10.358800 0 255 0
7.332500 13.982500 2.165000 0 255 0
7.206700 13.396700 2.456700 0 255 255
6.942900 14.884300 11.798600 0 255 0
8.730000 13.390000 26.670000 0 255 0
6.785300 14.677500 10.302200 0 255 0
8.540000 14.770000 27.450001 0 255 0
7.600000 14.390000 19.980000 0 255 0
7.583100 14.175200 7.311700 255 0 0
8.823300 13.680000 27.600000 0 255 0
8.837500 13.812500 24.562500 0 255 0
8.295000 15.275000 2.955000 0 255 255
8.290000 14.778900 2.207800 0 255 255
8.297100 14.077100 3.061400 0 255 255
9.100000 13.885000 27.075001 0 255 0
7.690000 14.240000 19.950001 0 255 0
8.380000 13.680000 25.809999 0 255 0
6.886700 13.870000 17.066700 0 255 0
6.810000 14.350000 9.870000 0 255 0
7.277500 14.732500 2.567500 0 255 0
7.000000 14.900000 11.890000 0 255 0
8.260000 14.030000 19.950001 255 0 0
8.260000 14.060000 23.100000 255 0 0
8.235500 14.188200 16.600000 0 255 0
8.400000 13.990000 2.612500 0 255 255
8.390000 13.487500 2.650000 0 255 255
7.350000 13.625000 26.370001 0 255 0
8.320000 14.010000 18.969999 0 255 0
8.350000 14.060000 22.100000 255 0 0
6.980000 13.536700 2.203300 0 255 255
6.987300 13.778700 2.104000 0 255 255
6.638200 15.181500 2.565200 0 255 255
6.845000 13.920000 2.290000 0 255 255
6.970000 14.230000 18.120001 0 255 0
6.950000 14.290000 17.389999 0 255 0
6.940000 14.990000 14.990000 0 255 0
6.995000 14.020000 20.010000 0 255 0
6.870000 14.100000 2.300000 0 255 255
6.800000 13.988700 2.606200 0 255 255
6.778000 13.978000 2.256000 0 255 255
6.780000 14.178300 10.365000 0 255 0
7.025000 14.110000 10.260000 0 255 0
7.060000 14.090000 20.049999 0 255 0
6.993300 14.436700 20.299999 0 255 0
7.050000 13.975000 20.299999 0 255 0
7.685600 14.098900 4.612200 255 0 0
7.570000 13.730000 27.930000 0 255 0
7.592600 14.086200 5.061300 255 0 0
7.935000 14.030000 11.877500 255 0 0
7.941100 14.089400 15.108900 255 0 0
7.925000 14.030000 10.515000 255 0 0
7.940000 14.087100 13.674300 0 255 0
7.710000 13.680000 27.820000 0 255 0
7.530000 14.165500 4.857300 255 0 0
7.893300 13.973300 17.666700 255 0 0
7.944400 14.077800 8.158900 255 0 0
7.930000 13.800000 14.490000 0 255 0
7.960000 14.930000 2.440000 0 255 255
7.690000 14.295000 21.770000 0 255 0
7.700000 14.320000 18.605000 0 255 0
7.686000 14.234000 12.306000 255 0 0
8.040000 13.933300 19.163300 255 0 0
8.055000 13.677500 2.852500 0 255 255
8.300000 13.540000 26.290001 0 255 0
8.310000 13.610000 2.510000 0 255 255
7.730000 13.850000 2.700000 0 255 0
7.620000 14.220000 6.650000 255 0 0
7.638300 14.185200 3.509100 255 0 0
9.190000 13.740000 24.855000 0 255 0
8.930000 14.560000 24.160000 0 255 0
8.520000 13.590000 14.190000 0 255 0
8.990000 13.930000 27.219999 0 255 0
7.635000 14.560000 4.040000 255 0 0
8.700000 13.230000 26.830000 0 255 0
7.490000 14.250000 10.480000 0 255 0
7.478200 14.534100 3.912400 255 0 0
7.490000 14.260000 26.879999 0 255 0
8.510000 14.030000 23.309999 0 255 0
8.702100 13.932100 3.017900 0 255 255
7.540000 14.912000 2.402000 0 255 255
8.144300 14.281400 14.052900 0 255 0
7.590000 13.310000 26.629999 0 255 0
8.535000 13.690000 3.005000 0 255 255
8.530000 13.850000 20.110001 0 255 0
8.810000 13.670000 23.129999 0 255 0
8.790000 14.400000 27.420000 0 255 0
8.292500 14.525000 2.250000 0 255 255
8.285000 14.015000 21.844999 255 0 0
9.300000 13.750000 26.400000 0 255 0
8.945000 13.983100 13.753100 0 255 0
8.134300 13.928600 2.810000 0 255 255
7.330000 14.250000 9.980000 0 255 0
7.410000 14.070000 18.540001 0 255 0
8.960000 14.750000 24.090000 0 255 0
7.900000 13.390000 22.209999 0 255 0
7.825000 13.930000 27.795000 0 255 0
7.845000 13.547500 2.407500 0 255 255
7.850000 13.540000 2.960000 0 255 255
7.590600 13.787200 2.902200 0 255 0
7.594000 14.086000 9.260000 255 0 0
7.581300 14.115000 6.013700 255 0 0
8.100000 13.560000 2.845000 0 255 255
8.085000 13.935000 18.415001 255 0 0
8.076700 13.876700 21.656700 255 0 0
8.080000 14.025000 26.057501 0 255 0
8.093300 13.577900 3.105500 0 255 255
8.090000 13.940000 19.764999 255 0 0
8.110000 13.830000 14.110000 0 255 0
8.077500 13.925000 20.657499 255 0 0
7.500000 14.390000 19.959999 0 255 0
8.880000 14.745000 24.514999 0 255 0
8.120000 13.590000 27.670000 0 255 0
7.740000 13.480000 2.460000 0 255 255
7.826000 14.276000 2.360000 0 255 0
7.826000 14.141500 5.614500 255 0 0
6.686800 14.233900 2.296800 0 255 255
8.220000 14.980000 27.325001 0 255 0
7.520000 14.333300 5.403300 255 0 0
7.570000 14.030000 25.910000 0 255 0
7.590000 14.135000 19.590000 0 255 0
7.800000 14.410000 8.130000 255 0 0
7.794000 14.378000 11.366000 255 0 0
7.782500 14.327500 14.610000 255 0 0
7.733300 13.036700 22.006701 0 255 0
6.932900 13.831400 10.307100 0 255 0
6.890300 13.681900 10.308200 0 255 0
6.887500 14.928700 15.105000 0 255 0
7.390000 14.525000 2.760000 0 255 0
7.390000 14.270000 18.770000 0 255 0
6.890000 14.780000 11.575000 0 255 0
6.841100 13.834400 10.406700 0 255 0
7.290000 14.775000 21.754999 0 255 0
6.735400 14.177500 2.222500 0 255 255
6.800000 13.845000 2.360000 0 255 255
6.840000 14.840000 14.950000 0 255 0
6.800000 14.175000 18.155001 0 255 0
6.805000 14.175000 18.190001 0 255 0
7.570000 14.080000 11.480000 255 0 0
7.595700 14.134300 8.208700 255 0 0
8.200000 13.780000 2.650000 0 255 255
7.880000 14.623300 2.346700 0 255 255
7.950000 13.470000 27.670000 0 255 0
8.630000 14.110000 25.799999 0 255 0
7.900000 13.720000 18.889999 0 255 0
7.886800 14.076300 9.408300 255 0 0
7.890000 14.000000 3.100000 0 255 0
7.886700 14.030000 12.555000 255 0 0
8.036000 14.078000 15.272000 255 0 0
8.020000 14.060000 14.410000 255 0 0
8.190000 13.900000 19.209999 255 0 0
8.090000 13.580000 25.270000 0 255 0
8.083800 13.335400 2.862300 0 255 255
8.250000 15.185000 2.998300 0 255 255
8.340000 14.850000 27.820000 0 255 0
7.944500 14.033200 16.760500 255 0 0
7.950000 14.000000 14.940000 255 0 0
7.930000 14.025000 18.295000 255 0 0
6.735000 14.565000 15.115000 0 255 0
7.790000 13.880000 2.440000 0 255 0
8.488200 15.083600 3.205500 0 255 255
9.128000 14.616000 22.266001 0 255 0
9.130000 14.680000 25.410000 0 255 0
8.680000 13.820000 18.480000 0 255 0
7.470000 13.935000 10.500000 0 255 0
8.740000 14.890000 25.620001 0 255 0
7.682500 14.342500 10.612500 255 0 0
7.702300 14.288500 13.764600 0 255 0
8.230000 13.950000 24.110001 255 0 0
7.980000 14.400000 15.360000 255 0 0
7.996700 14.323300 18.593300 255 0 0
8.280000 13.770000 2.410000 0 255 255
7.435000 14.930000 21.559999 0 255 0
8.920000 14.370000 26.750000 0 255 0
8.520000 13.885000 24.459999 0 255 0
9.240000 14.220000 16.790001 0 255 0
8.800000 13.820000 22.420000 0 255 0
7.720000 13.750000 27.600000 0 255 0
7.620000 13.790000 23.930000 0 255 0
8.040800 14.733100 2.214600 0 255 255
9.040000 14.520000 26.670000 0 255 0
7.238600 13.428600 22.855700 0 255 0
7.790000 13.726700 2.610000 0 255 0
6.983300 15.266700 2.520000 0 255 255
7.883800 14.322500 9.722500 255 0 0
7.870000 14.373300 6.446700 255 0 0
7.877300 14.367300 7.515300 255 0 0
7.895000 14.470000 14.010000 255 0 0
7.891800 14.332700 10.667300 0 255 0
8.290000 13.640000 2.290000 0 255 255
7.480000 13.640000 10.220000 0 255 0
7.336200 14.372500 13.866200 0 255 0
7.490000 13.620000 21.230000 0 255 0
6.689400 14.728000 2.358200 0 255 255
7.996700 13.033300 25.013300 0 255 0
6.530000 14.810000 2.530000 0 255 255
8.860000 14.050000 13.550000 0 255 0
8.570000 13.730000 2.630000 0 255 255
8.220000 14.170000 2.490000 0 255 255
8.610000 14.150000 27.230000 0 255 0
7.280000 13.440000 22.850000 0 255 0
7.310000 15.460000 3.310000 0 255 255
7.375300 15.437100 2.658200 0 255 255
8.200000 14.060000 25.420000 255 0 0
8.180000 14.200000 16.850000 255 0 0
8.210000 14.010000 26.510000 255 0 0
7.745000 14.375000 12.562500 255 0 0
7.626000 14.232000 8.956000 255 0 0
7.833300 13.763300 2.803300 0 255 0
8.530000 14.080000 16.480000 0 255 0
6.588700 14.673700 2.371900 0 255 255
7.540000 14.080000 10.580000 255 0 0
7.095000 13.881700 10.210000 0 255 0
6.990000 13.550000 10.490000 0 255 0
7.501400 14.142900 4.857900 255 0 0
7.310000 14.470000 4.130000 255 0 0
7.237500 14.925300 2.356200 0 0 255
6.844300 13.920700 2.127900 0 255 255
8.020000 15.000000 22.940001 0 255 0
8.400000 14.120000 26.500000 0 255 0
8.430000 14.080000 23.420000 0 255 0
8.450000 14.120000 26.540001 0 255 0
8.000000 13.873300 2.466700 0 255 255
8.640000 13.830000 14.290000 0 255 0
8.320000 13.910000 26.809999 0 255 0
7.430000 14.280000 18.139999 0 255 0
7.935000 14.465000 13.960000 255 0 0
7.931000 14.126000 16.958000 255 0 0
7.950000 14.240000 23.480000 0 255 0
7.920000 14.180000 19.559999 0 255 0
7.638300 13.223300 2.703300 0 255 255
8.245000 14.415000 21.065001 0 255 0
7.630000 14.700000 2.440000 0 255 255
7.630000 14.285000 27.760000 0 255 0
8.580000 12.980000 26.004999 0 255 0
7.150000 14.010000 9.960000 0 255 0
7.610000 13.940000 2.370000 0 255 0
7.600000 14.075000 18.660000 0 255 0
8.190000 13.840000 21.940001 255 0 0
8.000000 14.130000 24.770000 0 255 0
7.995000 14.225000 18.254999 255 0 0
7.973300 14.226700 7.613300 255 0 0
7.981700 14.176700 10.763300 255 0 0
7.985700 14.074300 17.070000 255 0 0
7.985300 14.135300 13.912000 255 0 0
8.282000 13.520000 3.256000 0 255 255
8.280000 13.520000 2.320000 0 255 255
8.180000 14.520000 27.770000 0 255 0
8.240000 13.935000 2.857500 0 255 255
8.410000 14.810000 27.620001 0 255 0
8.520000 13.670000 14.050000 0 255 0
8.610000 13.260000 24.100000 0 255 0
8.540000 14.270000 13.457500 0 255 0
9.090000 13.770000 22.549999 0 255 0
8.542500 13.475000 2.947500 0 255 255
8.540000 14.475300 18.403299 0 255 0
8.830000 14.610000 24.070000 0 255 0
9.110000 13.730000 27.150000 0 255 0
7.330000 13.680000 24.820000 0 255 0
7.630000 14.520000 4.600000 255 0 0
7.645900 14.369300 7.962200 255 0 0
8.430000 13.690000 19.980000 0 255 0
7.370000 13.280000 23.709999 0 255 0
8.185000 14.070000 25.570000 255 0 0
8.210000 14.170000 18.090000 255 0 0
8.190000 14.140000 21.379999 255 0 0
7.420000 14.410000 20.055000 0 255 0
6.690000 14.500000 2.390000 0 255 255
7.351400 14.274300 2.917100 255 0 0
7.350000 14.590000 22.049999 0 255 0
7.070000 13.520000 10.110000 0 255 0
6.592500 14.785000 2.330000 0 255 255
8.086700 13.940000 19.459999 255 0 0
8.291700 13.930600 16.601101 0 255 0
8.720000 13.120000 24.030001 0 255 0
8.500000 13.925000 24.495001 0 255 0
7.160000 14.010000 2.620000 0 255 0
7.200000 14.327500 16.065001 0 255 0
8.260000 14.020000 26.959999 255 0 0
8.245000 14.220000 14.300000 0 255 0
8.250000 13.280000 26.719999 0 255 0
8.040000 13.330000 2.470000 0 255 255
8.043200 13.777400 19.108900 0 255 0
7.350000 14.710000 2.310000 0 255 0
6.550000 13.845000 2.660000 0 255 255
6.883300 14.340000 18.020000 0 255 0
6.902900 13.982900 2.657100 0 255 255
6.841700 14.229000 10.108500 0 255 0
6.841700 13.736700 17.253300 0 255 0
7.899000 14.327900 7.607600 255 0 0
7.900000 14.420000 13.910000 255 0 0
7.889400 14.183100 17.006300 255 0 0
7.880000 14.380000 3.280000 0 255 0
7.875700 14.323700 6.507300 255 0 0
7.880000 14.425000 13.012500 255 0 0
7.890000 14.386300 2.214700 0 255 0
7.870000 14.410000 11.680000 255 0 0
7.886700 14.160000 15.256700 255 0 0
7.906700 14.143300 18.410000 0 255 0
7.872500 14.315000 5.345000 255 0 0
8.390000 14.890000 27.709999 0 255 0
8.544000 13.790000 19.858000 0 255 0
8.446000 14.336000 2.154000 0 255 255
8.730000 13.250000 26.799999 0 255 0
8.140000 13.780000 20.223301 0 255 0
8.190000 14.530000 24.549999 0 255 0
8.050000 13.725000 2.755000 0 255 255
7.735000 14.000000 8.557500 255 0 0
7.743800 14.040000 11.716200 0 255 0
7.650000 14.270000 27.809999 0 255 0
7.360000 13.920000 3.180000 0 255 0
7.170000 14.440000 19.219999 0 255 0
7.597200 14.414400 6.452200 255 0 0
7.610000 14.370000 9.630000 255 0 0
7.732800 13.684400 2.569400 0 255 0
6.730000 13.570000 10.440000 0 255 0
7.745000 14.190000 3.225000 255 0 0
7.734000 14.338000 12.858000 255 0 0
7.720000 14.230000 6.370000 255 0 0
7.740000 14.390000 15.860000 0 255 0
7.738000 14.280000 15.050000 255 0 0
7.730000 14.350000 18.290001 0 255 0
7.720000 14.250000 11.830000 255 0 0
8.546700 13.813300 19.770000 0 255 0
8.540000 14.350000 19.610001 0 255 0
8.450000 14.490000 19.500000 0 255 0
8.796700 13.086700 25.263300 0 255 0
7.570000 14.030000 26.010000 0 255 0
7.525000 14.330000 5.495000 255 0 0
7.706000 14.378000 2.952000 255 0 0
7.088000 13.822000 2.614000 0 255 0
7.823300 13.996700 8.106700 255 0 0
7.790000 14.710000 15.920000 0 255 0
7.770000 14.150000 4.190000 255 0 0
7.910000 14.290000 28.000000 0 255 0
7.870000 14.365000 8.445000 255 0 0
7.890000 14.475000 14.965000 255 0 0
7.870000 14.150000 24.750000 0 255 0
7.870000 14.360000 9.020000 255 0 0
7.880000 14.450000 18.440001 0 255 0
8.010000 14.070000 22.070000 255 0 0
7.988000 14.120000 18.916000 255 0 0
7.996000 14.225000 12.605000 255 0 0
8.000000 14.180000 15.770000 255 0 0
7.998000 14.224000 13.158000 255 0 0
7.987100 14.117100 19.464300 255 0 0
7.995000 14.165000 16.420000 255 0 0
8.629100 14.116400 3.095500 0 255 255
7.996000 13.178000 2.652000 0 255 255
7.990000 13.200000 3.220000 0 255 255
7.650000 14.140000 14.115000 0 255 0
7.646700 14.090000 10.964400 255 0 0
7.745600 14.288900 14.965600 255 0 0
7.760000 14.310000 18.209999 0 255 0
7.760000 14.180000 3.290000 255 0 0
7.738300 14.330000 12.756700 255 0 0
7.587500 13.227500 2.770000 0 255 255
7.580000 13.630000 2.565000 0 255 255
7.300000 13.875000 20.254999 0 255 0
7.287300 13.830700 10.364700 0 255 0
6.848000 14.080000 17.309999 0 255 0
8.190000 13.970000 18.295000 255 0 0
8.180000 13.900000 24.790001 255 0 0
8.174000 13.986000 17.752001 255 0 0
8.180000 13.920000 21.014999 255 0 0
8.094000 13.688000 2.560000 0 255 255
8.090000 14.031700 18.558300 255 0 0
8.280000 13.840000 16.440001 0 255 0
8.280000 13.930000 22.957500 255 0 0
7.943300 13.373300 24.896700 0 255 0
8.985000 13.695000 22.545000 0 255 0
8.195000 13.970000 22.940001 255 0 0
7.750000 14.378900 11.407800 255 0 0
7.753300 14.530000 21.166700 0 255 0
7.772400 14.417100 4.562400 255 0 0
7.790000 14.400000 7.725000 255 0 0
7.790000 14.350000 10.880000 255 0 0
7.770000 14.190000 20.780001 0 255 0
7.779800 14.420300 5.211500 0 255 0
7.790000 14.391700 8.261100 255 0 0
7.775000 14.285000 14.610000 255 0 0
8.610000 12.930000 24.350000 0 255 0
8.660000 13.920000 19.040001 0 255 0
8.630000 13.990000 22.219999 0 255 0
8.120000 14.390000 20.950001 0 255 0
8.141200 14.279100 14.009400 0 255 0
7.048800 13.478700 10.210000 0 255 0
6.839000 14.081000 17.204800 0 255 0
8.297500 14.132500 18.510000 0 255 0
8.288000 14.030000 25.978001 255 0 0
7.940000 14.630000 2.400000 0 255 255
7.940000 14.610000 2.460000 0 255 255
8.310000 14.060000 25.250000 255 0 0
6.882500 14.546300 15.056300 0 255 0
8.690000 13.833300 23.120001 0 255 0
8.710000 13.880000 19.840000 0 255 0
8.500000 14.310000 19.610001 0 255 0
8.486000 14.164000 16.559999 0 255 0
8.500000 14.260000 22.870001 0 255 0
8.970000 13.480000 24.969999 0 255 0
8.270000 13.970000 18.180000 255 0 0
8.295000 13.940000 23.245001 255 0 0
8.283300 13.976700 20.129999 255 0 0
8.836700 14.230000 13.566700 0 255 0
9.010000 14.550000 26.870001 0 255 0
7.490000 14.000000 18.600000 0 255 0
7.498200 14.181800 5.557500 255 0 0
8.000000 14.030000 24.490000 0 255 0
6.896700 13.666700 2.163300 0 255 255
6.950000 14.560000 11.660000 0 255 0
8.635000 14.625000 2.440000 0 255 255
9.090000 14.075000 27.205000 0 255 0
9.096000 14.282300 13.757000 0 255 0
8.370000 14.130000 28.059999 0 255 0
8.370000 14.340000 16.650000 0 255 0
8.575000 14.180000 2.525000 0 255 255
8.800000 14.840000 25.450001 0 255 0
7.485000 15.230000 2.325000 0 0 255
7.630000 13.920000 10.450000 0 255 0
9.242500 13.582500 23.370001 0 255 0
8.243300 14.886700 27.410000 0 255 0
8.080000 14.370000 13.680000 0 255 0
8.095000 13.930000 21.950001 255 0 0
8.100000 13.633800 2.948500 0 255 255
8.080000 13.870000 26.170000 0 255 0
8.098100 13.625700 3.111000 0 255 255
8.080000 13.940000 22.910000 255 0 0
8.282500 14.622500 2.397500 0 255 255
8.291800 14.584500 18.500900 0 255 0
7.540000 14.280000 20.090000 0 255 0
7.646000 14.460000 5.772000 255 0 0
7.700000 13.910000 22.700001 0 255 0
7.746900 14.429300 4.060300 255 0 0
7.530000 14.010000 27.660000 0 255 0
7.697500 14.227500 13.612500 255 0 0
8.230000 14.190000 2.080000 0 255 255
8.130000 14.130000 14.810000 255 0 0
8.146700 14.226700 21.103300 0 255 0
8.147100 14.121400 14.160000 0 255 0
8.130000 14.170000 17.330000 255 0 0
8.691300 14.582700 2.558700 0 255 255
8.673300 14.313300 18.443300 0 255 0
8.260000 14.480000 21.110001 0 255 0
8.470000 14.080000 14.030000 0 255 0
8.500000 14.325000 23.805000 0 255 0
8.490000 14.275000 23.764999 0 255 0
8.480000 14.240000 13.990000 0 255 0
8.580000 14.670000 21.730000 0 255 0
8.450000 13.930000 27.580000 0 255 0
8.850000 13.770000 27.820000 0 255 0
8.843300 13.523300 24.923300 0 255 0
8.580000 13.120000 26.670000 0 255 0
9.191100 14.231100 16.463301 0 255 0
8.175000 13.980000 22.110001 255 0 0
8.580000 14.220000 26.980000 0 255 0
8.630000 14.010000 18.490000 0 255 0
7.339200 13.733100 2.070800 0 255 0
7.350000 14.020000 20.629999 0 255 0
8.020000 13.490000 2.740000 0 255 255
8.036000 13.494000 2.406000 0 255 255
8.043000 13.734000 19.111000 0 255 0
7.935000 14.325000 2.050000 0 255 255
7.920000 14.240000 21.590000 0 255 0
7.937300 14.122000 15.116700 255 0 0
7.945000 14.178800 18.361200 255 0 0
7.950000 14.190000 18.799999 255 0 0
7.932500 14.126300 15.662500 255 0 0
8.180000 14.300000 23.370001 0 255 0
7.860000 14.110000 11.570000 255 0 0
7.830000 14.167500 14.706200 255 0 0
7.831900 14.229900 5.260100 0 255 0
7.828600 14.189900 5.065300 0 255 0
7.894300 14.121400 8.905000 255 0 0
7.871700 14.171700 5.776700 255 0 0
7.880000 14.175000 5.105000 255 0 0
7.907100 14.116400 8.356400 255 0 0
8.233600 14.538200 2.153600 0 255 255
8.055000 14.175000 2.005000 0 255 255
8.030000 14.133300 11.460000 255 0 0
8.020000 14.280000 20.969999 0 255 0
8.296000 14.032000 2.608000 0 255 255
8.675000 14.392500 18.462500 0 255 0
8.090000 14.080000 22.820000 255 0 0
8.620000 14.900000 27.480000 0 255 0
8.402000 14.440000 2.144000 0 255 255
8.730000 13.840000 27.990000 0 255 0
8.160000 14.250000 20.790001 0 255 0
8.128600 14.132900 14.305700 255 0 0
8.140000 14.230000 21.070000 0 255 0
8.170000 14.340000 23.580000 0 255 0
8.640000 14.580000 18.440001 0 255 0
8.546000 13.829000 20.211000 0 255 0
8.550000 14.100000 18.375000 0 255 0
8.400000 14.260000 25.139999 0 255 0
8.020000 14.080000 11.370000 255 0 0
8.032000 14.434000 21.152000 0 255 0
8.042500 14.122500 15.562500 255 0 0
8.033300 14.380000 18.559999 0 255 0
8.040000 14.070000 12.420000 255 0 0
8.473300 14.636700 2.303300 0 255 255
8.390000 13.680000 19.240000 0 255 0
8.730000 13.920000 18.540001 0 255 0
8.790000 14.280000 14.300000 0 255 0
8.330000 14.440000 27.389999 0 255 0
7.434000 13.974000 2.862000 0 255 0
7.230000 13.680000 2.310000 0 255 255
7.138500 14.187700 2.246200 0 255 0
7.670000 14.230000 5.770000 255 0 0
7.698000 14.324000 12.256000 255 0 0
7.700000 14.260000 15.520000 255 0 0
7.690000 14.185000 9.005000 255 0 0
6.584200 14.482500 10.450800 0 255 0
7.747800 14.333300 2.173300 0 255 0
7.760000 14.410000 8.380000 255 0 0
7.580000 14.090000 26.680000 0 255 0
7.525000 14.395000 5.268700 255 0 0
8.290000 13.970000 21.580000 255 0 0
7.710000 14.990000 21.690001 0 255 0
8.797100 14.225700 14.252900 0 255 0
8.643300 14.220000 2.806700 0 255 255
8.640000 13.915000 22.180000 0 255 0
7.780000 14.090000 16.750000 255 0 0
8.194000 14.766000 18.563999 0 255 0
7.794400 13.141100 2.551100 0 255 255
7.536700 13.143300 22.520000 0 255 0
7.385000 14.265000 17.254999 0 255 0
7.403300 14.468300 4.213300 255 0 0
7.770000 14.640000 21.629999 0 255 0
7.760000 14.370000 14.625000 255 0 0
7.732500 14.342500 11.702500 255 0 0
7.750000 14.175000 2.210000 0 255 0
