10.246700 -9.723300 18.306700 0 255 0
9.944400 -10.219000 -0.138200 255 0 0
10.090000 -10.950000 18.590000 0 255 0
11.040000 -10.770000 -1.893300 0 255 255
9.483300 -9.980000 -2.343300 0 255 0
9.630000 -9.350000 -3.790000 0 255 255
9.627500 -9.316300 11.905000 0 255 0
9.820000 -11.020000 -2.840000 0 255 255
9.787500 -9.757500 19.305000 0 255 0
9.940900 -10.225700 0.912300 255 0 0
9.392900 -10.468600 -2.537100 0 255 0
9.410000 -11.580000 15.480000 0 255 0
9.940000 -10.120000 0.180000 255 0 0
9.940000 -10.170000 -2.985000 255 0 0
9.920000 -10.370000 9.650000 255 0 0
9.250000 -10.020000 12.062500 0 255 0
9.450000 -11.610000 15.710000 0 255 0
9.700000 -10.100000 15.960000 0 255 0
9.680000 -10.030000 22.440001 0 255 0
9.686400 -10.269600 -0.338400 0 255 0
9.681400 -10.312400 2.910700 0 255 0
9.445000 -9.715000 20.065001 0 255 0
9.240000 -11.320000 16.317499 0 255 0
10.352000 -10.418000 -1.598000 0 255 255
10.336200 -9.825000 11.058700 0 255 0
10.326200 -9.861300 7.907500 0 255 0
10.270000 -10.930000 -3.310000 0 255 255
9.235000 -11.080000 20.709999 0 255 0
9.230000 -10.830000 -2.820000 0 255 255
9.332900 -10.472900 -2.037100 0 255 255
9.342000 -10.272000 11.002000 0 255 0
9.296000 -11.020000 -2.774000 0 255 255
10.220000 -10.060000 7.680000 0 255 0
10.240000 -10.010000 10.810000 0 255 0
9.220000 -10.810000 7.330000 0 255 0
9.243300 -10.983300 -2.070000 0 255 255
9.840000 -10.135000 -1.040000 255 0 0
9.845000 -10.238300 5.306700 255 0 0
9.820000 -10.265000 2.140000 255 0 0
9.850000 -10.325000 11.595000 255 0 0
9.842000 -10.364000 8.444000 255 0 0
9.780000 -10.410000 19.930000 0 255 0
9.780000 -10.450000 13.490000 255 0 0
9.790000 -10.570000 20.020000 255 0 0
9.790000 -10.520000 16.750000 255 0 0
9.985500 -10.229100 -1.037300 255 0 0
9.933300 -11.173300 9.810000 0 255 0
9.286000 -10.763000 -3.992000 0 255 255
9.280000 -11.310000 16.520000 0 255 0
9.300000 -11.423300 10.203300 0 255 0
10.827500 -10.620000 -1.995800 0 255 255
9.275000 -9.825000 15.810000 0 255 0
9.950000 -11.230000 -3.120000 0 255 255
9.820000 -10.600000 10.030000 255 0 0
9.842700 -10.533600 3.258200 0 255 0
10.040800 -10.374600 -1.798500 255 0 0
9.303300 -9.386700 -2.350000 0 255 255
10.986700 -10.013300 -2.993300 0 255 255
8.838300 -10.822500 5.766700 0 255 0
9.850000 -10.560000 18.820000 255 0 0
9.855000 -10.480000 12.310000 255 0 0
9.940000 -11.652900 16.565701 0 255 0
10.570000 -10.000000 15.060000 0 255 0
10.280000 -10.130000 -2.980000 0 255 0
9.180000 -10.471700 7.108300 0 255 0
10.220000 -9.230000 -3.140000 0 255 255
10.386700 -10.483300 -1.680000 0 255 255
9.390000 -11.350000 -2.970000 0 255 255
9.626700 -10.533300 -3.043300 0 255 0
9.985000 -10.460000 2.267500 255 0 0
10.720000 -10.150000 21.850000 0 255 0
10.850000 -10.320000 16.610001 0 255 0
10.847100 -10.020000 -2.985700 0 255 255
10.195000 -10.755000 -2.030000 0 255 255
10.390000 -10.970000 -3.735000 0 255 255
10.380000 -10.800000 12.850000 0 255 0
10.380000 -10.570000 22.370001 0 255 0
9.760000 -10.310000 18.750000 0 255 0
10.450000 -10.740000 -2.310000 0 255 255
8.933300 -10.390000 -2.636700 0 255 255
10.270000 -9.870000 -3.630000 0 255 0
9.440000 -10.175000 11.017500 0 255 0
9.695000 -10.020000 -2.192500 0 255 0
9.683300 -9.576700 19.966700 0 255 0
8.952500 -9.877500 -3.387500 0 255 255
9.140000 -9.960000 -3.485000 0 255 255
9.900000 -9.410000 -3.470000 0 255 255
9.620000 -9.660000 -3.520000 0 255 255
10.960000 -10.880000 -2.870000 0 255 255
10.030000 -10.360000 2.906700 255 0 0
9.483300 -11.110000 22.353300 0 255 0
8.743300 -9.786700 -3.140000 0 255 255
9.085000 -10.380000 -2.682500 0 255 255
9.080000 -10.470000 16.440001 0 255 0
9.935000 -9.680000 18.299999 0 255 0
8.756700 -10.476700 -2.270000 0 255 255
8.736400 -10.323600 7.252700 0 255 0
9.540000 -9.406700 -2.640000 0 255 255
10.028600 -10.222900 -2.188600 255 0 0
9.770000 -10.440000 8.630000 255 0 0
9.802500 -10.510000 14.905000 255 0 0
9.791700 -10.578300 18.055000 255 0 0
10.300000 -11.170000 17.799999 0 255 0
9.160000 -10.120000 -3.650000 0 255 255
9.130000 -10.555000 22.415001 0 255 0
9.133300 -10.280000 16.059999 0 255 0
9.987500 -9.127500 -2.970000 0 255 255
10.594300 -9.872900 15.202900 0 255 0
9.332300 -10.020000 15.866900 0 255 0
9.289000 -11.471400 10.012400 0 255 0
10.535600 -10.112500 15.111900 0 255 0
9.243300 -10.218300 15.710000 0 255 0
9.955000 -9.580000 16.897499 0 255 0
9.380000 -10.565000 22.549999 0 255 0
9.405000 -10.450000 16.200001 0 255 0
9.388300 -10.966700 -2.741700 0 255 255
9.900000 -9.540000 16.930000 0 255 0
9.885000 -9.580000 20.160000 0 255 0
9.381400 -10.080000 14.665700 0 255 0
9.690000 -10.632500 18.407499 255 0 0
9.692000 -10.564000 15.162700 255 0 0
9.425000 -10.785000 -3.120000 0 255 0
9.434800 -11.073900 16.011299 0 255 0
9.730000 -10.610000 0.890000 255 0 0
9.730000 -10.690000 -2.420000 0 255 0
9.760000 -10.560000 4.070000 255 0 0
9.730000 -10.523100 7.452300 255 0 0
9.723300 -10.440000 13.973300 0 255 0
9.550000 -11.640000 12.840000 0 255 0
9.539500 -11.569500 16.206699 0 255 0
9.710000 -10.670000 7.420000 0 255 0
9.710000 -10.600000 17.049999 255 0 0
9.692000 -10.574000 13.910000 255 0 0
9.500000 -9.470000 -3.540000 0 255 255
10.195000 -9.763300 18.160000 0 255 0
8.791000 -11.172000 15.017000 0 255 0
8.830000 -10.290000 -3.760000 0 255 255
8.820000 -9.930000 15.890000 0 255 0
10.110000 -9.830000 7.620000 0 255 0
8.870000 -11.325000 21.059999 0 255 0
10.645000 -9.925000 15.065000 0 255 0
9.590000 -10.140000 -2.290000 0 255 0
10.028100 -10.368700 -1.237500 255 0 0
8.944000 -11.068000 5.526000 0 255 0
9.238200 -10.120000 11.049100 0 255 0
9.136200 -9.573800 -2.243800 0 255 255
8.977500 -9.865000 8.110000 0 255 0
10.338000 -10.872000 14.156000 0 255 0
10.546700 -9.930000 15.200000 0 255 0
10.695000 -10.180000 10.925000 0 255 0
10.455000 -11.020000 -3.535000 0 255 255
10.395000 -10.967500 -3.692500 0 255 255
10.396700 -10.563300 22.406700 0 255 0
10.586900 -10.381300 11.015000 0 255 0
10.580000 -10.520000 20.815001 0 255 0
10.750000 -10.820000 15.820000 0 255 0
10.190000 -9.770000 -3.150000 0 255 255
8.782500 -10.770000 18.202499 0 255 0
9.460000 -9.940000 -2.370000 0 255 255
10.845000 -10.575000 11.040000 0 255 0
10.832900 -10.318600 14.465700 0 255 0
9.540000 -9.674200 15.610800 0 255 0
9.035700 -11.021800 7.162500 0 255 0
10.050000 -11.085000 14.455000 0 255 0
10.030000 -11.110000 11.295000 0 255 0
9.178600 -11.008600 5.375700 0 255 0
9.280000 -10.400000 18.770000 0 255 0
10.330000 -10.600000 12.970000 0 255 0
10.250000 -11.220000 17.940001 0 255 0
9.730000 -10.600000 3.900000 255 0 0
9.733300 -10.523300 10.063300 255 0 0
9.736700 -10.456700 13.206700 255 0 0
9.752500 -10.570000 7.062500 255 0 0
9.241100 -9.663900 11.950600 0 255 0
10.260000 -10.530000 15.440000 0 255 0
9.550000 -10.315000 -3.175000 0 255 0
9.480000 -10.500000 -2.660000 0 255 0
10.140000 -9.170000 -3.490000 0 255 255
8.900000 -11.280000 13.480000 0 255 0
10.460000 -10.700000 -3.170000 0 255 255
8.890600 -11.272500 16.554399 0 255 0
9.732900 -11.368600 12.854300 0 255 0
9.941500 -9.467900 10.910300 0 255 0
9.925000 -11.375000 11.070000 0 255 0
9.810000 -10.830000 -2.390000 0 255 0
9.780000 -10.970000 12.580000 0 255 0
9.780000 -11.130000 22.440001 0 255 0
9.730000 -11.255000 22.490000 0 255 0
9.685000 -11.575000 20.105000 0 255 0
9.690200 -10.421500 -1.138300 255 0 0
10.740000 -9.830000 8.070000 0 255 0
9.795000 -10.565000 11.495000 255 0 0
9.800000 -10.720000 20.920000 255 0 0
9.696700 -10.510000 2.500000 255 0 0
9.704300 -10.460700 -0.642100 255 0 0
9.682100 -10.418900 8.817400 255 0 0
9.685100 -10.364900 5.656200 255 0 0
9.740000 -9.773000 -2.392000 0 255 255
9.790000 -11.274700 11.112000 0 255 0
9.942000 -10.612000 -1.988000 255 0 0
9.110000 -11.350000 8.020000 0 255 0
9.075000 -11.225000 11.175000 0 255 0
9.590700 -10.578000 12.404000 0 255 0
10.220000 -10.000000 22.330000 0 255 0
10.240000 -10.420000 -3.000000 0 255 0
9.430000 -10.076700 11.116700 0 255 0
8.760000 -9.650000 -2.610000 0 255 255
9.480000 -10.730000 -2.650000 0 255 0
9.930000 -10.420000 13.570000 255 0 0
9.925000 -10.475000 10.401700 255 0 0
9.931000 -10.512000 7.056000 255 0 0
10.030000 -9.815000 -2.610000 0 255 255
10.393300 -10.363300 20.803301 0 255 0
10.670000 -10.170000 -3.470000 0 255 255
10.310000 -10.440000 -2.620000 0 255 0
9.420000 -10.580000 22.379999 0 255 0
9.425000 -10.425000 18.770000 0 255 0
9.460000 -10.300000 12.480000 0 255 0
10.000000 -10.200000 -3.780000 0 255 0
10.020000 -10.320000 3.210000 255 0 0
10.042000 -10.428000 9.718000 0 255 0
9.674200 -10.320000 1.809200 255 0 0
9.689300 -10.268300 -1.441800 255 0 0
9.895000 -10.067500 -2.397500 255 0 0
10.030000 -10.440000 20.510000 0 255 0
8.954000 -11.334000 14.008000 0 255 0
10.040000 -10.340000 1.460000 255 0 0
8.943300 -11.173300 11.023300 0 255 0
10.130000 -9.765000 11.060000 0 255 0
10.143800 -9.816900 7.801300 0 255 0
9.910000 -10.250000 1.820000 255 0 0
9.895600 -10.212200 -1.337800 0 255 0
9.185300 -9.720500 11.956300 0 255 0
9.179100 -9.770000 15.110000 0 255 0
9.340000 -11.410000 13.010000 0 255 0
9.340000 -11.390000 16.160000 0 255 0
9.960000 -10.330000 -0.040000 255 0 0
9.935600 -10.268900 3.013700 255 0 0
9.910000 -9.590000 -3.730000 0 255 255
9.344400 -11.362200 -2.942200 0 255 255
9.340600 -11.170600 9.719700 0 255 0
9.800000 -10.240000 7.995000 255 0 0
8.603300 -10.510000 -3.170000 0 255 255
9.890000 -10.200000 -3.090000 255 0 0
9.890000 -10.250000 0.150000 255 0 0
9.830000 -10.540000 5.460000 255 0 0
9.860000 -10.470000 -3.990000 0 255 0
9.830000 -10.705000 18.105000 255 0 0
8.781000 -10.365200 12.353800 0 255 0
8.788200 -10.670200 5.405700 0 255 0
8.720000 -10.590000 16.900000 0 255 0
10.250000 -9.990000 -3.230000 0 255 0
9.370000 -9.240000 -2.890000 0 255 255
10.330000 -11.440000 -3.130000 0 255 255
10.350000 -11.080000 20.594999 0 255 0
9.840000 -11.356700 -2.995000 0 255 255
9.492900 -10.367100 -2.137100 0 255 0
9.230000 -11.400000 11.160000 0 255 0
9.246000 -10.826000 -3.100000 0 255 255
9.223300 -10.970000 -3.230000 0 255 255
9.220000 -10.805000 6.655000 0 255 0
9.243300 -10.825000 -3.138300 0 255 255
9.255000 -11.075000 20.620001 0 255 0
9.380000 -9.470000 -2.810000 0 255 255
8.790000 -10.872000 5.714000 0 255 0
9.890000 -9.871200 11.113500 0 255 0
9.970000 -9.580000 19.900000 0 255 0
9.830000 -10.200000 8.830000 0 255 0
9.833300 -10.036700 -3.833300 0 255 0
9.838000 -10.371000 12.163000 255 0 0
9.842000 -10.270500 5.660900 0 255 0
9.836500 -10.173900 -0.490400 0 255 0
8.950000 -10.040000 15.760000 0 255 0
9.935000 -10.470000 -3.780000 0 255 0
9.953300 -10.426700 -0.630000 255 0 0
9.843000 -11.272000 11.202000 0 255 0
10.444000 -10.620000 15.222000 0 255 0
10.460000 -10.650000 -2.370000 0 255 255
9.620000 -11.140000 17.809999 0 255 0
10.226700 -11.223300 -3.146700 0 255 255
9.495700 -10.975700 -3.127100 0 255 255
9.540000 -10.480000 22.400000 0 255 0
9.540000 -10.860000 -2.870000 0 255 0
9.239500 -11.066300 -2.049500 0 255 255
9.946700 -9.923300 17.063299 0 255 0
9.635000 -9.570000 15.655000 0 255 0
9.650000 -9.610000 12.390000 0 255 0
10.760000 -10.240000 -3.140000 0 255 255
10.760000 -10.270000 -3.120000 0 255 255
9.537500 -9.527500 15.610000 0 255 0
9.544500 -9.577300 12.355500 0 255 0
9.900000 -10.220000 -2.200000 255 0 0
9.910000 -10.290000 1.080000 255 0 0
10.310000 -11.120000 14.230000 0 255 0
9.510000 -10.580000 10.700000 0 255 0
9.500000 -10.363300 -2.336700 0 255 0
9.235000 -10.375000 -2.290000 0 255 255
9.930000 -10.870000 -2.030000 0 255 0
9.535000 -10.230000 -2.390000 0 255 0
9.020000 -9.790000 12.170000 0 255 0
9.052000 -9.720000 15.308000 0 255 0
10.680000 -10.676700 -1.886700 0 255 255
9.096700 -9.803300 15.403300 0 255 0
9.090000 -9.900000 19.450001 0 255 0
9.120000 -10.350000 -2.270000 0 255 255
10.086700 -9.566700 11.015000 0 255 0
9.295000 -9.802500 19.472500 0 255 0
9.580000 -10.470000 15.470000 0 255 0
9.582900 -10.520000 18.598600 0 255 0
9.490000 -10.866300 18.611300 0 255 0
9.484000 -9.966000 15.666000 0 255 0
9.486700 -10.076700 -3.180000 0 255 0
9.487800 -10.165600 15.755600 0 255 0
8.860000 -10.380000 -3.590000 0 255 255
10.150000 -9.590000 -3.600000 0 255 255
8.845000 -10.335000 12.315000 0 255 0
8.840700 -10.025300 16.055300 0 255 0
8.950000 -10.710000 17.879999 0 255 0
10.033300 -10.226700 -1.143300 255 0 0
8.960000 -10.910000 5.210000 0 255 0
8.992500 -10.420000 -2.935000 0 255 255
8.983200 -10.720500 16.415501 0 255 0
9.710000 -10.622500 18.059999 255 0 0
9.690800 -10.565800 14.915800 255 0 0
9.540000 -10.921100 15.960700 0 255 0
8.903300 -10.883300 6.770000 0 255 0
8.895000 -10.816900 16.308800 0 255 0
9.650000 -10.460000 -2.000000 255 0 0
9.640900 -11.618200 13.056400 0 255 0
9.636800 -11.566400 16.212700 0 255 0
9.575000 -10.375000 -3.335000 0 255 0
9.607300 -10.527300 6.319300 255 0 0
9.610000 -10.460000 3.170000 255 0 0
10.120000 -11.075000 -3.090000 0 255 255
8.840000 -11.220000 15.103300 0 255 0
9.946700 -9.867800 10.952200 0 255 0
10.180000 -10.530000 -3.080000 0 255 0
10.120000 -11.210000 10.870000 0 255 0
10.120000 -10.600000 -1.810000 0 255 0
8.820000 -10.790000 5.720000 0 255 0
10.290000 -11.260000 -3.420000 0 255 255
10.720000 -10.150000 14.930000 0 255 0
10.540000 -9.700000 7.630000 0 255 0
10.560000 -10.530000 14.930000 0 255 0
10.530000 -10.460000 18.059999 0 255 0
10.580000 -10.970000 -3.390000 0 255 255
10.188000 -10.222000 -2.230000 0 255 0
10.382500 -10.056300 10.867500 0 255 0
9.547500 -9.780000 -2.590000 0 255 255
8.841300 -10.022100 11.863700 0 255 0
9.887500 -10.023800 11.102500 0 255 0
9.788200 -11.420000 -2.840900 0 255 255
9.791800 -11.674100 12.960600 0 255 0
10.180000 -10.350000 15.240000 0 255 0
10.770000 -10.390000 -3.220000 0 255 255
10.840000 -10.667800 16.314400 0 255 0
9.735000 -11.320000 22.540001 0 255 0
9.138700 -10.118100 11.001300 0 255 0
10.660000 -10.370000 -1.820000 0 255 255
10.639000 -10.520000 14.465000 0 255 0
9.470000 -10.150000 -3.150000 0 255 255
10.050000 -10.260000 13.150000 0 255 0
8.950000 -11.260000 13.170000 0 255 0
8.941700 -11.230900 16.513901 0 255 0
10.600000 -10.590000 15.230000 0 255 0
10.670000 -9.890000 15.240000 0 255 0
9.397100 -9.390000 -2.248600 0 255 255
9.290000 -10.420000 18.815001 0 255 0
9.310000 -10.350000 15.660000 0 255 0
10.540000 -9.760000 7.955000 0 255 0
10.442500 -9.916200 11.056300 0 255 0
10.430000 -9.775000 7.895000 0 255 0
10.423300 -9.920000 7.716700 0 255 0
10.439400 -9.863500 10.964700 0 255 0
10.530000 -9.800000 -3.020000 0 255 255
8.770000 -10.580000 18.160000 0 255 0
10.190000 -9.960000 -3.170000 0 255 0
8.785900 -10.776400 5.508200 0 255 0
10.630000 -11.040000 -1.960000 0 255 255
10.643300 -11.225200 11.111400 0 255 0
8.838500 -9.769100 -1.987800 0 255 255
10.533300 -9.768300 7.865000 0 255 0
9.937000 -11.120000 10.805000 0 255 0
9.890000 -9.718300 18.309999 0 255 0
10.900000 -10.560000 14.950000 0 255 0
10.890000 -9.870900 8.409100 0 255 0
10.092500 -11.567500 14.722500 0 255 0
8.838300 -9.815000 -3.490000 0 255 255
10.285000 -10.275000 -2.750000 0 255 0
10.280000 -10.355000 16.410000 0 255 0
9.780000 -10.850000 -2.010000 0 255 0
9.396700 -9.416700 12.453300 0 255 0
9.780000 -11.130000 22.100000 0 255 0
9.882000 -9.618000 17.059999 0 255 0
9.970000 -9.740000 11.040000 0 255 0
9.820000 -10.280000 10.630000 255 0 0
9.850000 -10.190000 4.050000 255 0 0
9.850000 -10.370000 17.100000 0 255 0
9.840000 -10.073300 -2.443300 255 0 0
9.977500 -10.413800 2.266200 255 0 0
10.002500 -10.370000 -0.894400 255 0 0
9.770000 -10.840000 -3.900000 0 255 0
10.440000 -9.650000 -2.940000 0 255 255
10.540000 -10.670000 -3.370000 0 255 255
10.190000 -10.530000 11.160000 0 255 0
10.260000 -10.090000 15.230000 0 255 0
8.738000 -10.914300 5.809700 0 255 0
8.732000 -11.012000 5.924000 0 255 0
9.978500 -10.455400 -0.987700 255 0 0
9.995000 -10.467500 2.157500 255 0 0
9.840000 -10.470000 10.650000 255 0 0
9.845000 -10.570000 17.180000 255 0 0
9.833300 -10.435000 13.913300 255 0 0
9.860000 -10.560000 7.600000 255 0 0
9.840000 -10.760000 20.280001 255 0 0
9.370000 -9.950000 19.620001 0 255 0
8.735600 -10.970000 5.906700 0 255 0
9.955000 -10.207500 -2.335000 255 0 0
9.610000 -10.840000 21.959999 0 255 0
9.545000 -10.380000 -3.325000 0 255 0
9.532500 -10.507500 12.547500 0 255 0
10.260000 -10.990000 -3.000000 0 255 255
9.835000 -10.220000 -2.000000 255 0 0
8.940000 -10.005000 -2.200000 0 255 255
9.685000 -10.505000 2.750000 255 0 0
9.685300 -10.365000 5.807500 255 0 0
9.699200 -10.462300 -0.490000 255 0 0
9.688400 -10.416900 9.060300 255 0 0
10.194400 -11.012500 -1.838700 0 255 255
9.686700 -10.568300 -2.031700 0 255 0
9.683300 -10.517800 7.962200 255 0 0
9.695000 -10.375500 11.010500 0 255 0
9.690000 -10.473300 4.715800 255 0 0
9.694000 -10.428000 14.259000 255 0 0
9.830000 -10.335000 20.000000 0 255 0
9.843300 -10.078300 -2.083300 255 0 0
9.820000 -10.360000 6.220000 255 0 0
9.820000 -10.110000 -3.590000 0 255 0
9.832600 -10.325800 9.457900 0 255 0
9.836800 -10.215800 3.161300 255 0 0
10.650000 -10.473300 15.066700 0 255 0
10.210000 -10.970000 -3.830000 0 255 255
10.600000 -10.200000 21.055000 0 255 0
10.588500 -10.123800 15.117700 0 255 0
10.405000 -11.385000 -3.175000 0 255 255
9.782500 -11.122500 -2.487500 0 255 255
9.741600 -9.364200 11.009500 0 255 0
9.380000 -10.530000 12.500000 0 255 0
9.730000 -11.160000 18.700001 0 255 0
9.284400 -11.120000 5.903300 0 255 0
9.440600 -9.465000 12.269400 0 255 0
10.300000 -10.980000 18.775000 0 255 0
9.286700 -9.373300 -2.293300 0 255 255
10.150000 -11.210000 -3.640000 0 255 255
10.136700 -11.160000 -3.740000 0 255 255
10.270000 -11.130000 -3.480000 0 255 255
10.180000 -10.680000 13.180000 0 255 0
9.970000 -10.660000 19.879999 0 255 0
9.880000 -10.130000 0.270000 255 0 0
8.745000 -10.725000 7.160000 0 255 0
9.330000 -10.670000 7.350000 0 255 0
9.330000 -11.436700 10.246700 0 255 0
9.500000 -11.270000 -3.255000 0 255 255
9.792400 -9.814700 -2.491200 0 255 255
9.827800 -10.318900 10.555600 255 0 0
9.850000 -10.350000 7.315000 255 0 0
9.833700 -10.229600 4.062200 255 0 0
9.839300 -10.127300 -2.089300 255 0 0
10.000000 -11.040000 -2.720000 0 255 255
9.210000 -11.035000 7.020000 0 255 0
9.173300 -10.763300 16.413300 0 255 0
9.786000 -10.418000 12.916000 255 0 0
9.785000 -10.475000 16.059999 255 0 0
8.910000 -10.120000 19.209999 0 255 0
8.885000 -10.070000 15.975000 0 255 0
8.884300 -10.580700 7.109300 0 255 0
9.647500 -10.360000 -2.747500 255 0 0
9.647100 -10.465700 3.768600 255 0 0
9.640000 -11.600000 20.115000 0 255 0
10.030000 -10.690000 -2.650000 0 255 0
9.240000 -9.710000 -2.620000 0 255 255
10.340000 -10.565400 10.771500 0 255 0
9.907500 -9.820000 -2.345000 0 255 255
9.560000 -9.600000 17.209999 0 255 0
9.547500 -9.927500 -2.380000 0 255 0
9.345000 -10.835000 -3.520000 0 255 255
9.320000 -11.340000 14.790000 0 255 0
9.930000 -11.400000 16.030001 0 255 0
9.970000 -11.620000 16.250000 0 255 0
9.990000 -9.630000 -2.640000 0 255 255
10.801200 -10.331200 -1.892500 0 255 255
10.846700 -9.760000 -3.190000 0 255 255
9.742500 -10.275000 17.155001 0 255 0
9.860000 -11.060000 15.970000 0 255 0
10.746700 -10.706700 -1.746700 0 255 255
10.400000 -10.710000 20.930000 0 255 0
10.400000 -10.765000 -1.785000 0 255 255
10.380000 -10.621700 14.408300 0 255 0
10.382000 -10.878000 14.162000 0 255 0
10.690000 -10.560000 13.395000 0 255 0
9.710000 -11.620000 20.059999 0 255 0
9.097000 -11.419500 13.806500 0 255 0
9.881800 -10.318400 7.609700 255 0 0
9.880000 -10.375000 10.862000 255 0 0
9.891600 -10.165000 -1.790000 255 0 0
10.280000 -9.680000 -3.350000 0 255 255
9.990000 -10.000000 17.000000 0 255 0
9.785000 -10.160000 11.120000 0 255 0
10.080000 -11.075000 11.210000 0 255 0
9.975000 -10.985000 10.780000 0 255 0
10.988000 -10.517000 -3.086000 0 255 255
9.640000 -9.576700 15.608300 0 255 0
9.833300 -9.720000 11.103300 0 255 0
10.320000 -10.770000 -3.560000 0 255 255
9.490000 -10.058000 15.802000 0 255 0
9.470000 -10.200000 -3.520000 0 255 255
9.560000 -9.860000 12.080000 0 255 0
10.910000 -10.760000 -2.160000 0 255 255
9.860000 -10.100000 1.670000 255 0 0
9.834000 -10.364000 11.554000 255 0 0
9.838700 -10.266100 5.063400 255 0 0
9.840900 -10.167600 -1.492900 255 0 0
9.583000 -11.069000 -3.139000 0 255 255
9.560000 -10.960000 -2.940000 0 255 0
9.040000 -11.430000 10.240000 0 255 0
9.493300 -10.036700 -3.226700 0 255 255
9.494400 -10.115000 15.709400 0 255 0
8.890000 -9.810000 15.995000 0 255 0
9.695000 -10.565000 9.915000 255 0 0
9.695000 -10.610000 13.057500 255 0 0
9.670000 -10.470000 16.049999 255 0 0
8.838900 -10.118900 19.412201 0 255 0
8.835500 -9.970900 16.057301 0 255 0
8.786700 -10.386700 -3.556700 0 255 255
8.787300 -10.228000 12.354000 0 255 0
8.786700 -10.123300 16.048300 0 255 0
9.980000 -10.417500 6.602500 255 0 0
9.991400 -10.264300 -2.935700 255 0 0
9.990700 -10.366000 3.357300 255 0 0
9.992300 -10.314500 0.305500 255 0 0
9.387900 -11.164300 16.010700 0 255 0
10.250000 -9.926700 10.910000 0 255 0
10.240700 -9.958600 7.757900 0 255 0
9.790000 -9.860000 20.000000 0 255 0
9.370000 -10.690000 -3.300000 0 255 255
10.355000 -11.200000 -2.835000 0 255 255
10.340000 -10.880000 20.013300 0 255 0
10.632500 -11.017500 -3.427500 0 255 255
10.243300 -11.276700 11.030000 0 255 0
10.075000 -9.115000 -3.225000 0 255 255
10.540000 -10.923300 -2.086700 0 255 255
10.550000 -10.700000 10.950000 0 255 0
9.543300 -10.860000 6.863300 0 255 0
9.895000 -10.210000 0.406100 255 0 0
9.893000 -10.265200 3.661200 255 0 0
10.350000 -11.290000 17.990000 0 255 0
8.850000 -9.910000 12.110000 0 255 0
10.135000 -11.380000 9.055000 0 255 0
9.440000 -9.120000 -2.640000 0 255 255
10.337000 -9.630000 7.762000 0 255 0
10.534300 -10.160000 16.355000 0 255 0
9.740000 -10.190000 3.160000 255 0 0
9.720000 -9.950000 15.800000 0 255 0
9.740400 -10.213200 0.007900 255 0 0
10.890000 -10.570000 -2.510000 0 255 255
9.840000 -10.472900 14.854300 255 0 0
9.980000 -11.270000 -3.692500 0 255 255
9.140000 -11.060000 19.129999 0 255 0
9.150000 -11.160000 12.790000 0 255 0
10.430000 -11.370000 18.013300 0 255 0
9.175000 -11.220000 12.870000 0 255 0
10.290000 -10.950000 20.010000 0 255 0
8.980000 -9.980000 -3.830000 0 255 255
9.340000 -9.590000 15.655000 0 255 0
9.340000 -9.600000 12.390000 0 255 0
10.660000 -10.510000 13.480000 0 255 0
10.030000 -9.685000 -2.930000 0 255 255
10.040000 -10.070000 22.360001 0 255 0
10.630000 -10.820000 -2.850000 0 255 255
9.800000 -11.340000 12.860000 0 255 0
9.943100 -9.915700 11.008900 0 255 0
9.192500 -10.618900 7.163200 0 255 0
9.090000 -9.330000 -2.020000 0 255 255
10.530000 -10.767500 14.360000 0 255 0
10.553100 -11.012300 -2.230000 0 255 255
9.150000 -11.400000 16.240000 0 255 0
9.150000 -11.210000 7.140000 0 255 0
9.136100 -11.467200 16.163900 0 255 0
10.245000 -10.135000 11.045000 0 255 0
8.644300 -9.868600 -2.491400 0 255 255
10.080000 -9.650000 19.969999 0 255 0
10.540000 -10.040000 -3.420000 0 255 255
9.860000 -11.180000 -3.710000 0 255 255
9.800000 -9.910000 20.020000 0 255 0
8.680000 -9.965000 -3.135000 0 255 255
10.480000 -10.616700 15.106700 0 255 0
8.837100 -9.917100 -2.340000 0 255 255
9.488500 -9.523100 12.309200 0 255 0
9.994000 -10.320000 4.566000 255 0 0
9.970000 -10.360000 7.900000 255 0 0
9.981900 -10.273800 1.413300 255 0 0
8.940000 -10.430000 16.850000 0 255 0
8.930000 -10.580000 7.480000 0 255 0
10.042500 -9.577500 20.115000 0 255 0
10.480000 -11.250000 11.290000 0 255 0
10.480000 -10.440000 -3.970000 0 255 255
9.896700 -11.126700 -2.986700 0 255 255
9.880000 -10.610000 -2.535000 255 0 0
9.383300 -9.356700 -2.276700 0 255 255
9.780000 -11.190000 18.760000 0 255 0
9.800000 -10.860000 -2.320000 0 255 0
9.780000 -11.080000 11.616700 0 255 0
10.190300 -10.972300 -1.743000 0 255 255
10.210000 -10.570000 15.220000 0 255 0
10.180000 -11.123300 -3.786700 0 255 255
10.210000 -10.550000 12.920000 0 255 0
9.797100 -11.125700 -2.405700 0 255 255
10.330000 -11.060000 -3.755000 0 255 255
10.320000 -11.290000 8.900000 0 255 0
10.355000 -10.665000 22.365000 0 255 0
10.230000 -10.430000 -3.500000 0 255 0
9.145000 -10.030000 -3.390000 0 255 255
10.210000 -11.140000 -2.980000 0 255 255
10.020000 -10.340000 2.150000 255 0 0
8.930000 -11.140000 14.810000 0 255 0
8.760000 -10.900000 7.290000 0 255 0
10.190000 -11.020000 13.725000 0 255 0
10.196700 -10.510000 11.103300 0 255 0
9.910000 -9.440000 -2.890000 0 255 255
10.030000 -10.500000 -0.920000 255 0 0
9.525000 -10.630000 14.405000 0 255 0
9.500000 -10.910000 22.049999 0 255 0
9.430000 -10.340000 -3.630000 0 255 255
9.760000 -10.610000 9.910000 255 0 0
9.745000 -10.820000 -2.740000 0 255 0
9.730000 -10.580000 13.060000 255 0 0
9.731000 -10.519000 16.058001 255 0 0
9.610000 -10.350000 3.580000 255 0 0
9.605000 -10.475000 9.880000 255 0 0
9.506700 -10.976700 -3.110000 0 255 255
10.250000 -10.956700 -2.910000 0 255 255
9.580000 -10.580000 12.330000 0 255 0
9.890000 -10.470000 9.090000 255 0 0
9.887500 -10.511700 -0.438800 255 0 0
9.910000 -10.400000 5.860000 255 0 0
9.896700 -10.615000 18.510000 255 0 0
10.400000 -10.180000 -2.940000 0 255 255
9.640000 -11.115000 -3.435000 0 255 255
9.660000 -10.870000 12.480000 0 255 0
9.640000 -10.560000 18.590000 0 255 0
9.640000 -10.730000 21.860001 0 255 0
9.645000 -10.630000 15.345000 255 0 0
9.975000 -10.555000 18.525000 0 255 0
9.976700 -10.416700 2.846700 255 0 0
10.000000 -10.367800 -0.287800 255 0 0
9.381300 -9.614700 12.008700 0 255 0
9.970000 -10.400000 9.910000 255 0 0
9.970000 -10.390000 6.660000 255 0 0
9.981800 -10.324500 3.402700 255 0 0
9.981300 -10.272700 0.159000 255 0 0
9.350000 -9.470000 12.230000 0 255 0
9.737000 -9.515000 17.158001 0 255 0
9.930000 -10.186700 1.450000 255 0 0
9.941700 -10.023700 11.009700 0 255 0
10.100000 -10.570000 18.610001 0 255 0
9.470000 -10.820000 16.010000 0 255 0
10.185000 -10.260000 10.915000 0 255 0
9.635000 -11.215000 -2.630000 0 255 255
9.786100 -10.373300 11.905600 255 0 0
9.785100 -10.268900 5.407700 255 0 0
9.786600 -10.319000 8.760000 255 0 0
9.786200 -10.210900 2.258100 255 0 0
9.790200 -10.171000 -1.139500 255 0 0
8.745000 -10.225000 -3.510000 0 255 255
8.737500 -10.375000 12.212500 0 255 0
10.160000 -9.310000 -3.470000 0 255 255
8.839200 -10.070000 16.010000 0 255 0
8.835600 -10.875600 11.297200 0 255 0
9.940000 -10.880000 13.240000 0 255 0
9.943300 -10.730000 -2.633300 0 255 0
9.343000 -10.771000 7.204000 0 255 0
8.789100 -10.618300 7.153500 0 255 0
9.887200 -10.274400 5.709200 255 0 0
9.889800 -10.218800 2.560700 255 0 0
9.270000 -9.620000 -2.260000 0 255 255
10.150000 -11.020000 -1.690000 0 255 255
9.535000 -9.330000 -2.895000 0 255 255
9.830000 -10.550000 1.480000 255 0 0
9.840000 -10.536700 4.711100 255 0 0
9.840000 -10.620000 11.070000 0 255 0
9.297500 -11.370000 14.862500 0 255 0
9.297700 -10.723100 10.763100 0 255 0
9.992000 -10.378000 -4.002000 0 255 0
9.993300 -10.416700 -0.842900 255 0 0
9.925000 -10.275000 7.560000 255 0 0
9.950000 -10.380000 1.070000 255 0 0
9.960000 -10.010000 -2.330000 0 255 0
9.941500 -10.311800 4.208500 255 0 0
9.984000 -9.616000 19.910000 0 255 0
8.746200 -9.922900 7.871000 0 255 0
8.720000 -10.420000 -2.910000 0 255 255
9.395600 -9.268900 -2.640000 0 255 255
9.892500 -10.525000 5.710000 255 0 0
9.880000 -10.480000 15.375000 255 0 0
9.890000 -10.765000 21.895000 0 255 0
9.886700 -10.420000 12.210000 255 0 0
8.795000 -10.875000 7.020000 0 255 0
10.187500 -9.615000 20.067499 0 255 0
8.796200 -10.619200 16.705400 0 255 0
9.610000 -10.640000 -3.170000 0 255 0
10.535000 -11.030000 -3.290000 0 255 255
10.350000 -10.940000 -3.290000 0 255 255
9.891300 -10.213600 1.407700 255 0 0
9.889100 -10.268400 4.660900 255 0 0
9.505000 -10.710000 17.645000 0 255 0
9.870000 -10.525000 21.950001 0 255 0
9.306700 -10.516700 -2.190000 0 255 255
9.640000 -10.390000 11.760000 255 0 0
9.650000 -10.415600 8.514400 255 0 0
9.646300 -10.512500 14.816300 255 0 0
9.990700 -9.524100 10.906700 0 255 0
9.843300 -11.056700 -3.876700 0 255 255
9.795700 -9.765700 17.098600 0 255 0
10.150000 -11.215000 17.850000 0 255 0
10.020000 -10.730000 -2.790000 0 255 0
10.030000 -10.520000 9.850000 0 255 0
10.040000 -10.467100 13.004300 0 255 0
9.810000 -9.520000 18.360001 0 255 0
9.944400 -10.915000 -1.878700 0 255 255
9.945500 -11.113600 10.770000 0 255 0
10.445000 -10.380000 15.117500 0 255 0
10.610000 -10.580000 15.310000 0 255 0
9.800000 -10.350000 0.860000 255 0 0
8.941100 -9.719400 7.810000 0 255 0
9.885000 -10.155000 10.900000 0 255 0
9.440000 -10.150000 17.209999 0 255 0
9.110000 -9.610000 15.870000 0 255 0
9.990000 -9.310000 11.440000 0 255 0
10.136700 -11.213300 10.960000 0 255 0
10.290000 -11.230000 8.940000 0 255 0
10.285000 -11.025000 -3.705000 0 255 255
10.928000 -10.512000 18.964001 0 255 0
9.670000 -11.190000 22.190001 0 255 0
9.680000 -11.412900 12.817100 0 255 0
10.233300 -10.118300 11.008300 0 255 0
10.540000 -10.900000 20.070000 0 255 0
9.140000 -10.060000 15.995000 0 255 0
9.144300 -10.015700 19.254299 0 255 0
9.440000 -10.040000 22.070000 0 255 0
9.432000 -9.916000 15.757000 0 255 0
9.728000 -10.684000 15.862000 255 0 0
9.741400 -10.621400 19.004299 255 0 0
9.085000 -10.175000 19.360001 0 255 0
10.750000 -9.666700 -3.326700 0 255 255
8.690000 -9.862500 -3.352500 0 255 255
9.190000 -11.003300 -3.223300 0 255 255
9.183300 -10.767800 6.658900 0 255 0
9.190000 -11.376700 18.910000 0 255 0
9.120000 -11.560000 18.940001 0 255 0
9.750000 -9.770000 19.575001 0 255 0
9.740000 -10.127500 -3.352500 0 255 0
9.189600 -11.270900 16.360399 0 255 0
9.188500 -11.466900 16.452299 0 255 0
9.106000 -11.064000 -2.538000 0 255 255
9.089500 -11.226400 6.953600 0 255 0
9.300000 -10.090000 12.140000 0 255 0
9.270000 -10.140000 15.420000 0 255 0
10.160000 -10.290000 -2.910000 0 255 0
8.836700 -10.768900 16.703300 0 255 0
9.800000 -10.630000 20.680000 255 0 0
9.785000 -10.510000 14.310000 255 0 0
9.784300 -10.570000 17.458599 255 0 0
9.786200 -10.470000 14.413800 255 0 0
9.793300 -10.406700 11.166700 255 0 0
9.800000 -10.535000 17.450001 255 0 0
9.400000 -10.000000 22.320000 0 255 0
10.150000 -9.628000 20.052000 0 255 0
8.835000 -10.610000 7.401700 0 255 0
9.437500 -10.972500 20.514999 0 255 0
9.435300 -10.714400 10.705800 0 255 0
9.035000 -10.085000 -2.297500 0 255 255
9.040000 -10.216700 11.603300 0 255 0
10.330000 -9.420000 7.710000 0 255 0
10.320000 -9.350000 10.950000 0 255 0
10.080000 -10.450000 -0.610000 255 0 0
9.695800 -10.563300 5.413300 255 0 0
9.690000 -10.519200 14.909200 255 0 0
9.682500 -10.464500 11.756500 255 0 0
9.570000 -11.540000 20.040001 0 255 0
9.360000 -10.720000 22.540001 0 255 0
8.830000 -10.200000 -2.640000 0 255 255
8.841300 -10.007500 12.012500 0 255 0
9.920000 -10.270000 8.510000 255 0 0
9.960000 -10.360000 2.000000 255 0 0
9.934300 -10.321100 5.261700 255 0 0
10.630000 -10.470000 -3.800000 0 255 255
9.089000 -11.274000 7.008000 0 255 0
9.080000 -11.420000 16.504299 0 255 0
9.935000 -9.565000 20.209999 0 255 0
9.887600 -9.519400 10.910600 0 255 0
9.590000 -10.650000 13.960000 255 0 0
9.603100 -10.816900 -2.148500 0 255 0
9.528000 -10.678000 7.052000 0 255 0
9.952500 -11.124200 8.819200 0 255 0
9.530000 -11.160000 22.340000 0 255 0
9.792500 -10.912500 -2.830000 0 255 0
9.785000 -11.160000 -2.975000 0 255 255
10.895000 -10.665000 19.209999 0 255 0
9.242500 -9.822500 11.952500 0 255 0
9.870000 -10.630000 -1.810000 255 0 0
9.942700 -11.461800 11.163600 0 255 0
9.550000 -9.390000 -3.790000 0 255 255
9.975000 -10.930000 -1.935000 0 255 255
9.950000 -9.630000 20.010000 0 255 0
10.600000 -10.940000 -3.100000 0 255 255
9.435000 -10.862500 -2.780000 0 255 0
9.430000 -10.390000 15.990000 0 255 0
9.441200 -10.915900 6.908200 0 255 0
9.995000 -11.215000 20.670000 0 255 0
9.971700 -10.456700 -2.046700 255 0 0
10.000000 -10.510000 1.100000 255 0 0
10.000000 -11.070000 11.010900 0 255 0
8.805000 -10.435000 -2.242500 0 255 255
10.386300 -10.423800 11.016900 0 255 0
9.255000 -10.975000 -2.660000 0 255 255
9.235000 -11.262500 17.155001 0 255 0
8.793300 -10.670000 18.166700 0 255 0
10.190000 -9.627500 18.165001 0 255 0
8.788300 -10.863000 5.516100 0 255 0
10.020000 -10.610000 -1.990000 0 255 0
10.047600 -11.225300 11.058800 0 255 0
10.350000 -11.230000 17.910000 0 255 0
10.983800 -10.269000 -1.885200 0 255 255
9.931400 -10.470000 6.752900 255 0 0
9.932500 -10.420000 10.007500 255 0 0
9.876000 -10.336000 10.464000 255 0 0
9.893600 -10.119100 -2.189100 255 0 0
9.885900 -10.183400 0.959100 255 0 0
9.883300 -10.233300 4.966700 255 0 0
9.890000 -10.290000 8.110000 255 0 0
8.890800 -10.873300 7.211700 0 255 0
8.888600 -10.817100 16.665701 0 255 0
10.033800 -11.269200 8.813100 0 255 0
8.942100 -9.818600 11.965700 0 255 0
9.810000 -10.810000 -4.000000 0 255 0
9.390800 -9.220000 -2.540800 0 255 255
10.940000 -10.350000 10.880000 0 255 0
10.180000 -11.130000 -3.840000 0 255 255
9.382400 -9.271400 -1.842400 0 255 255
10.330000 -11.160000 17.940001 0 255 0
9.990000 -10.870000 20.410000 0 255 0
9.984300 -10.527100 -1.634300 255 0 0
9.984000 -11.172000 13.848000 0 255 0
9.710000 -10.650000 -2.520000 0 255 0
9.690000 -10.620000 7.020000 255 0 0
9.682500 -10.520000 13.365000 255 0 0
9.683700 -10.467400 10.112600 255 0 0
9.932900 -10.504300 0.412900 255 0 0
9.948000 -10.423000 6.709000 0 255 0
9.940700 -10.469300 3.456700 255 0 0
10.360000 -11.250000 14.050000 0 255 0
10.054000 -10.964000 13.616000 0 255 0
10.260000 -10.590000 15.230000 0 255 0
10.240000 -11.250000 17.820000 0 255 0
9.842000 -9.676000 17.068001 0 255 0
9.693700 -9.720600 11.053800 0 255 0
9.820000 -10.485000 -0.470000 255 0 0
9.835000 -10.625000 15.330000 255 0 0
9.830000 -10.530000 9.160000 255 0 0
9.836700 -10.553300 6.008300 255 0 0
9.840000 -10.720000 21.799999 0 255 0
9.931900 -10.186700 -0.291000 255 0 0
9.945000 -10.360000 12.775000 255 0 0
9.983300 -10.463300 6.063300 255 0 0
9.360000 -10.640000 6.460000 0 255 0
9.330000 -10.375000 22.360001 0 255 0
9.345000 -9.915000 -3.690000 0 255 255
9.345000 -10.460000 16.209999 0 255 0
9.336700 -9.973300 15.606700 0 255 0
9.444400 -9.415600 12.057800 0 255 0
10.010000 -10.370000 -2.880000 255 0 0
9.983900 -10.422900 0.258900 255 0 0
9.340000 -9.530000 12.055000 0 255 0
10.120000 -10.850000 18.650000 0 255 0
10.160000 -11.230000 -3.550000 0 255 255
9.910000 -11.310000 9.000000 0 255 0
9.930000 -10.510000 5.820000 255 0 0
9.940000 -10.476700 8.863300 255 0 0
9.930000 -10.430000 12.130000 255 0 0
9.927500 -10.660000 21.902500 0 255 0
10.143300 -10.320000 10.953300 0 255 0
9.775000 -10.260000 1.300000 255 0 0
9.783300 -10.306700 4.470000 255 0 0
9.783300 -10.210000 -1.853300 255 0 0
9.781000 -10.371000 11.308000 255 0 0
9.790800 -10.170300 -1.341900 255 0 0
9.791800 -10.314100 8.159100 255 0 0
9.786000 -10.205000 1.663700 0 255 0
9.787900 -10.261700 4.809800 255 0 0
9.870000 -10.330000 20.190001 0 255 0
9.995000 -10.155000 -1.050000 255 0 0
9.990000 -10.220000 2.110000 255 0 0
9.920000 -9.790000 20.320000 0 255 0
10.002500 -10.922500 13.615000 0 255 0
9.275000 -11.380000 14.720000 0 255 0
10.545000 -11.170000 18.805000 0 255 0
9.241900 -11.220000 14.762900 0 255 0
9.870000 -10.290000 8.850000 255 0 0
9.870000 -10.240000 5.620000 255 0 0
10.450000 -10.920000 -3.690000 0 255 255
9.946000 -10.774000 -1.878000 0 255 0
9.933300 -10.965600 10.747800 0 255 0
10.240700 -9.520000 7.669300 0 255 0
10.286300 -10.513800 11.063700 0 255 0
9.243500 -11.168100 -2.078100 0 255 255
9.432500 -11.065000 -3.227500 0 255 255
8.883300 -9.983300 -2.846700 0 255 255
9.860000 -11.320000 13.990000 0 255 0
9.030000 -10.620000 16.602501 0 255 0
8.740000 -10.350000 16.730000 0 255 0
8.890000 -10.384300 -2.297100 0 255 255
8.936900 -10.779200 11.249200 0 255 0
9.840000 -10.620000 -2.620000 0 255 0
9.840000 -10.330000 -0.180000 255 0 0
9.950000 -10.570000 11.410000 0 255 0
10.500000 -10.480000 -1.730000 0 255 255
9.290000 -11.490000 12.940000 0 255 0
9.390000 -9.675000 19.965000 0 255 0
9.960000 -11.010000 15.870000 0 255 0
9.889400 -10.117200 10.802800 0 255 0
9.386700 -9.870000 16.003300 0 255 0
9.780000 -10.490000 8.720000 255 0 0
9.800000 -10.690000 21.360001 255 0 0
9.781400 -10.620000 18.100000 255 0 0
9.430000 -10.330000 18.799999 0 255 0
9.010000 -9.560000 -3.520000 0 255 255
8.986000 -9.920000 19.398001 0 255 0
10.680000 -11.220000 18.969999 0 255 0
9.150000 -10.190000 -3.650000 0 255 255
9.130000 -10.515000 22.400000 0 255 0
9.160000 -10.200000 16.059999 0 255 0
9.035000 -10.680000 16.360001 0 255 0
9.190000 -11.415000 14.225000 0 255 0
9.210000 -11.120000 20.770000 0 255 0
9.900000 -11.450000 8.830000 0 255 0
9.720000 -10.490000 9.020000 255 0 0
9.750000 -10.560000 2.450000 255 0 0
9.730000 -10.417500 12.355000 255 0 0
9.734500 -10.520900 5.859100 255 0 0
10.040000 -9.800000 20.260000 0 255 0
10.044000 -9.670000 16.903999 0 255 0
9.560000 -9.650000 -2.740000 0 255 255
9.540000 -10.862200 18.552200 0 255 0
9.390000 -11.380000 15.300000 0 255 0
10.345000 -10.960000 -3.645000 0 255 255
10.355000 -10.575000 22.455000 0 255 0
9.950000 -10.074000 10.978000 0 255 0
9.200000 -10.873300 14.470000 0 255 0
10.230000 -11.030000 22.129999 0 255 0
10.850000 -10.420000 18.360001 0 255 0
10.840000 -10.251700 15.020000 0 255 0
10.826000 -10.322000 15.004000 0 255 0
10.560000 -10.400000 -3.000000 0 255 255
9.481700 -10.215000 14.545000 0 255 0
9.697100 -10.226300 -1.089200 0 255 0
9.927500 -10.237500 3.647500 255 0 0
9.947000 -10.256000 0.418000 255 0 0
9.926700 -9.510000 17.059999 0 255 0
9.395800 -10.118300 15.760000 0 255 0
9.660000 -10.320000 -3.987500 0 255 0
9.640900 -9.824500 15.611800 0 255 0
9.650000 -10.290000 -0.840000 255 0 0
9.138000 -10.918700 5.450000 0 255 0
9.143300 -11.166700 15.273300 0 255 0
10.240000 -10.555000 18.620001 0 255 0
9.680000 -10.572000 -2.932000 0 255 0
9.670000 -10.440000 12.970000 255 0 0
9.698800 -10.513700 6.461200 255 0 0
9.683000 -10.470500 3.212300 255 0 0
9.695900 -10.373100 9.711000 255 0 0
9.480000 -10.220000 13.790000 0 255 0
9.490000 -9.975000 10.720000 0 255 0
9.650000 -10.075000 -2.530000 0 255 0
9.640000 -9.578500 17.062300 0 255 0
10.505000 -10.140000 16.500000 0 255 0
9.243300 -9.338300 -2.291700 0 255 255
9.137100 -11.458600 13.712900 0 255 0
9.120000 -9.630000 15.250000 0 255 0
9.145600 -9.676700 12.002200 0 255 0
10.240000 -10.950000 -3.650000 0 255 255
10.250000 -10.560000 22.459999 0 255 0
10.742100 -10.672900 -2.141400 0 255 255
10.751400 -10.825700 14.168600 0 255 0
10.398800 -9.620000 10.718000 0 255 0
9.191500 -10.114600 15.663100 0 255 0
10.890000 -10.580000 18.850000 0 255 0
10.080000 -11.120000 11.290000 0 255 0
10.100000 -10.520000 -2.140000 0 255 0
10.020000 -10.290000 4.050000 255 0 0
10.020000 -10.420000 7.200000 255 0 0
10.030000 -9.790000 -2.690000 0 255 255
10.040000 -10.317500 0.915000 255 0 0
9.800000 -9.610000 19.780001 0 255 0
9.440000 -9.460000 -2.800000 0 255 255
9.830000 -10.915000 -2.055000 0 255 0
10.210000 -11.280000 8.820000 0 255 0
10.230000 -10.430000 -3.450000 0 255 0
9.186700 -9.970000 -2.993300 0 255 255
9.190000 -10.577300 -2.330900 0 255 255
10.180000 -11.215000 11.155000 0 255 0
10.190000 -10.980000 11.005000 0 255 0
9.250000 -9.700000 -2.490000 0 255 255
9.900000 -11.600000 16.600000 0 255 0
9.904000 -11.522000 -3.142000 0 255 255
9.437700 -10.616200 6.500800 0 255 0
9.933000 -10.275200 4.161500 255 0 0
9.930000 -10.330000 0.790000 255 0 0
9.810000 -10.830000 -1.990000 0 255 0
9.675000 -10.217500 12.450000 0 255 0
9.691200 -10.268800 3.007800 255 0 0
9.693900 -10.324100 6.159400 255 0 0
10.040000 -9.570000 11.170000 0 255 0
9.690000 -10.785000 19.809999 255 0 0
9.693300 -9.766700 -2.542200 0 255 255
10.240000 -10.570000 22.190001 0 255 0
9.720000 -10.700000 15.710000 255 0 0
9.750000 -10.620000 22.020000 0 255 0
9.742500 -10.672500 18.852501 255 0 0
9.800000 -10.570000 18.556700 255 0 0
9.770000 -10.610000 21.940001 0 255 0
9.786700 -10.518300 15.409200 255 0 0
9.680000 -10.590000 21.959999 0 255 0
9.675000 -10.715000 18.900000 255 0 0
9.685000 -10.670000 15.675000 255 0 0
10.060000 -9.090000 -3.220000 0 255 255
9.596700 -10.473300 -2.630000 255 0 0
10.295500 -9.820900 10.808200 0 255 0
9.800000 -10.280000 9.760000 255 0 0
9.795000 -10.140000 0.170000 255 0 0
9.796700 -10.233300 6.516700 255 0 0
9.800000 -10.190000 3.430000 255 0 0
9.893000 -10.314300 6.507400 255 0 0
9.888800 -10.373100 9.757500 255 0 0
9.340000 -10.350000 -3.070000 0 255 255
9.330000 -11.020000 6.815000 0 255 0
10.310000 -10.780000 15.330000 0 255 0
9.736700 -11.215000 19.965000 0 255 0
9.976700 -10.903300 -1.873300 0 255 255
9.920000 -9.600000 19.840000 0 255 0
8.950000 -10.430000 16.700001 0 255 0
9.335000 -9.580000 15.730000 0 255 0
9.239200 -10.072300 15.715400 0 255 0
9.845000 -9.555000 -3.055000 0 255 255
9.655000 -9.325000 11.515000 0 255 0
9.435000 -11.275000 -3.230000 0 255 255
9.493300 -11.180000 -2.156700 0 255 255
10.435000 -11.155000 18.754999 0 255 0
9.960000 -10.400000 -0.070000 255 0 0
9.937500 -10.605000 12.552500 255 0 0
10.487100 -9.975000 10.960800 0 255 0
10.550000 -11.060000 -3.200000 0 255 255
9.795000 -10.815000 10.710000 0 255 0
10.580000 -10.130000 -3.450000 0 255 255
10.570000 -10.490000 18.730000 0 255 0
10.380000 -11.070000 -3.160000 0 255 255
10.460000 -9.900000 -3.280000 0 255 255
10.300000 -11.090000 18.820000 0 255 0
8.940000 -10.460000 16.820000 0 255 0
10.025000 -9.630000 20.070000 0 255 0
8.936700 -10.617500 7.403300 0 255 0
10.043300 -9.606700 16.903299 0 255 0
8.939100 -10.574500 7.404500 0 255 0
10.328300 -9.715000 7.766700 0 255 0
10.337900 -10.076400 10.956400 0 255 0
9.391300 -9.320000 -2.894000 0 255 255
8.810000 -10.170000 11.920000 0 255 0
10.360000 -10.560000 21.020000 0 255 0
10.040000 -9.400000 11.350000 0 255 0
8.843300 -10.230000 -2.536700 0 255 255
10.670000 -10.250000 -3.340000 0 255 255
10.125000 -10.030000 10.960000 0 255 0
9.941400 -10.266100 3.161100 255 0 0
9.360000 -11.350000 -2.170000 0 255 255
9.330000 -11.050000 17.180000 0 255 0
9.880000 -11.590000 11.010000 0 255 0
10.000000 -10.650000 -1.460000 0 255 0
9.486700 -10.413300 -2.086700 0 255 0
9.375000 -11.260000 16.205000 0 255 0
10.756700 -10.323300 -3.140000 0 255 255
10.150000 -9.360000 11.360000 0 255 0
10.896000 -10.508000 15.256000 0 255 0
10.984300 -10.464300 -3.081400 0 255 255
10.442500 -10.627500 -3.195000 0 255 255
10.400000 -10.510000 16.389999 0 255 0
9.785000 -11.310000 11.065000 0 255 0
9.646000 -10.372000 -2.682000 255 0 0
9.650000 -10.466700 3.610000 255 0 0
9.775000 -10.770000 -2.010000 0 255 0
10.341400 -9.922400 7.616700 0 255 0
10.334600 -9.965400 7.609000 0 255 0
10.339500 -9.918800 10.865000 0 255 0
9.550000 -10.625000 13.595000 0 255 0
9.533700 -10.471200 -2.196300 0 255 0
9.640000 -10.390000 11.590000 255 0 0
9.650000 -10.532000 14.968000 255 0 0
9.646000 -10.433000 8.454000 255 0 0
8.890000 -10.570000 7.016700 0 255 0
8.900000 -10.100000 19.299999 0 255 0
8.893800 -10.068700 16.061300 0 255 0
9.050000 -9.985000 19.230000 0 255 0
9.050000 -9.825000 16.070000 0 255 0
9.980000 -11.070000 -3.010000 0 255 255
9.905000 -10.510000 10.515000 255 0 0
9.652500 -10.012500 15.767500 0 255 0
9.550000 -9.820000 15.642500 0 255 0
9.885000 -11.180000 -3.845000 0 255 255
9.885000 -11.070000 -3.090000 0 255 255
9.810000 -10.730000 -4.060000 0 255 0
10.395000 -9.785000 10.805000 0 255 0
9.750000 -10.330700 10.257900 255 0 0
9.142500 -9.462500 -2.477500 0 255 255
9.640000 -10.860000 -3.900000 0 255 0
9.660000 -10.440000 12.780000 255 0 0
9.696000 -10.426000 -2.450000 255 0 0
9.892900 -11.115700 -2.890000 0 255 255
9.195600 -9.620000 12.152200 0 255 0
9.610000 -10.210000 -3.500000 0 255 0
9.183300 -10.160000 15.766700 0 255 0
9.190000 -9.466700 -2.783300 0 255 255
9.183300 -10.220000 19.010000 0 255 0
9.060000 -11.230000 6.650000 0 255 0
9.041700 -11.321700 12.963300 0 255 0
9.200000 -9.740000 -3.330000 0 255 255
9.191000 -9.614000 15.801000 0 255 0
8.880000 -10.325000 -2.925000 0 255 255
8.895600 -10.081100 -2.343300 0 255 255
10.138600 -11.467600 8.858100 0 255 0
8.838900 -9.824100 12.065200 0 255 0
9.500000 -10.416700 15.353300 0 255 0
9.496700 -10.483300 18.613300 0 255 0
8.920000 -11.410000 13.540000 0 255 0
9.688200 -9.514700 17.205900 0 255 0
9.830000 -11.540000 18.930000 0 255 0
9.830000 -11.265000 -3.600000 0 255 255
9.480000 -11.560000 16.370001 0 255 0
9.482300 -11.573100 13.110000 0 255 0
9.800000 -9.760000 19.620001 0 255 0
9.742000 -9.168000 -2.880000 0 255 255
9.133800 -10.112500 11.803800 0 255 0
9.725000 -10.425000 8.530000 255 0 0
9.736700 -10.473300 5.276700 255 0 0
9.730900 -10.381800 11.754500 255 0 0
9.740000 -10.570000 -0.890000 255 0 0
9.750000 -10.508000 2.007300 255 0 0
9.755000 -10.380000 1.855000 255 0 0
9.721700 -10.431700 -1.385000 0 255 0
10.341400 -9.770000 7.907100 0 255 0
10.185000 -10.930000 -3.750000 0 255 255
10.210000 -11.100000 -3.270000 0 255 255
10.170000 -10.630000 15.440000 0 255 0
10.270000 -9.580000 7.680000 0 255 0
9.738000 -10.221800 2.860600 255 0 0
9.735000 -10.266300 -0.190000 255 0 0
9.940000 -10.656700 -2.233300 0 255 0
9.940000 -10.825000 14.340000 0 255 0
9.790000 -11.086700 -2.390000 0 255 255
10.460000 -10.825000 -3.590000 0 255 255
9.830000 -10.190000 4.340000 255 0 0
9.860000 -10.260000 11.090000 255 0 0
9.840000 -10.065000 -1.935000 255 0 0
9.890000 -9.760000 -3.220000 0 255 255
9.455000 -11.610000 16.320000 0 255 0
8.960000 -10.490000 7.240000 0 255 0
9.880000 -9.540000 -3.720000 0 255 255
10.686700 -10.726700 16.563299 0 255 0
10.643800 -10.565000 11.012500 0 255 0
10.638300 -10.530000 14.251700 0 255 0
9.948000 -10.480700 -1.084000 255 0 0
9.952900 -10.435700 2.054300 255 0 0
9.934800 -10.719400 8.805800 0 255 0
9.390000 -10.110000 22.240000 0 255 0
9.390000 -10.000000 15.900000 0 255 0
9.298600 -9.372900 -2.242900 0 255 255
8.890000 -10.010000 -2.990000 0 255 255
10.096700 -11.521700 -2.988300 0 255 255
10.440000 -10.200000 -3.300000 0 255 255
9.881200 -10.273200 5.609200 255 0 0
9.888800 -10.218000 2.459800 255 0 0
9.920000 -10.230000 8.640000 0 255 0
9.953300 -10.316700 2.353300 255 0 0
9.924300 -10.281400 5.402900 255 0 0
8.790000 -10.415000 16.815001 0 255 0
9.560000 -10.600000 16.660000 0 255 0
9.797500 -10.487500 -2.137500 255 0 0
9.790000 -10.555000 4.361300 255 0 0
9.784800 -10.512900 1.211000 255 0 0
10.030000 -9.920000 -2.500000 0 255 0
10.030000 -9.820000 17.055000 0 255 0
10.540000 -11.075000 -3.400000 0 255 255
9.990000 -9.720000 18.350000 0 255 0
9.410000 -10.110000 -3.550000 0 255 255
9.880000 -10.505000 -2.790000 255 0 0
9.890000 -10.480000 6.660000 255 0 0
9.138600 -10.801400 -3.190000 0 255 255
9.140000 -11.390000 14.240000 0 255 0
9.920000 -10.125000 -0.045000 255 0 0
9.385000 -10.435000 22.360001 0 255 0
9.383900 -10.969600 7.062000 0 255 0
9.355000 -11.085000 17.125000 0 255 0
9.230000 -10.200000 15.340000 0 255 0
9.840000 -10.430000 15.630000 255 0 0
9.846000 -10.458000 12.368000 255 0 0
9.820000 -10.570000 18.650000 255 0 0
9.245000 -11.065000 20.670000 0 255 0
9.225000 -10.825000 -3.175000 0 255 255
9.250000 -11.275000 8.026200 0 255 0
10.295000 -10.635000 -3.705000 0 255 255
8.810000 -11.180000 14.900000 0 255 0
10.400000 -10.640000 -3.970000 0 255 255
9.590000 -11.670000 20.160000 0 255 0
9.480000 -10.725000 5.253700 0 255 0
10.303300 -9.513300 7.900000 0 255 0
9.723300 -11.320000 19.996700 0 255 0
9.745700 -10.715700 -2.190000 0 255 0
9.753300 -10.466700 13.613300 255 0 0
9.743800 -10.565000 7.458700 255 0 0
9.726700 -10.526700 10.453300 255 0 0
10.120000 -11.120000 -3.320000 0 255 255
10.120000 -10.890000 12.980000 0 255 0
10.930000 -10.750000 -1.810000 0 255 255
10.090000 -10.710000 22.200001 0 255 0
8.870000 -9.610000 -3.100000 0 255 255
10.380000 -10.275000 -3.295000 0 255 255
8.735000 -10.905000 5.405000 0 255 0
10.220000 -10.440000 -3.990000 0 255 0
8.740000 -10.966700 5.503300 0 255 0
8.800000 -9.900000 -3.410000 0 255 255
10.185800 -11.475800 8.857100 0 255 0
10.170000 -11.250000 14.210000 0 255 0
10.192500 -11.225000 11.067500 0 255 0
10.199200 -11.064600 -1.699200 0 255 255
8.840000 -9.860000 7.903300 0 255 0
9.600000 -10.563300 -2.653300 0 255 0
9.570000 -10.490000 16.500000 0 255 0
9.592700 -10.727300 7.108200 0 255 0
8.890000 -11.260000 13.390000 0 255 0
8.881000 -11.317000 16.552000 0 255 0
9.195000 -10.490000 -2.895000 0 255 255
9.170000 -10.190000 11.610000 0 255 0
9.170000 -9.590000 -1.860000 0 255 255
10.630000 -10.760000 14.310000 0 255 0
10.650000 -10.630000 11.140000 0 255 0
10.730000 -10.720000 -2.390000 0 255 255
