-14.360000 -3.990000 15.250000 0 255 0
-14.340000 -4.050000 21.540001 0 255 0
-14.320000 -4.110000 20.080000 0 255 0
-14.166700 -2.914400 -0.232200 0 255 0
-14.170000 -3.260000 15.400000 0 255 0
-14.396700 -3.853300 21.223301 0 255 0
-13.680000 -3.240000 21.809999 255 0 0
-13.668100 -3.026300 9.163000 255 0 0
-13.663300 -3.271100 18.658899 255 0 0
-13.657600 -3.072400 6.009000 255 0 0
-14.321900 -2.265000 0.120000 0 255 255
-14.380000 -3.320000 23.540001 0 255 0
-13.362500 -3.512500 0.057500 0 255 0
-13.375000 -3.985000 21.424999 0 255 0
-13.560000 -3.385000 23.400000 255 0 0
-13.565600 -3.410000 20.258900 255 0 0
-13.557500 -3.427500 21.559999 255 0 0
-13.561400 -3.674300 18.158600 0 255 0
-13.572000 -3.720000 15.014000 0 255 0
-13.574600 -3.072900 1.159700 0 255 0
-13.530000 -3.960000 15.570000 0 255 0
-14.230000 -2.720000 23.469999 0 255 0
-14.206000 -2.652000 20.309999 0 255 0
-13.758900 -3.873900 11.951700 0 255 0
-14.323300 -4.033300 20.299999 0 255 0
-13.411400 -2.323300 1.610600 0 255 255
-13.515000 -4.107500 15.602500 0 255 0
-13.380000 -3.450000 24.520000 0 255 0
-13.218900 -2.315600 1.513300 0 255 255
-13.126700 -2.473300 0.343300 0 255 255
-13.753000 -1.969000 0.606000 0 255 255
-13.740000 -1.900000 0.330000 0 255 255
-13.766700 -1.980000 0.306700 0 255 255
-13.755000 -4.175000 0.710000 0 255 255
-14.120000 -2.270000 0.600000 0 255 255
-14.105300 -2.765900 20.211201 0 255 0
-14.500000 -2.526700 20.463301 0 255 0
-12.756200 -3.623800 18.018801 0 255 0
-14.155000 -2.832500 19.760000 0 255 0
-14.220000 -3.560000 17.170000 0 255 0
-13.650000 -3.015000 -0.030000 0 255 0
-13.664300 -3.262900 9.459300 255 0 0
-13.649300 -3.222700 12.609300 255 0 0
-13.662400 -3.171800 15.964100 255 0 0
-13.662300 -2.921500 6.456200 255 0 0
-13.656700 -2.965200 3.309100 255 0 0
-14.355000 -3.175000 -0.027500 0 255 255
-14.066000 -4.274000 14.806000 0 255 0
-13.570000 -3.150000 9.600000 255 0 0
-13.565000 -3.277500 16.117500 255 0 0
-14.058000 -4.170000 23.308001 0 255 0
-14.190000 -3.025000 19.200001 0 255 0
-14.575000 -3.065000 -0.625000 0 255 255
-14.240000 -3.270000 24.730000 0 255 0
-13.990000 -3.140000 12.320000 255 0 0
-13.763200 -1.772700 1.663600 0 255 255
-13.930000 -3.100000 25.900000 0 255 0
-13.915000 -3.207500 19.605000 0 255 0
-13.611100 -2.659600 0.773000 0 255 0
-13.800000 -3.230000 2.710000 255 0 0
-13.807600 -3.275500 5.956900 255 0 0
-13.190000 -4.355000 14.850000 0 255 0
-13.820000 -3.290000 21.299999 0 255 0
-13.800000 -3.160000 14.820000 255 0 0
-13.810000 -2.518300 23.911699 0 255 0
-13.810000 -3.277500 18.062500 255 0 0
-13.820000 -3.050000 5.010000 255 0 0
-14.420000 -2.824000 -0.434000 0 255 255
-13.270000 -3.420000 21.969999 0 255 0
-13.280000 -3.480000 18.809999 0 255 0
-13.255000 -3.375000 0.250000 0 255 0
-12.820000 -3.125000 22.120001 0 255 0
-13.365000 -2.905000 -0.070000 0 255 0
-13.355000 -3.364000 19.646000 0 255 0
-12.711000 -3.421400 15.751400 0 255 0
-12.700000 -3.290000 18.965000 0 255 0
-13.790000 -3.050000 14.990000 255 0 0
-13.812500 -3.027500 11.761200 255 0 0
-13.809700 -2.965800 8.713400 255 0 0
-13.810400 -2.915200 5.462200 255 0 0
-13.040000 -2.670000 0.180000 0 255 255
-13.240000 -3.190000 23.340000 0 255 0
-14.362500 -4.065000 22.507500 0 255 0
-14.105000 -2.670000 0.280000 0 255 0
-13.710000 -3.130000 16.164000 255 0 0
-13.712500 -2.615000 22.707500 0 255 0
-13.700000 -3.225700 9.652900 255 0 0
-13.695000 -3.260000 12.812500 255 0 0
-13.708100 -2.917500 3.110800 255 0 0
-13.704300 -2.967700 6.257900 255 0 0
-14.454000 -2.664000 -0.474000 0 255 255
-13.807500 -1.775000 0.415000 0 255 255
-14.170000 -2.415000 0.595000 0 255 255
-13.816700 -1.878300 2.113300 0 255 255
-13.800000 -1.890000 1.050000 0 255 255
-14.080000 -2.810000 22.280001 0 255 0
-14.080000 -4.360000 0.180000 0 255 255
-14.080000 -2.850000 19.100000 0 255 0
-13.350000 -2.825000 0.020000 0 255 0
-14.570000 -3.360000 21.090000 0 255 0
-13.798000 -3.812000 0.258000 0 255 0
-13.805000 -3.275000 21.860001 0 255 0
-13.818700 -3.163800 15.552500 255 0 0
-13.818900 -2.902200 -0.337800 0 255 0
-13.815000 -3.230000 18.612499 255 0 0
-13.810000 -1.920000 1.740000 0 255 255
-13.067500 -3.135000 24.112499 0 255 0
-13.056700 -3.421700 19.510000 0 255 0
-14.007600 -4.122200 14.718600 0 255 0
-13.055700 -3.711400 20.614300 0 255 0
-14.350000 -4.190000 21.770000 0 255 0
-14.370000 -4.220000 17.959999 0 255 0
-13.758300 -3.868300 0.153300 0 255 0
-14.505000 -3.900000 22.410000 0 255 0
-12.910000 -3.625000 25.715000 0 255 0
-14.450000 -3.890000 0.280000 0 255 255
-12.930000 -3.930000 25.750000 0 255 0
-13.755000 -4.124300 0.512100 0 255 255
-13.766500 -4.416500 14.511000 0 255 0
-14.493300 -1.980000 0.310000 0 255 255
-13.775000 -3.775000 20.355000 0 255 0
-13.762000 -3.226000 17.247999 255 0 0
-13.760000 -3.050000 0.960000 255 0 0
-14.200000 -3.015000 19.504999 0 255 0
-14.161300 -2.786200 -0.333700 0 255 0
-14.123000 -3.218500 -0.047500 0 255 0
-14.380000 -4.060000 15.480000 0 255 0
-13.820000 -2.000000 2.230000 0 255 255
-13.770000 -4.510000 23.809999 0 255 0
-13.818400 -1.805300 1.757900 0 255 255
-13.520000 -3.375000 23.254999 255 0 0
-14.450000 -3.090000 0.250000 0 255 255
-14.458000 -4.018000 15.664000 0 255 0
-13.360400 -4.428000 17.015600 0 255 0
-13.800000 -3.450000 16.959999 255 0 0
-13.790000 -3.350000 10.475000 255 0 0
-13.805000 -3.425000 13.815000 255 0 0
-13.807800 -3.308900 7.312200 255 0 0
-13.820000 -4.010000 0.740000 0 255 255
-14.240000 -3.270000 19.690001 0 255 0
-14.190000 -1.880000 0.790000 0 255 255
-14.400000 -3.660000 20.950001 0 255 0
-13.822100 -1.860000 1.667200 0 255 255
-14.162500 -2.717500 0.262500 0 255 0
-14.006400 -2.068400 1.211200 0 255 255
-14.510000 -2.305000 0.010000 0 255 255
-14.290000 -2.340000 1.020000 0 255 255
-14.090000 -3.200000 14.830000 0 255 0
-13.508300 -2.253300 1.563300 0 255 255
-14.610000 -2.840000 22.440001 0 255 0
-14.150000 -2.140000 0.780000 0 255 255
-14.160000 -2.678700 0.408800 0 255 0
-14.170000 -2.580000 20.480000 0 255 0
-14.156700 -2.520000 23.713301 0 255 0
-13.730000 -3.180000 18.459999 255 0 0
-13.713600 -3.129100 15.213600 255 0 0
-13.692000 -3.230000 8.916000 255 0 0
-13.700000 -3.280000 12.155000 255 0 0
-13.706800 -2.912700 2.160300 255 0 0
-13.706300 -2.966700 5.408000 255 0 0
-12.610000 -3.380000 21.959999 0 255 0
-12.606700 -3.420000 24.963301 0 255 0
-12.613300 -3.269300 15.462900 0 255 0
-13.196700 -3.873300 0.056700 0 255 255
-13.658300 -3.283300 18.850000 255 0 0
-13.659000 -3.020400 8.961000 255 0 0
-13.655900 -3.069000 5.808100 255 0 0
-14.150000 -3.558300 0.268300 0 255 0
-14.465000 -3.655000 -0.085000 0 255 255
-13.405000 -4.360000 16.465000 0 255 0
-13.415000 -4.320000 16.459999 0 255 0
-13.359400 -2.175000 0.351900 0 255 255
-14.250000 -4.010000 15.110000 0 255 0
-12.765700 -3.121000 15.509700 0 255 0
-14.356700 -2.120000 0.573300 0 255 255
-14.468600 -4.264300 15.601400 0 255 0
-14.440000 -4.190000 21.900000 0 255 0
-14.466300 -3.975000 21.262501 0 255 0
-13.757900 -3.071400 14.212100 255 0 0
-13.756200 -2.959200 7.912700 255 0 0
-13.760000 -3.076700 14.356700 255 0 0
-13.758000 -2.957400 8.058600 255 0 0
-13.815700 -2.422900 21.167900 0 255 0
-14.210000 -2.110000 0.490000 0 255 255
-14.210000 -2.415000 20.290001 0 255 0
-14.220000 -2.090000 1.600000 0 255 255
-14.130000 -1.925000 0.070000 0 255 255
-14.454800 -3.017300 0.262900 0 255 255
-14.453300 -3.966700 15.754400 0 255 0
-13.870000 -4.010000 15.330000 0 255 0
-14.140000 -3.200000 -0.640000 0 255 0
-12.855000 -3.625000 20.715000 0 255 0
-12.860000 -3.677000 17.457001 0 255 0
-13.605000 -2.580000 -0.636200 0 255 0
-13.600000 -2.525000 21.254999 0 255 0
-13.708300 -3.316700 10.407800 255 0 0
-13.705600 -3.375600 13.560000 255 0 0
-14.270000 -2.630000 0.460000 0 255 255
-13.530000 -4.080000 14.800000 0 255 0
-14.167100 -3.480000 -0.881400 0 255 0
-13.843300 -3.963300 14.216700 0 255 0
-13.916200 -1.931500 2.252300 0 255 255
-14.140000 -3.110000 0.005000 0 255 0
-14.161400 -3.268600 0.105700 0 255 0
-13.740000 -3.940000 24.020000 0 255 0
-14.516000 -2.567000 -0.591000 0 255 255
-13.740000 -3.840000 16.490000 0 255 0
-13.800000 -3.150000 -0.660000 0 255 0
-13.820000 -2.670000 17.129999 0 255 0
-13.808800 -3.283500 5.658200 255 0 0
-13.795000 -3.240000 2.415000 255 0 0
-13.815000 -3.505000 11.720000 0 255 0
-14.290000 -2.720000 23.600000 0 255 0
-14.205000 -2.420000 0.205000 0 255 255
-14.216100 -2.924500 0.060000 0 255 0
-14.209200 -3.128300 14.968300 0 255 0
-14.214000 -3.134000 15.011000 0 255 0
-13.367500 -2.122500 0.465000 0 255 255
-13.115000 -3.410000 -0.195000 0 255 255
-13.316700 -4.073300 0.413300 0 255 255
-14.352500 -4.162500 20.072500 0 255 0
-13.340000 -4.270000 18.500000 0 255 0
-13.356700 -4.126700 15.315000 0 255 0
-13.350000 -3.440000 25.719999 0 255 0
-13.361200 -3.320000 19.618700 0 255 0
-13.356700 -3.371700 16.453300 0 255 0
-14.210000 -3.207500 14.965000 0 255 0
-14.515000 -3.615000 22.906700 0 255 0
-14.490000 -3.675000 21.360001 0 255 0
-14.510000 -3.500000 24.725000 0 255 0
-14.280000 -2.590000 0.490000 0 255 255
-14.165000 -3.635000 15.060000 0 255 0
-14.357500 -4.085000 20.209999 0 255 0
-13.800000 -4.230000 0.730000 0 255 255
-14.165000 -3.160000 19.174999 0 255 0
-14.167100 -2.871400 -0.191400 0 255 0
-14.300000 -4.320000 22.480000 0 255 0
-14.330000 -4.280000 19.330000 0 255 0
-14.310000 -4.320000 22.730000 0 255 0
-13.790000 -1.963300 2.070000 0 255 255
-12.767500 -2.765000 15.480000 0 255 0
-14.713300 -2.716700 16.713301 0 255 0
-14.366700 -3.575000 -0.005000 0 255 255
-14.460000 -3.540000 0.120000 0 255 255
-14.160000 -2.640000 20.120001 0 255 0
-14.173200 -2.329600 0.309600 0 255 255
-13.846000 -3.914000 14.214000 0 255 0
-14.480000 -2.520000 0.650000 0 255 255
-13.303300 -2.122600 1.517200 0 255 255
-13.950000 -2.940000 1.200000 255 0 0
-13.958200 -3.024100 7.509100 255 0 0
-13.950000 -2.880000 4.465000 255 0 0
-13.220000 -4.270000 14.970000 0 255 0
-13.263300 -3.013300 0.355000 0 255 0
-14.418000 -3.360000 23.354000 0 255 0
-14.320000 -2.270000 0.940000 0 255 255
-13.860000 -3.320000 7.180000 255 0 0
-13.867500 -3.280000 10.320000 255 0 0
-13.864200 -2.315800 17.401699 0 255 0
-13.872700 -3.420700 0.670000 0 255 0
-13.170000 -3.950000 24.070000 0 255 0
-14.270000 -2.763300 20.000000 0 255 0
-14.266000 -3.064000 19.528000 0 255 0
-14.280000 -2.810000 22.450001 0 255 0
-14.260000 -2.756700 23.653299 0 255 0
-14.172500 -3.077500 19.809999 0 255 0
-13.207900 -2.662900 0.271400 0 255 0
-14.720000 -3.417000 0.343000 0 255 255
-14.190000 -4.150000 23.420000 0 255 0
-14.216200 -4.123100 20.160801 0 255 0
-14.312000 -4.269500 14.752000 0 255 0
-14.310000 -4.300000 18.010000 0 255 0
-14.270000 -3.650000 17.270000 0 255 0
-14.215000 -3.185000 14.910000 0 255 0
-14.152500 -3.160000 -0.440000 0 255 0
-14.170000 -3.570000 25.639999 0 255 0
-13.580000 -3.410000 18.370001 255 0 0
-13.553300 -3.366700 21.506701 255 0 0
-13.568000 -3.679000 14.952000 0 255 0
-13.365000 -2.755000 25.049999 0 255 0
-14.200000 -2.274300 -0.575700 0 255 255
-14.005000 -3.070000 7.195000 255 0 0
-14.020000 -2.920000 23.030001 0 255 0
-14.319400 -2.412900 1.170000 0 255 255
-13.050000 -3.873300 0.000000 0 255 255
-13.852500 -1.867500 1.017500 0 255 255
-13.290000 -3.940000 19.480000 0 255 0
-13.310000 -3.810000 25.959999 0 255 0
-13.313300 -3.983300 25.766701 0 255 0
-13.800000 -3.400000 13.030000 255 0 0
-13.815000 -3.313300 6.513300 255 0 0
-13.810000 -3.360000 9.655000 255 0 0
-13.790000 -3.560000 22.570000 0 255 0
-13.807500 -3.365000 9.905000 255 0 0
-13.807500 -3.317500 6.655000 255 0 0
-13.809100 -3.408200 13.164500 255 0 0
-13.380000 -3.770000 0.240000 0 255 0
-13.350000 -4.090000 18.455000 0 255 0
-13.058600 -2.670000 15.675700 0 255 0
-13.040000 -3.410000 19.959999 0 255 0
-12.625000 -3.685000 19.395000 0 255 0
-14.530000 -3.680000 -0.060000 0 255 255
-13.000000 -3.530000 -0.260000 0 255 255
-13.530000 -3.370000 22.000000 255 0 0
-13.490000 -3.830000 -0.850000 0 255 0
-13.363000 -4.120500 14.700500 0 255 0
-14.410000 -3.580000 17.340000 0 255 0
-14.400000 -3.620000 20.530001 0 255 0
-12.880000 -3.400000 -0.200000 0 255 255
-14.362000 -2.367000 -0.577000 0 255 255
-14.110000 -4.400000 15.770000 0 255 0
-13.500000 -3.410000 19.299999 255 0 0
-13.493300 -3.740000 0.380000 0 255 0
-13.214000 -2.112000 1.276000 0 255 255
-13.405200 -2.323400 0.665200 0 255 255
-14.416700 -2.560000 20.370001 0 255 0
-14.350000 -4.080000 -0.320000 0 255 255
-14.470000 -3.580000 -0.530000 0 255 255
-14.195000 -4.080000 0.205000 0 255 255
-14.230000 -4.340000 16.120001 0 255 0
-13.365000 -4.190000 16.760000 0 255 0
-13.290000 -3.580000 26.030001 0 255 0
-13.315000 -3.515000 22.750000 0 255 0
-14.170000 -3.310000 24.820000 0 255 0
-14.356700 -2.915000 19.704201 0 255 0
-14.345200 -2.861000 -0.096200 0 255 255
-14.030000 -4.030000 18.360001 0 255 0
-14.056300 -3.765000 0.112500 0 255 0
-14.060800 -3.914600 15.917700 0 255 0
-14.172500 -2.232500 0.816300 0 255 255
-13.956700 -3.760000 0.363300 0 255 0
-13.950000 -4.060000 19.350000 0 255 0
-13.940000 -4.150000 25.639999 0 255 0
-13.312500 -2.875000 22.902500 0 255 0
-13.318300 -2.711700 0.216700 0 255 0
-13.140000 -2.330000 0.180000 0 255 255
-14.230000 -2.527500 0.277500 0 255 0
-14.251700 -4.271700 18.473301 0 255 0
-14.270000 -4.180000 24.940001 0 255 0
-13.615000 -2.725000 0.265000 0 255 0
-13.930000 -3.120000 9.790000 255 0 0
-13.917500 -3.226800 3.307700 255 0 0
-13.920000 -2.940000 22.860001 0 255 0
-14.195000 -2.600000 0.015000 0 255 0
-13.605000 -3.376700 18.661699 255 0 0
-13.520000 -2.616700 17.453300 0 255 0
-13.590000 -3.300000 6.360000 255 0 0
-13.610000 -3.205000 0.055000 255 0 0
-13.620000 -3.070000 15.850000 0 255 0
-13.100000 -4.060000 24.090000 0 255 0
-14.368000 -2.080000 0.778000 0 255 255
-13.860000 -4.120000 15.150000 0 255 0
-13.100000 -3.700000 -0.350000 0 255 255
-13.213300 -3.310000 21.946699 0 255 0
-13.200000 -3.365000 25.770000 0 255 0
-13.520000 -4.168200 16.112700 0 255 0
-13.180000 -3.435000 24.600000 0 255 0
-14.040000 -3.400000 16.680000 0 255 0
-14.153300 -3.226700 0.168300 0 255 0
-14.170000 -3.560000 16.549999 0 255 0
-14.180000 -3.470000 10.070000 0 255 0
-14.303600 -1.922800 0.102400 0 255 255
-14.626700 -2.613300 19.466700 0 255 0
-13.215000 -2.035000 1.305000 0 255 255
-14.260000 -2.580000 20.719999 0 255 0
-14.366700 -2.468300 20.362801 0 255 0
-13.702500 -3.182500 2.360000 255 0 0
-13.700000 -2.865000 23.570000 0 255 0
-13.706300 -2.562500 17.403799 0 255 0
-14.003300 -2.990000 5.303300 255 0 0
-14.012300 -3.516900 14.898500 0 255 0
-13.970000 -1.940000 1.300000 0 255 255
-14.053300 -3.629300 0.700000 0 255 0
-14.196700 -3.670000 22.046700 0 255 0
-14.150000 -1.876700 0.806700 0 255 255
-14.160000 -2.620000 -0.300000 0 255 0
-12.530000 -3.630000 20.850000 0 255 0
-13.175000 -4.420000 23.160000 0 255 0
-13.750000 -3.010000 17.150000 0 255 0
-13.770000 -2.940000 10.840000 255 0 0
-13.752700 -3.075500 14.018200 0 255 0
-13.757700 -2.957700 7.713500 255 0 0
-13.780000 -3.650000 26.049999 0 255 0
-13.780000 -3.425000 16.160000 255 0 0
-13.760000 -3.360000 6.530000 255 0 0
-13.756700 -4.070000 -0.030000 0 255 255
-13.770000 -3.460000 13.010000 255 0 0
-13.758600 -3.312100 9.663600 255 0 0
-12.990000 -3.920000 25.610001 0 255 0
-14.406700 -4.168300 15.910000 0 255 0
-14.262300 -3.814000 0.352300 0 255 0
-13.561300 -2.224300 17.503000 0 255 0
-14.570000 -3.380000 21.080000 0 255 0
-12.963300 -3.823300 23.456699 0 255 0
-14.400000 -3.700000 24.850000 0 255 0
-13.910000 -2.490000 17.270000 0 255 0
-14.865000 -3.685000 -0.155000 0 255 255
-12.580000 -3.380000 17.520000 0 255 0
-14.357300 -4.020900 19.160900 0 255 0
-14.350000 -3.960000 22.299999 0 255 0
-14.356700 -4.256700 15.766700 0 255 0
-13.160000 -4.336700 17.406700 0 255 0
-13.760000 -4.372500 12.400000 0 255 0
-14.065000 -4.080000 18.655001 0 255 0
-14.054000 -4.016000 21.898001 0 255 0
-13.830000 -3.270000 16.780001 255 0 0
-13.820000 -3.150000 10.250000 255 0 0
-13.790000 -3.060000 4.090000 255 0 0
-13.805000 -3.075000 14.258300 255 0 0
-13.812700 -2.908000 4.607700 255 0 0
-13.809500 -3.022700 11.110500 255 0 0
-13.809600 -2.958800 7.761200 255 0 0
-14.150000 -4.110000 14.580000 0 255 0
-13.155000 -4.130000 14.710000 0 255 0
-13.154400 -4.071900 15.403100 0 255 0
-12.960000 -4.128000 -0.044000 0 255 255
-13.560000 -2.720000 -0.410000 0 255 0
-13.812000 -2.826000 0.162000 255 0 0
-13.830000 -2.350000 22.320000 0 255 0
-13.810200 -2.874900 3.306300 0 255 0
-13.040000 -2.680000 23.350000 0 255 0
-14.260000 -2.780000 19.250000 0 255 0
-14.240000 -4.290000 23.270000 0 255 0
-13.957500 -2.831300 -0.386300 0 255 0
-14.507500 -3.557500 24.815001 0 255 0
-12.780000 -3.100000 22.709999 0 255 0
-13.620000 -3.620000 19.719999 0 255 0
-13.622500 -3.577500 16.447500 0 255 0
-13.613700 -4.110000 0.899500 0 255 255
-14.220000 -2.840000 19.290001 0 255 0
-14.050000 -4.470000 15.850000 0 255 0
-14.059300 -2.620000 22.455700 0 255 0
-14.210000 -2.930000 21.020000 0 255 0
-12.523300 -3.763300 25.066700 0 255 0
-12.510000 -3.625000 19.455000 0 255 0
-14.700000 -2.870000 19.330000 0 255 0
-14.200000 -2.230000 1.566700 0 255 255
-14.205000 -2.458700 17.360001 0 255 0
-14.215000 -2.530000 20.690001 0 255 0
-13.813300 -3.306700 4.453300 255 0 0
-13.820000 -4.075000 0.375000 0 255 255
-14.358200 -2.675900 -0.340200 0 255 255
-13.910000 -4.020000 15.420000 0 255 0
-13.611500 -2.608500 17.267700 0 255 0
-13.910700 -2.519300 -0.588700 0 255 0
-14.540000 -3.180000 24.760000 0 255 0
-14.380000 -3.130000 23.440001 0 255 0
-14.367500 -2.965000 20.209999 0 255 0
-13.920000 -1.812500 0.257500 0 255 255
-13.916000 -1.819000 0.313000 0 255 255
-14.220000 -3.760000 25.094999 0 255 0
-14.013600 -1.819100 0.254500 0 255 255
-13.970000 -1.800000 0.098000 0 255 255
-13.065000 -3.035000 0.220000 0 255 255
-13.917100 -2.105700 0.562900 0 255 255
-14.312500 -3.312500 18.872499 0 255 0
-14.310000 -3.270000 15.610000 0 255 0
-13.168800 -3.329400 0.161800 0 255 255
-13.761700 -2.984200 10.412500 255 0 0
-13.760000 -3.660000 -0.010000 0 255 0
-13.757700 -2.918500 9.010000 255 0 0
-13.752300 -2.956200 5.763100 255 0 0
-13.761900 -3.063300 12.258600 255 0 0
-14.170000 -4.100000 20.240000 0 255 0
-14.160000 -4.271200 23.252501 0 255 0
-14.410900 -2.872000 -0.227400 0 255 255
-14.418800 -2.928700 0.341200 0 255 255
-13.755000 -2.835000 3.150000 255 0 0
-13.763800 -2.883800 1.459000 255 0 0
-13.760000 -4.050000 20.799999 0 255 0
-13.759500 -3.977900 14.516800 0 255 0
-14.463300 -4.160000 15.910000 0 255 0
-14.473300 -3.676700 21.203300 0 255 0
-12.565000 -3.566700 19.320000 0 255 0
-13.355500 -1.967100 0.706100 0 255 255
-14.262700 -3.266700 -0.090000 0 255 0
-14.280000 -2.960000 19.840000 0 255 0
-14.212400 -2.533500 -0.185300 0 255 0
-14.200000 -2.690000 23.790001 0 255 0
-14.198000 -2.620000 20.660000 0 255 0
-14.201700 -2.171700 0.495000 0 255 255
-14.205800 -2.475000 20.304199 0 255 0
-13.665000 -3.060000 26.014999 0 255 0
-13.640000 -3.630000 16.490000 0 255 0
-13.659200 -3.318300 10.352500 255 0 0
-13.690000 -3.210000 11.830000 255 0 0
-13.693300 -3.283300 15.060000 255 0 0
-13.706100 -2.966100 8.910200 255 0 0
-13.719500 -2.929500 5.661500 255 0 0
-13.703300 -3.236700 12.556700 255 0 0
-13.719000 -2.934500 5.808000 255 0 0
-13.708800 -2.967500 8.957300 255 0 0
-13.565700 -3.764300 18.117100 0 255 0
-13.570800 -3.812300 14.963800 0 255 0
-13.263300 -3.913300 0.353300 0 255 0
-14.147500 -3.165000 19.802500 0 255 0
-14.405000 -4.065000 22.805000 0 255 0
-14.400000 -4.007500 21.299999 0 255 0
-12.990000 -3.820000 18.160000 0 255 0
-13.220000 -3.410000 25.950001 0 255 0
-14.013100 -2.077700 0.451500 0 255 255
-14.025000 -2.770000 20.225000 0 255 0
-13.362600 -3.274800 0.362200 0 255 0
-14.290000 -3.280000 15.540000 0 255 0
-13.520000 -3.450000 24.719999 255 0 0
-13.530000 -3.700000 14.920000 0 255 0
-14.164300 -3.127100 19.799999 0 255 0
-14.140000 -2.820000 -0.020000 0 255 0
-13.780000 -3.300000 3.980000 255 0 0
-13.768000 -3.306000 4.866000 255 0 0
-13.760000 -3.540000 17.910000 0 255 0
-13.740000 -3.460000 8.220000 0 255 0
-13.765000 -3.420000 13.500000 255 0 0
-13.750000 -3.310000 7.217100 255 0 0
-13.340000 -4.380000 18.600000 0 255 0
-13.370000 -4.205000 15.445000 0 255 0
-13.200000 -2.520000 15.910000 0 255 0
-13.411700 -2.025000 0.463300 0 255 255
-13.411700 -2.417200 24.961100 0 255 0
-12.915000 -3.375000 -0.271700 0 255 255
-13.290000 -3.510000 16.430000 0 255 0
-13.310000 -3.470000 26.080000 0 255 0
-13.310000 -3.590000 19.565001 0 255 0
-13.058300 -4.168300 0.170000 0 255 255
-13.061700 -3.871700 19.508301 0 255 0
-13.055700 -3.921400 17.260000 0 255 0
-14.057300 -2.329100 21.118200 0 255 0
-13.870000 -3.480000 23.070000 0 255 0
-13.859600 -2.931700 6.860900 255 0 0
-13.320000 -4.350000 22.379999 0 255 0
-13.306700 -4.223300 25.706699 0 255 0
-13.610000 -3.226700 16.813299 255 0 0
-13.618000 -3.171200 13.561600 255 0 0
-13.615700 -3.270000 20.061399 255 0 0
-14.209600 -2.270900 1.213900 0 255 255
-14.200000 -2.325000 0.412500 0 255 255
-14.205000 -2.261200 0.317500 0 255 255
-14.210400 -2.573300 20.263700 0 255 0
-14.356200 -2.623100 20.207701 0 255 0
-14.105000 -2.720000 -0.500000 0 255 0
-14.598800 -2.720000 20.296301 0 255 0
-14.209500 -4.016400 15.814900 0 255 0
-13.870000 -3.870000 0.440000 0 255 0
-13.858900 -4.376700 19.463301 0 255 0
-13.310000 -3.480000 21.256701 0 255 0
-13.309200 -3.422700 18.105000 0 255 0
-14.363300 -2.976700 -0.340800 0 255 255
-14.360000 -4.210000 22.605000 0 255 0
-14.361100 -2.873200 19.007401 0 255 0
-13.560000 -2.220000 0.590000 0 255 255
-13.280000 -4.530000 24.750000 0 255 0
-13.280000 -4.220000 18.430000 0 255 0
-14.165000 -2.920000 19.240000 0 255 0
-14.180000 -4.230000 -0.110000 0 255 255
-14.061300 -2.174000 0.400000 0 255 255
-13.846000 -2.374000 1.650000 0 255 255
-13.600000 -3.680000 24.570000 0 255 0
-13.607500 -3.610000 21.302500 0 255 0
-13.620000 -3.568100 18.062901 0 255 0
-13.462000 -2.728000 17.318001 0 255 0
-12.570000 -3.022000 17.370001 0 255 0
-13.007400 -4.213500 17.360901 0 255 0
-12.680000 -3.600000 17.980000 0 255 0
-12.653300 -3.575000 21.098301 0 255 0
-12.852000 -3.026000 25.570000 0 255 0
-12.857700 -2.771000 15.755800 0 255 0
-13.360000 -1.973200 0.367900 0 255 255
-14.170000 -2.758000 -0.540000 0 255 0
-14.710000 -2.170000 0.250000 0 255 255
-13.605000 -3.820000 19.764999 0 255 0
-13.614800 -3.772000 16.506001 0 255 0
-13.702500 -3.230000 9.055000 255 0 0
-13.695000 -3.267500 12.220000 255 0 0
-13.709100 -2.916600 2.910100 255 0 0
-13.702000 -3.180000 18.705999 255 0 0
-13.707400 -2.970900 6.061700 255 0 0
-13.709000 -3.123900 15.564200 255 0 0
-13.613300 -3.321100 20.818899 255 0 0
-13.615000 -3.272500 17.555799 255 0 0
-13.612300 -3.220400 14.515000 255 0 0
-13.616500 -3.167700 11.251500 255 0 0
-13.840000 -3.220000 17.400000 255 0 0
-13.860000 -3.165000 20.565001 0 255 0
-13.860000 -4.060000 14.605000 0 255 0
-13.570000 -3.310000 10.810000 255 0 0
-13.570800 -3.277500 13.953300 255 0 0
-13.650000 -3.370000 10.730000 255 0 0
-13.656500 -3.319500 13.857000 255 0 0
-13.657500 -4.222500 0.220000 0 255 255
-13.220000 -3.625000 0.005000 0 255 255
-13.440000 -3.940000 22.059999 0 255 0
-13.853300 -3.416700 -0.186700 0 255 0
-13.850000 -2.260000 21.389999 0 255 0
-13.860000 -3.286700 9.557800 255 0 0
-13.854400 -3.305600 6.305000 255 0 0
-14.248600 -2.621400 -0.028600 0 255 0
-13.675000 -3.885000 25.850000 0 255 0
-13.401400 -3.270000 25.862900 0 255 0
-13.605000 -2.625000 23.530001 0 255 0
-13.619100 -3.116400 5.512700 255 0 0
-13.612500 -3.069600 2.359400 0 255 0
-13.803000 -3.067000 23.311001 0 255 0
-13.755000 -3.670000 11.890000 0 255 0
-13.770000 -3.080000 24.139999 0 255 0
-13.164300 -3.517100 -0.031400 0 255 255
-13.159700 -4.067400 15.357100 0 255 0
-13.170000 -3.770000 -0.260000 0 255 255
-13.160000 -4.240000 21.924999 0 255 0
-13.980000 -3.870000 16.100000 0 255 0
-14.398900 -3.224000 0.156000 0 255 255
-14.330000 -3.790000 20.459999 0 255 0
-13.068000 -2.110000 0.654000 0 255 255
-13.111500 -2.664200 0.557700 0 255 255
-12.950000 -2.960000 23.430000 0 255 0
-13.080000 -2.930000 -0.140000 0 255 255
-13.050000 -3.420000 19.469999 0 255 0
-13.753000 -2.218300 0.514800 0 255 255
-12.570000 -3.580000 15.600000 0 255 0
-12.560000 -3.540000 18.879999 0 255 0
-14.208000 -4.030000 19.106001 0 255 0
-13.362000 -3.412000 16.448000 0 255 0
-13.409300 -2.556700 1.572700 0 255 0
-13.410000 -2.812900 17.314100 0 255 0
-13.408700 -3.926000 0.254700 0 255 255
-12.965600 -3.673300 19.507799 0 255 0
-14.210000 -3.063300 18.296700 0 255 0
-14.370000 -4.170000 15.940000 0 255 0
-13.700000 -3.540000 25.420000 0 255 0
-13.730000 -3.640000 18.900000 0 255 0
-13.710000 -3.375000 16.004999 255 0 0
-13.702700 -3.324700 12.765300 255 0 0
-13.320000 -2.800000 25.650000 0 255 0
-13.160000 -2.070000 0.310000 0 255 255
-13.055000 -4.100000 0.315000 0 255 255
-14.195200 -3.719300 0.662600 0 255 0
-13.803300 -2.976700 11.080000 255 0 0
-13.808300 -2.932800 7.910700 0 255 0
-13.750000 -2.315000 0.355000 0 255 255
-14.370000 -2.165000 1.700000 0 255 255
-14.350000 -2.310000 0.290000 0 255 255
-14.400000 -3.482000 24.796000 0 255 0
-14.211200 -4.378800 14.626300 0 255 0
-14.212900 -2.829200 19.007900 0 255 0
-14.165400 -2.775400 0.403100 0 255 0
-12.810000 -3.280000 15.540000 0 255 0
-14.470000 -3.640000 20.790001 0 255 0
-14.520000 -4.070000 22.740000 0 255 0
-14.255000 -3.210000 18.955000 0 255 0
-13.060000 -3.865000 17.254999 0 255 0
-12.520000 -3.250000 20.719999 0 255 0
-13.660000 -3.415000 17.459999 255 0 0
-13.646700 -3.373300 20.823299 255 0 0
-12.616700 -3.450000 25.559999 0 255 0
-13.252900 -2.662900 25.209999 0 255 0
-13.716300 -2.816300 0.501300 255 0 0
-13.718600 -2.878600 3.767100 255 0 0
-13.610000 -2.150000 0.310000 0 255 255
-12.800000 -2.680000 22.900000 0 255 0
-14.173200 -2.426800 0.258200 0 255 255
-14.167100 -2.567900 0.357100 0 255 0
-13.760000 -2.950000 4.553300 255 0 0
-13.766000 -3.056000 11.062000 255 0 0
-13.753300 -3.163300 17.629999 255 0 0
-13.762200 -2.930600 7.810300 255 0 0
-13.763300 -3.626700 0.308300 0 255 0
-13.740000 -3.290000 23.270000 0 255 0
-13.750000 -3.040000 13.355000 255 0 0
-13.750000 -2.980000 3.920000 255 0 0
-13.755000 -3.168700 16.957500 255 0 0
-13.760800 -2.929400 7.060300 255 0 0
-14.120000 -2.560000 0.317500 0 255 0
-14.262700 -2.912700 -0.196400 0 255 0
-14.250000 -4.270000 16.129999 0 255 0
-14.250000 -4.173300 22.603300 0 255 0
-14.058500 -2.318500 21.160500 0 255 0
-14.101700 -3.658300 0.503300 0 255 0
-14.115000 -4.111300 18.462500 0 255 0
-14.110000 -4.180000 21.705000 0 255 0
-13.630000 -4.340000 14.480000 0 255 0
-14.906000 -3.474000 15.656000 0 255 0
-14.414700 -2.525300 20.260000 0 255 0
-13.470000 -3.760000 -0.780000 0 255 0
-13.470000 -3.769000 0.359000 0 255 0
-13.460000 -3.370000 25.667500 0 255 0
-12.610000 -2.905000 24.495001 0 255 0
-14.610000 -2.517000 16.996000 0 255 0
-13.702900 -3.172900 3.557100 255 0 0
-12.775000 -3.760000 21.165001 0 255 0
-12.760000 -3.815000 18.004999 0 255 0
-13.580000 -3.210000 8.830000 255 0 0
-13.565000 -3.320000 15.310000 255 0 0
-13.568300 -3.266700 18.461700 255 0 0
-13.610000 -3.660000 21.815001 0 255 0
-13.565000 -3.320000 14.977500 255 0 0
-13.573300 -3.270000 18.206699 255 0 0
-14.206700 -3.923300 -0.126700 0 255 255
-14.195000 -4.275000 21.799999 0 255 0
-13.890000 -3.660000 15.730000 0 255 0
-13.567100 -2.465700 17.511400 0 255 0
-14.312600 -4.270500 15.862100 0 255 0
-14.230000 -2.840000 21.980000 0 255 0
-14.210000 -4.322200 14.808900 0 255 0
-14.220000 -4.315000 18.740000 0 255 0
-13.580000 -3.180000 14.190000 255 0 0
-13.570000 -3.280000 20.719999 255 0 0
-13.565000 -3.225000 10.965000 255 0 0
-13.563300 -3.331700 17.465000 255 0 0
-13.760000 -2.670000 22.663300 0 255 0
-13.750000 -3.280000 11.220000 255 0 0
-13.760000 -3.185000 4.920000 255 0 0
-13.740000 -2.680000 23.799999 0 255 0
-13.740000 -3.290000 10.360000 255 0 0
-13.763300 -3.180000 3.860000 255 0 0
-13.759700 -2.573200 17.308201 0 255 0
-13.560000 -3.467500 23.305000 255 0 0
-13.568700 -3.365000 17.016199 255 0 0
-13.000000 -3.020000 -0.400000 0 255 255
-13.011900 -2.474800 15.912900 0 255 0
-13.600000 -3.460000 23.155001 255 0 0
-13.604000 -3.412000 20.002001 255 0 0
-13.606700 -3.375600 16.855600 255 0 0
-12.667000 -3.166500 15.455100 0 255 0
-12.700600 -3.362400 15.462400 0 255 0
-13.605000 -3.416700 19.501699 255 0 0
-13.600800 -3.373800 16.352301 255 0 0
-12.790000 -2.830000 22.570000 0 255 0
-12.706700 -3.513300 21.110001 0 255 0
-13.280000 -4.350000 21.580000 0 255 0
-13.250000 -3.930000 -0.480000 0 255 255
-13.260500 -4.066800 15.405300 0 255 0
-14.060600 -3.621200 15.009400 0 255 0
-13.610600 -4.221300 14.611600 0 255 0
-14.320000 -3.860000 15.130000 0 255 0
-14.012000 -4.377500 14.809500 0 255 0
-13.724000 -3.568000 14.058000 0 255 0
-13.320000 -4.240000 -0.080000 0 255 255
-13.500000 -3.500000 25.980000 0 255 0
-13.530000 -3.460000 22.690001 255 0 0
-13.905000 -3.032500 10.110000 255 0 0
-13.907600 -2.968500 6.956700 255 0 0
-13.520000 -3.390000 19.705000 255 0 0
-13.500000 -3.280000 26.070000 0 255 0
-13.520000 -3.420000 22.940001 255 0 0
-13.954200 -2.812500 0.205800 255 0 0
-13.420000 -2.031400 1.701400 0 255 255
-13.470000 -3.425000 23.907499 255 0 0
-14.005000 -3.065000 19.617500 0 255 0
-13.830000 -3.290000 9.665000 255 0 0
-13.830000 -3.220000 6.420000 255 0 0
-13.260000 -2.820000 25.719999 0 255 0
-13.302500 -3.115000 25.855000 0 255 0
-13.715600 -4.278900 12.301100 0 255 0
-13.700000 -3.810000 23.230000 0 255 0
-13.715000 -3.083700 14.512500 255 0 0
-13.710400 -3.028800 11.256200 255 0 0
-13.715000 -3.220000 21.299999 255 0 0
-13.700000 -3.011200 8.262500 255 0 0
-13.705600 -3.061900 11.510000 255 0 0
-13.652200 -3.277800 20.258900 255 0 0
-13.648900 -3.068900 7.613700 255 0 0
-13.669100 -3.030000 10.767400 255 0 0
-13.667500 -3.222500 20.365000 255 0 0
-13.660000 -2.990000 10.750000 255 0 0
-13.658600 -3.015900 7.710500 0 255 0
-13.646300 -3.069100 4.459700 255 0 0
-13.666700 -3.556700 0.170000 0 255 0
-13.646600 -3.063700 7.310000 255 0 0
-13.652200 -3.277800 19.963301 255 0 0
-13.668100 -3.025000 10.458800 255 0 0
-13.065000 -2.410000 0.195000 0 255 255
-13.655500 -3.622700 0.407300 0 255 0
-13.662000 -3.071400 10.311900 255 0 0
-13.675000 -3.040000 13.180000 255 0 0
-13.660000 -3.263300 22.666700 0 255 0
-13.680000 -3.600000 0.490000 0 255 0
-13.659100 -3.068500 10.009700 0 255 0
-13.052000 -3.174000 0.024000 0 255 255
-13.065000 -3.665000 18.950001 0 255 0
-14.296700 -4.303300 15.823300 0 255 0
-13.062500 -4.067500 17.363100 0 255 0
-14.011200 -2.715900 -0.542400 0 255 0
-14.510000 -4.050000 21.309999 0 255 0
-13.810000 -2.840000 1.430000 255 0 0
-13.811800 -2.884700 4.661200 255 0 0
-13.560000 -2.960000 2.410000 255 0 0
-13.561100 -3.080000 8.907800 255 0 0
-13.620000 -2.850000 17.370001 0 255 0
-13.623100 -3.070600 5.505600 255 0 0
-13.614500 -3.019000 2.257800 0 255 0
-13.616700 -3.120400 8.760000 255 0 0
-13.621700 -3.065000 5.361700 255 0 0
-13.612700 -3.018400 2.011600 255 0 0
-13.621600 -3.119300 8.510200 255 0 0
-13.804700 -1.916300 0.406300 0 255 255
-14.620000 -3.740000 -0.290000 0 255 255
-13.610000 -3.318300 17.059999 255 0 0
-13.606800 -3.273500 13.904300 255 0 0
-13.621300 -3.218800 10.562100 255 0 0
-13.612900 -3.167600 7.410300 0 255 0
-13.650000 -3.270000 -0.030000 0 255 0
-13.670300 -3.216200 3.106900 0 255 0
-13.665000 -2.520000 21.264999 0 255 0
-13.650400 -3.118900 9.408900 255 0 0
-13.655400 -3.169400 6.258900 0 255 0
-13.710000 -2.933300 0.070000 255 0 0
-13.707800 -3.272600 9.462600 255 0 0
-13.695400 -3.112300 12.715400 255 0 0
-13.690000 -2.960000 3.313300 255 0 0
-13.705300 -3.165900 15.956500 0 255 0
-13.698800 -3.218000 6.204800 255 0 0
-13.692500 -2.965000 2.862500 255 0 0
-13.717500 -3.120000 12.362500 255 0 0
-13.708100 -3.165500 15.512300 255 0 0
-13.709300 -3.270700 9.010000 255 0 0
-13.706800 -3.222400 5.862400 255 0 0
-13.650000 -3.115000 8.970000 255 0 0
-13.662900 -3.220200 2.460400 0 255 0
-13.660200 -3.172800 5.708400 255 0 0
-13.726700 -3.111700 11.708300 255 0 0
-13.706700 -3.169300 14.968000 255 0 0
-13.705000 -2.962500 1.922500 255 0 0
-13.709500 -3.271600 8.460000 255 0 0
-13.707100 -3.223100 5.204900 255 0 0
-14.263300 -2.477500 -0.284200 0 255 255
-14.307300 -2.569600 -0.586500 0 255 255
-13.713300 -3.123300 11.363300 255 0 0
-13.700000 -3.160000 14.503700 255 0 0
-13.707500 -2.523300 21.216200 0 255 0
-13.706700 -2.583300 24.373301 0 255 0
-13.706700 -3.269300 8.010000 255 0 0
-13.710000 -2.950000 1.470000 255 0 0
-13.706400 -3.223600 4.858800 0 255 0
-13.646700 -3.175000 7.407800 255 0 0
-13.653800 -3.119100 10.658100 255 0 0
-13.668100 -3.260300 1.111300 255 0 0
-13.668500 -3.214000 4.358000 255 0 0
-13.653800 -3.268300 0.905400 255 0 0
-13.651400 -3.118600 10.457000 255 0 0
-13.653700 -3.168100 7.206000 0 255 0
-13.667400 -3.215100 4.160000 255 0 0
-13.670000 -3.260900 0.763600 255 0 0
-13.655800 -3.168300 7.062300 255 0 0
-13.649600 -3.119200 10.208800 255 0 0
-13.662200 -2.566600 17.312201 0 255 0
-13.668100 -3.210600 3.915800 255 0 0
-13.662500 -3.228800 0.262500 255 0 0
-13.649800 -3.119800 6.759800 255 0 0
-13.656000 -3.172300 3.508700 255 0 0
-13.660000 -2.840000 24.080000 0 255 0
-13.652900 -3.220000 0.355700 255 0 0
-13.650500 -3.121600 6.661800 255 0 0
-13.654700 -3.167000 3.408800 255 0 0
-13.580000 -3.070000 4.605000 255 0 0
-13.572700 -3.121800 1.457700 255 0 0
-13.306600 -2.122700 1.310400 0 255 255
-13.600900 -3.119900 1.108100 255 0 0
-13.600400 -3.121400 0.909300 255 0 0
-13.365000 -2.120000 0.700000 0 255 255
-13.710400 -2.113800 0.621200 0 255 255
-13.711000 -4.118300 0.563400 0 255 255
-13.455000 -2.113300 0.514200 0 255 255
-14.655000 -2.665000 16.825001 0 255 0
-13.358900 -2.064700 0.364200 0 255 255
-13.361200 -2.277100 0.317600 0 255 255
-13.300000 -2.940000 -0.130000 0 255 0
-13.330000 -3.190000 17.209999 0 255 0
-13.180000 -3.120000 25.690001 0 255 0
-14.420000 -2.400000 1.100000 0 255 255
-14.313300 -2.466700 0.400000 0 255 255
-13.770000 -2.840000 6.950000 255 0 0
-13.764600 -2.884400 3.709300 255 0 0
-13.665000 -1.900000 1.147500 0 255 255
-13.400000 -2.210000 1.320000 0 255 255
-14.261700 -4.370000 18.548300 0 255 0
-13.690000 -4.270000 14.695000 0 255 0
-14.266700 -2.623300 -0.083300 0 255 0
-13.280000 -3.160000 -0.300000 0 255 0
-13.400000 -2.840000 24.940001 0 255 0
-13.305700 -4.402900 17.801399 0 255 0
-12.910000 -2.720000 -0.560000 0 255 255
-13.824300 -2.880000 4.907100 255 0 0
-13.814700 -2.812800 1.754100 255 0 0
-13.810000 -3.180000 18.660000 255 0 0
-13.802900 -3.118600 15.411400 255 0 0
-13.812000 -3.006000 9.260000 255 0 0
-13.820000 -3.240000 21.889999 0 255 0
-13.808300 -2.905900 2.757200 255 0 0
-13.815300 -3.060000 12.507900 255 0 0
-13.810000 -2.965000 6.022500 255 0 0
-14.459500 -3.175500 -0.144500 0 255 255
-14.467300 -2.870500 19.661400 0 255 0
-13.710000 -3.360000 23.290001 255 0 0
-13.705000 -3.405000 13.780000 255 0 0
-13.704000 -3.318000 20.059999 255 0 0
-13.707300 -3.471800 17.019100 255 0 0
-13.640000 -2.540000 17.559999 0 255 0
-13.670000 -2.840000 24.129999 0 255 0
-13.650000 -3.215000 0.413300 255 0 0
-13.648000 -3.118700 6.906800 255 0 0
-13.656100 -3.170700 3.759900 0 255 0
-13.470000 -3.560000 24.430000 255 0 0
-13.796000 -3.712000 14.144000 0 255 0
-13.816000 -4.470000 19.406000 0 255 0
-14.345000 -4.175000 -0.025000 0 255 255
-14.363300 -4.123300 15.761300 0 255 0
-13.400000 -4.010000 16.750000 0 255 0
-13.408300 -3.775800 0.312500 0 255 0
-13.440000 -2.090000 1.880000 0 255 255
-13.220000 -4.323300 14.513300 0 255 0
-13.215000 -4.360000 17.660000 0 255 0
-13.565000 -4.150000 0.875000 0 255 255
-13.153800 -2.265000 0.253800 0 255 255
-13.170000 -2.330000 0.257500 0 255 255
-14.490000 -3.960000 22.570000 0 255 0
-13.062300 -2.818500 15.761200 0 255 0
-13.063300 -2.682200 25.202200 0 255 0
-12.855000 -3.927500 23.559999 0 255 0
-14.106000 -4.022000 21.865999 0 255 0
-13.820000 -2.250000 0.020000 0 255 255
-13.700000 -3.720000 25.969999 0 255 0
-12.860000 -4.167500 17.502501 0 255 0
-13.950000 -3.825000 0.645000 0 255 0
-13.960000 -4.100000 19.440001 0 255 0
-14.170000 -4.265000 16.070000 0 255 0
-14.152000 -4.218000 19.209999 0 255 0
-13.090000 -3.990000 22.559999 0 255 0
-13.170000 -3.480000 25.870001 0 255 0
-13.745000 -3.270000 19.620001 255 0 0
-13.747500 -3.127500 16.559999 255 0 0
-13.757300 -3.010400 9.813800 255 0 0
-13.757500 -2.907500 3.510400 0 255 0
-13.106200 -3.621300 20.611200 0 255 0
-14.105000 -3.030000 -0.145000 0 255 0
-13.316000 -3.826000 -0.036000 0 255 0
-14.430000 -3.950000 20.469999 0 255 0
-13.270000 -4.310000 22.379999 0 255 0
-13.250000 -3.885000 0.410000 0 255 255
-13.668100 -3.211900 4.309400 255 0 0
-13.655700 -3.172100 7.456400 255 0 0
-13.666800 -3.260800 1.153200 255 0 0
-13.649400 -3.119100 10.610600 255 0 0
-14.063300 -3.219500 0.060000 0 255 0
-14.612800 -3.072200 -0.450600 0 255 255
-14.408300 -2.515000 -0.592800 0 255 255
-12.870000 -3.540000 22.670000 0 255 0
-12.862000 -3.570000 19.514000 0 255 0
-13.216700 -3.810000 0.323300 0 255 255
-13.190000 -4.240000 22.280001 0 255 0
-13.940000 -2.940000 0.625000 255 0 0
-13.953400 -3.019500 6.909800 255 0 0
-13.960000 -2.880000 3.860000 255 0 0
-13.958000 -3.328000 25.908001 0 255 0
-13.256000 -3.588000 0.018000 0 255 0
-13.264400 -3.663700 19.560600 0 255 0
-14.045000 -2.910000 22.905001 0 255 0
-14.061000 -2.972400 19.667200 0 255 0
-12.507200 -3.421200 17.354401 0 255 0
-13.345000 -4.310000 15.225000 0 255 0
-14.820000 -3.170000 19.600000 0 255 0
-12.620000 -2.705000 -0.135000 0 255 255
-13.657500 -3.435000 16.557501 255 0 0
-12.660700 -2.723600 15.807900 0 255 0
-13.318600 -4.468600 20.262899 0 255 0
-13.314000 -4.418000 17.018000 0 255 0
-13.667500 -3.722500 17.160000 0 255 0
-13.507700 -4.467700 17.013800 0 255 0
-13.004700 -2.771300 15.761600 0 255 0
-13.104500 -2.823500 15.717000 0 255 0
-13.612500 -3.360000 22.459999 255 0 0
-13.620000 -3.672000 15.708000 0 255 0
-14.205000 -2.715000 -0.150000 0 255 0
-13.560300 -4.366600 14.605600 0 255 0
-14.662000 -3.931000 15.607000 0 255 0
-13.654700 -4.372000 14.509000 0 255 0
-14.110000 -2.326700 21.113300 0 255 0
-13.250000 -2.365000 1.605000 0 255 255
-13.320000 -2.370000 1.470000 0 255 255
-14.480000 -3.740000 20.040001 0 255 0
-14.480000 -3.790000 15.550000 0 255 0
-13.704300 -3.174300 3.164300 255 0 0
-13.650000 -2.740000 -0.500000 0 255 0
-13.759000 -4.327500 12.357500 0 255 0
-13.690000 -3.020000 2.000000 255 0 0
-13.690000 -3.260000 17.820000 255 0 0
-13.690000 -3.210000 14.660000 255 0 0
-13.690000 -3.060000 5.180000 255 0 0
-13.706700 -2.933300 8.513300 255 0 0
-13.723300 -2.986700 11.666700 255 0 0
-13.675000 -3.510000 0.570000 0 255 0
-13.640000 -3.290000 16.309999 255 0 0
-13.645700 -3.214300 19.557100 255 0 0
-13.647000 -3.070300 3.661900 255 0 0
-13.659900 -3.019400 6.911800 0 255 0
-13.672700 -2.974500 9.955500 255 0 0
-13.662900 -3.225000 18.657101 255 0 0
-13.653600 -3.270000 15.407300 255 0 0
-13.641400 -3.067700 2.757700 255 0 0
-13.669100 -3.022200 6.008500 255 0 0
-13.673300 -2.973300 9.256700 255 0 0
-13.665000 -3.225000 18.408800 255 0 0
-13.651400 -3.262900 15.264300 255 0 0
-13.663600 -3.019200 5.361600 255 0 0
-13.675500 -2.978200 8.708200 255 0 0
-13.670000 -3.100000 24.530001 0 255 0
-13.654000 -3.212000 18.008699 255 0 0
-13.648900 -3.264400 14.856700 255 0 0
-13.657800 -3.019100 4.960300 255 0 0
-13.667900 -2.978200 8.309300 255 0 0
-13.650000 -3.080000 1.570000 255 0 0
-13.650000 -3.116200 23.958799 0 255 0
-13.654000 -3.272700 14.206700 255 0 0
-13.668200 -3.217100 17.461800 255 0 0
-13.669600 -2.980000 8.058100 0 255 0
-13.656400 -3.019400 4.808700 0 255 0
-13.650000 -2.680000 24.230000 0 255 0
-13.675000 -2.925000 9.970000 255 0 0
-13.670000 -3.080000 0.500000 255 0 0
-13.652500 -3.207500 16.317499 255 0 0
-13.647800 -3.018400 3.663100 255 0 0
-13.652600 -3.271100 13.154700 255 0 0
-13.670600 -2.981900 6.811900 255 0 0
-13.650000 -2.920000 9.880000 255 0 0
-13.650000 -3.204000 16.406000 255 0 0
-13.652200 -3.267800 13.266700 255 0 0
-13.644900 -3.015400 3.357400 255 0 0
-13.670600 -2.980900 6.711800 255 0 0
-13.661400 -3.208600 16.505699 255 0 0
-13.646900 -3.012300 3.458500 0 255 0
-13.655000 -3.075000 0.310000 255 0 0
-13.654400 -3.278900 13.358900 255 0 0
-13.672100 -2.979300 6.606800 255 0 0
-13.640000 -3.070000 0.070000 255 0 0
-13.655800 -3.214200 15.957500 255 0 0
-13.646700 -3.020000 3.317000 0 255 0
-13.652600 -3.269500 12.712600 255 0 0
-13.666300 -2.972100 6.360000 255 0 0
-13.660000 -3.190000 18.860001 255 0 0
-13.680000 -2.940000 8.970000 255 0 0
-13.652600 -3.218400 15.708400 255 0 0
-13.647100 -3.011500 2.655900 255 0 0
-13.659400 -3.271700 12.563300 255 0 0
-13.673700 -2.980000 5.802100 255 0 0
-13.670000 -2.910000 8.520000 255 0 0
-13.677500 -3.177500 17.922501 255 0 0
-13.646700 -3.012500 2.015000 255 0 0
-13.649300 -3.220000 14.660000 255 0 0
-13.655200 -3.271400 11.410000 0 255 0
-13.673300 -2.976700 5.255500 255 0 0
-13.680000 -2.910000 8.400000 255 0 0
-13.640000 -3.190000 17.809999 255 0 0
-13.649200 -3.009200 2.103100 255 0 0
-13.660000 -2.670000 25.740000 0 255 0
-13.652100 -3.217400 14.756800 255 0 0
-13.656700 -3.274400 11.508300 255 0 0
-13.672300 -2.977200 5.159100 255 0 0
-13.670000 -2.940000 7.640000 255 0 0
-13.655000 -3.185000 17.160000 255 0 0
-13.655300 -3.263000 10.656700 0 255 0
-13.640000 -3.003300 1.150000 255 0 0
-13.647300 -3.212700 13.812700 255 0 0
-13.664400 -2.971000 4.510300 255 0 0
-13.630000 -2.940000 4.180000 255 0 0
-13.665000 -3.174000 16.914000 255 0 0
-13.645500 -3.222700 13.661800 255 0 0
-13.646300 -3.011200 0.613800 0 255 0
-13.662500 -2.927500 7.102500 255 0 0
-13.659600 -3.268300 10.407900 255 0 0
-13.660900 -2.969100 3.859400 0 255 0
-13.660000 -3.140000 16.200001 255 0 0
-13.651500 -3.167400 13.055200 255 0 0
-13.655500 -2.960700 0.411000 255 0 0
-13.646300 -3.218800 9.915000 255 0 0
-13.660000 -3.260000 6.758300 255 0 0
-13.667100 -2.933200 3.558900 255 0 0
-13.608600 -2.871400 0.310000 255 0 0
-13.625000 -2.935000 3.470000 255 0 0
-13.657500 -2.610000 21.254999 0 255 0
-13.666700 -3.120000 15.916700 255 0 0
-13.661400 -3.258600 6.262900 255 0 0
-13.648100 -3.166200 12.758100 255 0 0
-13.656400 -3.220700 9.410200 0 255 0
-13.669800 -2.930300 3.262100 255 0 0
-13.670000 -2.580000 24.490000 0 255 0
-13.664300 -3.124300 15.802900 255 0 0
-13.668900 -3.260000 6.356700 255 0 0
-13.654400 -3.218900 9.508600 0 255 0
-13.652000 -2.976000 0.010000 0 255 0
-13.658800 -3.163100 12.657500 255 0 0
-13.671800 -2.930900 3.160000 255 0 0
-13.630000 -2.930000 2.970000 255 0 0
-13.630000 -2.930000 2.570000 255 0 0
-13.110000 -3.640000 18.100000 0 255 0
-13.130000 -3.460000 21.280001 0 255 0
-13.673300 -3.263300 5.616700 255 0 0
-13.668000 -3.120000 15.362000 255 0 0
-13.654900 -3.224600 8.858700 0 255 0
-13.646400 -3.169500 12.117300 255 0 0
-13.662900 -2.932700 2.308800 0 255 0
-13.630000 -2.923300 2.173300 255 0 0
-13.670000 -3.123300 14.963300 255 0 0
-13.660000 -3.270000 5.210000 255 0 0
-13.655000 -3.155000 11.701700 255 0 0
-13.653600 -3.217900 8.456100 255 0 0
-13.666500 -2.928000 1.912900 255 0 0
-13.650000 -3.270000 5.310000 255 0 0
-13.650800 -3.163100 11.616900 255 0 0
-13.671400 -3.130000 14.862900 255 0 0
-13.656100 -3.222000 8.556600 255 0 0
-13.667300 -2.927500 1.810000 255 0 0
-13.663300 -3.253300 4.606700 255 0 0
-13.665300 -3.126700 14.365300 255 0 0
-13.648400 -3.170500 11.112600 255 0 0
-13.657100 -3.221400 7.863100 255 0 0
-13.664300 -2.928400 1.709600 0 255 0
-13.375000 -4.430000 21.344999 0 255 0
-13.345000 -4.310000 14.630000 0 255 0
-13.650000 -3.260000 4.720000 255 0 0
-13.664400 -3.121900 14.261100 255 0 0
-13.647100 -3.170300 11.013200 255 0 0
-13.662300 -3.224400 7.960800 255 0 0
-13.664500 -2.927500 1.610800 255 0 0
-13.070500 -2.328000 1.512000 0 255 255
-13.680000 -3.250000 4.800000 255 0 0
-13.663300 -3.121900 14.562400 255 0 0
-13.648700 -3.167300 11.306000 255 0 0
-13.663300 -2.626700 22.700001 0 255 0
-13.663700 -3.221200 8.059800 255 0 0
-13.663400 -2.929600 1.511400 255 0 0
-13.369200 -2.376300 1.467500 0 255 255
-12.970000 -3.230000 24.070000 0 255 0
-13.672000 -3.258000 4.206000 255 0 0
-13.647700 -3.170900 10.704500 255 0 0
-13.661600 -3.121600 13.957500 255 0 0
-13.652800 -3.219400 7.460300 255 0 0
-13.662300 -2.926800 1.312100 255 0 0
-14.155000 -2.032500 1.297500 0 255 255
-13.410000 -2.990000 0.310000 0 255 0
-13.012000 -4.172000 17.313999 0 255 0
-13.660000 -3.260000 4.410000 255 0 0
-13.645000 -3.170000 10.912500 255 0 0
-13.664700 -3.220900 7.658700 255 0 0
-13.663800 -3.120000 14.160500 255 0 0
-13.662200 -2.928100 1.110600 255 0 0
-14.110000 -2.530000 20.910000 0 255 0
-14.123600 -2.020000 1.110900 0 255 255
-13.753300 -1.963300 1.006700 0 255 255
-13.315600 -2.070700 0.802200 0 255 255
-13.400000 -3.640000 19.639999 0 255 0
-13.401100 -3.335600 0.858900 0 255 0
-13.364300 -2.318600 0.561400 0 255 255
-13.695000 -2.515000 25.160000 0 255 0
-13.713300 -3.286700 10.463300 255 0 0
-13.712500 -3.169200 16.961700 255 0 0
-13.701700 -3.225000 7.205400 255 0 0
-13.706400 -3.117100 13.705700 255 0 0
-13.699000 -2.954800 3.906700 255 0 0
-13.705400 -2.917600 0.660300 255 0 0
-13.705700 -3.158600 16.361401 255 0 0
-13.713300 -2.673300 22.513300 0 255 0
-13.703300 -2.963900 3.705600 255 0 0
-13.711300 -3.276500 9.860400 255 0 0
-13.700000 -3.224600 6.605000 255 0 0
-13.709400 -3.113800 13.108100 255 0 0
-13.708900 -2.911900 0.459300 255 0 0
-13.262500 -1.964000 1.605500 0 255 255
-13.420000 -3.175000 25.764999 0 255 0
-13.303300 -2.483300 0.563300 0 255 255
-13.296700 -2.883300 25.853300 0 255 0
-14.466700 -3.126700 -0.198300 0 255 255
-13.800000 -3.270000 16.440001 255 0 0
-13.820000 -2.500000 22.350000 0 255 0
-14.703300 -3.428300 23.211700 0 255 0
-14.310000 -2.930000 18.320000 0 255 0
-12.967500 -2.917500 15.897500 0 255 0
-14.445000 -4.030000 14.705000 0 255 0
-14.466700 -3.906700 21.219999 0 255 0
-13.760000 -3.320000 0.320000 255 0 0
-13.660400 -3.316400 13.059300 255 0 0
-13.672000 -3.365000 9.920000 255 0 0
-13.390000 -3.330000 25.879999 0 255 0
-13.280000 -4.380000 25.290001 0 255 0
-14.315100 -2.622800 0.306500 0 255 255
-13.580000 -3.150000 3.220000 255 0 0
-13.560000 -3.040000 12.600000 0 255 0
-14.263700 -2.570300 20.208900 0 255 0
-13.576000 -3.112000 4.214000 255 0 0
-13.568600 -3.073200 7.456800 255 0 0
-13.556000 -3.052000 -0.636000 0 255 0
-13.020000 -2.420000 0.610000 0 255 255
-14.358000 -3.524000 24.850000 0 255 0
-14.370000 -3.380000 19.459999 0 255 0
-13.013300 -3.906700 19.546700 0 255 0
-13.309000 -3.972400 0.161400 0 255 255
-13.575000 -3.025000 2.730000 255 0 0
-13.576000 -3.124000 8.996000 255 0 0
-14.225000 -2.062500 1.545000 0 255 255
-14.200000 -2.110000 0.770000 0 255 255
-13.103300 -3.071100 15.957800 0 255 0
-13.112100 -3.412600 0.167900 0 255 255
-13.800000 -3.350000 19.740000 255 0 0
-13.810000 -3.335000 16.600000 255 0 0
-13.820000 -3.450000 26.059999 0 255 0
-14.173300 -3.313300 -0.433300 0 255 0
-13.165000 -2.465000 0.660000 0 255 255
-13.606000 -2.414000 0.350000 0 255 255
-12.940000 -3.780000 25.730000 0 255 0
-14.457500 -3.072500 -0.605000 0 255 255
-13.620000 -2.226700 0.313300 0 255 255
-13.624400 -3.113100 4.912500 255 0 0
-13.603900 -3.070300 1.761000 255 0 0
-13.757300 -2.671800 0.262700 0 255 0
-13.955000 -3.675000 0.140000 0 255 0
-13.946700 -4.420000 16.453300 0 255 0
-13.565000 -4.020000 15.080000 0 255 0
-13.905700 -3.811400 0.312900 0 255 0
-13.915000 -4.328300 19.450001 0 255 0
-14.065000 -3.705000 0.310000 0 255 0
-14.047500 -4.110000 25.612499 0 255 0
-14.390000 -3.470000 24.910000 0 255 0
-13.520000 -3.421300 20.413799 255 0 0
-14.360000 -3.900000 0.010000 0 255 255
-14.380000 -3.650000 15.800000 0 255 0
-14.430000 -4.000000 14.910000 0 255 0
-14.090000 -3.510000 19.680000 0 255 0
-12.863100 -4.168500 17.408501 0 255 0
-13.852500 -3.727500 0.592500 0 255 0
-13.862500 -4.222500 19.400000 0 255 0
-13.580000 -3.400000 -0.150000 0 255 0
-13.580000 -3.176700 15.670000 255 0 0
-13.570000 -3.235000 12.520000 255 0 0
-13.566000 -3.318000 18.809999 255 0 0
-13.540000 -3.300000 15.090000 255 0 0
