4.625900 6.731800 12.555900 0 255 0
4.643600 6.631200 18.917999 0 255 0
3.897500 7.197500 0.840000 0 255 0
4.575000 7.082500 10.167500 255 0 0
4.595000 6.926700 19.808300 255 0 0
4.595500 6.975500 16.655500 255 0 0
4.584100 7.027800 13.307800 0 255 0
4.585000 7.688300 21.950001 0 255 0
4.610000 6.925000 19.070000 255 0 0
4.600000 6.979500 15.812500 255 0 0
4.585700 7.029300 12.559000 255 0 0
4.610000 6.930000 18.580000 255 0 0
4.570000 7.120000 5.910000 255 0 0
4.602200 6.985000 15.315000 255 0 0
4.590000 7.060000 8.996700 255 0 0
4.584400 7.027700 12.259200 0 255 0
4.599100 6.984500 16.148199 255 0 0
4.586800 7.022100 13.007100 255 0 0
4.587500 7.078700 9.857500 255 0 0
4.210000 7.190000 20.969999 0 255 0
4.200000 7.460000 1.180000 0 255 0
4.450000 7.790000 22.600000 0 255 0
4.450000 7.820000 22.469999 0 255 0
4.450000 7.920000 15.940000 0 255 0
4.692000 7.368000 2.968000 255 0 0
4.690400 7.333100 6.110600 255 0 0
4.695000 7.365000 3.415000 255 0 0
4.687800 7.326700 6.660900 255 0 0
4.545000 6.127500 12.158800 0 255 0
4.587800 8.033300 1.305600 0 255 0
4.400000 5.970000 15.290000 0 255 0
4.383200 6.028600 12.150700 0 255 0
4.394000 5.930000 0.660000 0 255 255
4.990000 7.380000 12.550000 0 255 0
4.880000 7.220000 7.190000 255 0 0
4.884500 7.128200 0.713200 0 255 0
4.874000 7.084000 3.952000 255 0 0
4.878900 7.180600 10.464400 255 0 0
4.286700 6.935000 16.106701 0 255 0
4.278600 6.771400 25.505699 0 255 0
5.120000 5.960000 1.230000 0 255 255
3.588700 6.574700 16.705299 0 255 0
5.045000 6.928300 26.309999 0 255 0
5.290000 6.610000 25.719999 0 255 0
5.150000 6.360000 26.790001 0 255 0
4.096000 6.824000 24.812000 0 255 0
4.780000 7.060000 1.560000 255 0 0
4.793800 7.626200 17.317499 0 255 0
4.790900 7.327900 10.551500 255 0 0
4.620000 7.060000 14.250000 255 0 0
4.655000 7.285000 1.600000 255 0 0
4.650000 7.013300 11.013300 255 0 0
4.638700 6.975000 20.563700 255 0 0
4.635900 6.928800 17.308201 255 0 0
4.560000 8.050000 2.160000 0 255 0
4.547500 6.980000 16.902500 255 0 0
4.541700 7.290000 1.265000 255 0 0
4.550000 7.315000 4.408800 0 255 0
4.525000 7.947500 1.675000 0 255 0
4.520000 7.360000 18.920000 0 255 0
4.520000 8.080000 17.010000 0 255 0
4.560000 7.950000 1.750000 0 255 0
4.490000 6.037500 15.150000 0 255 0
4.480000 5.880000 11.880000 0 255 0
4.460000 6.820000 20.719999 0 255 0
4.170000 7.040000 15.170000 0 255 0
4.490000 8.170000 1.040000 0 255 0
5.191300 6.496300 16.270000 0 255 0
4.486700 7.383300 21.703300 0 255 0
5.030000 6.630000 26.459999 0 255 0
4.760000 6.940000 21.190001 255 0 0
4.750000 7.200000 11.420000 255 0 0
4.746000 7.234000 14.455000 255 0 0
4.750000 6.970000 24.440001 255 0 0
4.489200 7.374600 19.009199 0 255 0
5.500000 6.533300 13.053300 0 255 0
4.840000 6.770000 25.549999 255 0 0
4.888000 5.830000 19.115999 0 255 0
4.650000 7.280000 26.490000 0 255 0
5.094000 7.794000 16.298000 0 255 0
4.780000 7.010000 18.440001 255 0 0
4.790000 6.910000 24.959999 255 0 0
4.635000 7.245000 10.760000 255 0 0
4.635700 7.132900 17.047100 255 0 0
5.180000 6.120000 0.690000 0 255 255
5.205000 6.285000 16.895000 0 255 0
4.487100 7.981700 15.709400 0 255 0
5.290000 6.080000 0.810000 0 255 255
4.820000 6.750000 26.160000 0 255 0
5.143800 6.089500 0.961900 0 255 255
4.836700 6.033300 0.963300 0 255 255
4.578000 6.841000 10.606000 0 255 0
4.610000 6.900000 9.810000 255 0 0
4.590000 6.680000 22.469999 0 255 0
4.540000 7.087100 15.608600 255 0 0
4.539300 6.983700 9.304200 0 255 0
4.540300 7.030300 12.453900 255 0 0
4.540000 7.180000 22.405001 0 255 0
4.543800 7.080000 15.872500 255 0 0
4.555700 7.034300 12.610700 255 0 0
4.541700 6.987100 9.359200 255 0 0
4.695000 8.035000 1.750000 0 255 0
4.946000 7.581500 16.153999 0 255 0
4.800000 6.840000 22.780001 255 0 0
4.355000 7.735000 15.850000 0 255 0
4.780000 7.260000 12.220000 255 0 0
5.685800 7.523300 0.715000 0 255 255
5.670000 7.665000 16.525000 0 255 0
4.493700 6.372500 19.104401 0 255 0
5.192900 7.141400 22.408600 0 255 0
4.340900 7.928200 21.959101 0 255 0
5.303300 6.173300 17.020000 0 255 0
4.876700 7.170000 1.516700 255 0 0
4.881400 7.288900 7.451100 255 0 0
3.526700 6.983300 1.106700 0 255 255
3.980000 6.275000 21.520000 0 255 0
4.060000 7.020000 23.889999 0 255 0
5.200000 7.140000 17.350000 0 255 0
5.181700 7.366700 0.705000 0 255 0
4.380000 7.790000 21.830000 0 255 0
4.280000 7.513300 26.053301 0 255 0
5.240000 7.570000 22.040001 0 255 0
4.170000 7.740000 22.360001 0 255 0
5.020000 6.000000 24.080000 0 255 0
5.130000 6.640000 25.650000 0 255 0
4.700000 7.225000 15.765000 255 0 0
4.686700 7.271100 12.613300 255 0 0
4.676700 6.945000 22.321699 255 0 0
4.683300 6.980000 19.156700 255 0 0
4.740000 7.176700 16.866699 255 0 0
4.875000 7.160000 13.430000 255 0 0
4.890000 7.070000 6.890000 255 0 0
4.900000 6.995000 0.755000 0 255 0
4.873600 7.131800 3.760500 255 0 0
5.130000 8.077500 0.866200 0 255 255
4.670000 7.270000 18.040001 0 255 0
4.685000 8.130000 1.160000 0 255 0
4.670000 7.150000 15.020000 255 0 0
4.710000 7.150000 15.080000 255 0 0
4.700000 7.240000 21.559999 0 255 0
4.635000 7.250000 13.495000 255 0 0
4.978000 8.376000 1.004000 0 255 255
5.337800 6.368900 19.299999 0 255 0
4.648900 5.918900 1.100000 0 255 255
4.620000 6.810000 22.670000 255 0 0
4.602800 5.885000 1.120000 0 255 255
4.580000 7.930000 17.180000 0 255 0
4.348300 7.343300 21.850000 0 255 0
4.341300 7.231300 15.349700 0 255 0
3.900000 7.400000 21.275000 0 255 0
4.986800 5.977600 18.311399 0 255 0
5.086700 6.133300 23.410000 0 255 0
4.700000 6.900000 10.870000 255 0 0
4.510000 6.860000 10.910000 0 255 0
5.147500 7.522500 0.675000 0 255 0
4.483300 7.623300 18.309999 0 255 0
4.498000 8.078000 1.162000 0 255 0
4.498400 7.582600 21.566299 0 255 0
5.436000 6.234000 23.062000 0 255 0
5.292300 6.128500 16.799999 0 255 0
4.433300 7.870000 22.573299 0 255 0
3.845000 6.430000 0.465000 0 255 255
4.170000 8.070000 1.120000 0 255 0
4.785000 7.165000 2.060000 255 0 0
4.802000 7.126000 5.116000 0 255 0
4.806000 7.066000 8.364000 255 0 0
4.250000 8.160000 2.050000 0 255 0
4.642500 6.875000 23.507500 255 0 0
4.640000 6.830000 20.280001 255 0 0
3.440000 7.517500 1.160000 0 255 255
4.540000 6.735000 23.070000 0 255 0
4.479000 7.240000 1.363000 255 0 0
4.488500 7.180900 4.507700 255 0 0
4.660000 6.790000 21.190001 255 0 0
4.635000 6.660000 18.990000 0 255 0
4.630000 6.796700 12.480000 0 255 0
5.020000 6.730000 25.340000 0 255 0
4.950000 6.583300 0.643300 0 255 0
3.496700 7.578300 1.208300 0 255 255
4.545600 6.122200 11.918900 0 255 0
4.500000 7.720000 22.030001 0 255 0
4.495000 7.725000 22.860001 0 255 0
4.993700 7.382500 6.399400 0 255 0
4.872500 7.172500 7.217500 255 0 0
4.878300 7.086100 0.701700 0 255 0
4.632000 7.172000 16.166000 255 0 0
4.630000 7.150000 13.000000 255 0 0
4.635200 7.287000 9.662600 255 0 0
4.640000 7.032500 19.555000 255 0 0
5.546700 7.883300 1.213300 0 255 255
5.394900 6.327600 0.958000 0 255 255
5.395000 6.070000 20.020000 0 255 0
4.685000 8.141700 1.445000 0 255 0
4.240000 7.940000 1.020000 0 255 0
3.596300 6.682500 18.263800 0 255 0
4.797900 7.239700 1.758700 0 255 0
4.805000 7.180000 4.920000 255 0 0
4.801700 7.081700 11.413300 255 0 0
4.796700 7.120000 8.260000 255 0 0
4.798600 7.327100 21.700001 0 255 0
4.650000 7.080000 10.900000 255 0 0
4.630000 7.021300 7.761300 255 0 0
4.642200 6.940000 14.268900 255 0 0
4.637600 6.981800 17.407600 255 0 0
4.060000 7.800000 22.350000 0 255 0
4.584500 8.277300 1.712700 0 255 255
4.236800 7.783900 13.955500 0 255 0
4.240800 7.779000 13.915000 0 255 0
4.386100 5.985700 12.798300 0 255 0
4.440000 5.890000 1.358000 0 255 255
4.540000 7.423600 12.470000 0 255 0
4.550000 7.440000 12.410000 0 255 0
3.587500 7.176300 12.255000 0 255 0
4.791500 7.285500 3.310500 0 255 0
4.960000 6.370000 21.990000 0 255 0
4.788800 6.734100 21.573500 255 0 0
5.530000 6.200000 20.170000 0 255 0
5.540000 6.230000 23.320000 0 255 0
5.534600 6.129200 17.010000 0 255 0
4.799500 8.327600 2.218100 0 255 255
4.786000 6.940000 13.659000 255 0 0
4.784000 6.882000 16.900000 255 0 0
4.781600 6.984700 10.610500 255 0 0
4.793600 7.027600 7.362200 255 0 0
5.695000 6.395000 14.855000 0 255 0
4.603000 6.947000 3.309000 255 0 0
4.501000 7.269800 4.756800 255 0 0
4.650000 6.890000 13.920000 255 0 0
4.640000 6.770000 20.230000 255 0 0
4.598000 6.890000 17.804001 255 0 0
4.810000 7.195000 2.520000 255 0 0
4.806700 7.126700 5.846700 255 0 0
4.790000 7.380000 15.970000 0 255 0
4.800000 7.072700 9.012700 255 0 0
4.030000 7.490000 25.370001 0 255 0
5.150000 7.470000 21.790001 0 255 0
4.450000 7.770000 22.059999 0 255 0
4.980000 6.090000 17.559999 0 255 0
4.585600 5.873100 11.926200 0 255 0
4.934600 6.223100 18.200800 0 255 0
5.282500 6.387500 0.500000 0 255 255
4.650000 7.270000 14.590000 255 0 0
4.635600 7.240000 11.356700 255 0 0
4.640000 7.125000 17.665001 255 0 0
4.586900 6.523100 18.998899 0 255 0
4.250000 7.275000 21.115000 0 255 0
5.735000 6.545000 25.900000 0 255 0
4.047100 7.132900 15.251400 0 255 0
4.490000 7.885000 18.424999 0 255 0
4.638500 7.743100 1.551500 0 255 0
4.400000 6.910000 19.000000 0 255 0
4.330000 7.130000 0.800000 0 255 0
3.534900 7.476200 12.056400 0 255 0
3.542000 7.082000 0.906000 0 255 0
4.500000 7.127500 12.361300 255 0 0
4.496700 7.066700 15.593300 255 0 0
4.503600 7.041100 6.063900 255 0 0
4.486800 6.978200 9.305500 255 0 0
4.585000 6.895000 6.250000 255 0 0
4.586600 6.770800 12.549500 0 255 0
4.592200 6.680000 18.918900 0 255 0
4.686100 5.881100 1.011700 0 255 255
4.541400 7.279600 2.810200 255 0 0
4.554300 7.317100 6.055700 0 255 0
4.593300 6.366700 19.096701 0 255 0
4.547700 7.280400 6.858500 255 0 0
4.523000 7.241000 3.713000 255 0 0
4.677500 7.370000 4.507500 255 0 0
4.689000 7.323700 7.759700 255 0 0
4.740000 6.390000 20.014999 0 255 0
4.680000 7.360000 5.340000 255 0 0
4.688000 7.331700 8.508300 255 0 0
5.350000 6.710000 26.680000 0 255 0
5.350000 6.539100 14.010000 0 255 0
3.790600 6.725600 18.202801 0 255 0
4.630000 7.290000 6.440000 255 0 0
4.660000 8.200000 1.490000 0 255 255
4.633300 7.176700 12.960000 255 0 0
4.647500 6.917500 22.860001 255 0 0
4.645000 7.060000 19.530001 255 0 0
4.621700 7.021700 16.361700 255 0 0
4.400000 6.820000 23.770000 0 255 0
4.397400 6.635300 10.710500 0 255 0
5.630000 6.330000 22.379999 0 255 0
4.160000 6.780000 24.770000 0 255 0
5.360000 6.120000 22.690001 0 255 0
4.570000 6.180000 26.030001 0 255 0
4.560000 7.320000 3.163300 255 0 0
5.400000 7.360000 26.000000 0 255 0
4.940200 5.879500 17.559401 0 255 0
4.840000 7.836700 1.546700 0 255 0
3.690000 6.380000 16.740000 0 255 0
4.197500 7.527500 22.002501 0 255 0
3.939400 7.384400 20.316200 0 255 0
4.750000 6.880000 24.100000 255 0 0
4.750000 6.760000 17.620001 0 255 0
4.734000 6.826000 20.862000 255 0 0
4.035000 6.690000 18.139999 0 255 0
5.640000 7.420000 16.325001 0 255 0
5.630000 7.310000 22.620001 0 255 0
5.470000 7.685000 0.940000 0 255 0
4.220000 6.010000 0.960000 0 255 255
4.540800 6.125300 12.008200 0 255 0
3.375000 7.420000 1.020000 0 255 255
4.337500 7.977500 17.174999 0 255 0
5.539100 7.678200 0.705500 0 255 255
5.251700 6.336700 17.055000 0 255 0
4.980000 7.070000 17.309999 0 255 0
3.695000 6.982500 0.980000 0 255 0
5.246400 8.031600 12.951200 0 255 0
4.570000 6.490000 0.520000 0 255 0
4.570000 6.900000 26.629999 0 255 0
5.790000 6.987500 23.752501 0 255 0
4.500000 6.950000 13.540000 0 255 0
4.490000 6.320000 26.209999 0 255 0
4.490000 7.040000 18.930000 0 255 0
4.540000 7.380000 4.450000 255 0 0
4.540000 7.685000 24.030001 0 255 0
3.530000 6.760000 14.940000 0 255 0
4.540400 6.976900 18.855000 255 0 0
4.852900 7.074100 2.910600 255 0 0
4.845800 7.416700 12.512500 0 255 0
4.845100 7.131200 6.158700 255 0 0
5.710000 7.760000 1.260000 0 255 255
5.540000 7.280000 17.590000 0 255 0
4.830000 7.273300 9.176700 255 0 0
4.840000 7.322000 12.420000 0 255 0
4.745000 6.475000 0.905000 0 255 0
4.740000 6.860000 26.200001 0 255 0
4.743300 6.823300 22.953300 255 0 0
4.740000 6.770000 19.905001 255 0 0
4.740000 6.773300 24.209999 255 0 0
3.596700 7.180000 18.051701 0 255 0
3.700000 7.120000 17.525000 0 255 0
4.920000 6.300000 26.540001 0 255 0
4.138900 8.037800 15.762200 0 255 0
4.600000 6.990000 19.305000 255 0 0
4.585400 7.030000 16.254601 255 0 0
4.580600 7.079400 13.008800 255 0 0
4.600000 7.690000 24.100000 0 255 0
4.580000 7.180000 4.310000 255 0 0
4.600000 6.935000 20.105000 255 0 0
4.572500 7.080000 10.662500 255 0 0
4.594500 6.980900 16.959101 255 0 0
4.587100 7.029000 13.811900 0 255 0
5.510000 6.423300 11.296700 0 255 0
4.500000 7.070000 18.030001 255 0 0
4.506200 7.036200 8.460000 255 0 0
4.490000 7.065000 17.264999 255 0 0
4.490000 7.033300 7.603300 255 0 0
4.781900 7.275900 6.108700 255 0 0
4.784000 7.318000 2.858700 0 255 0
5.355000 6.665000 13.810000 0 255 0
5.325000 6.025000 23.205000 0 255 0
4.740000 7.260000 14.740000 255 0 0
4.743300 7.244200 11.615000 255 0 0
4.757500 6.925000 17.752501 255 0 0
4.310000 7.540000 22.049999 0 255 0
4.300000 7.420000 15.540000 0 255 0
4.970000 6.190000 21.780001 0 255 0
4.986300 6.233800 18.158701 0 255 0
4.351700 8.090000 1.650000 0 255 0
4.343800 7.983100 21.009199 0 255 0
3.589300 7.084200 12.209100 0 255 0
5.739000 6.482500 11.354100 0 255 0
5.743700 6.486300 11.203700 0 255 0
4.335700 7.832900 21.102900 0 255 0
3.880000 6.610000 22.059999 0 255 0
4.037900 7.433400 15.369200 0 255 0
4.604300 6.571400 14.751400 0 255 0
5.160000 6.523300 26.323299 0 255 0
5.790000 7.000000 20.440001 0 255 0
5.770000 7.290000 0.640000 0 255 255
5.780000 6.950000 23.725000 0 255 0
4.490500 5.981100 1.206300 0 255 255
3.883800 6.186200 1.256200 0 255 255
5.287200 6.585500 13.864200 0 255 0
3.570000 6.740000 1.090000 0 255 255
3.530000 7.520000 12.150000 0 255 0
4.533500 7.976500 15.670000 0 255 0
4.690800 7.339500 4.360200 255 0 0
4.680000 7.370000 1.123300 255 0 0
4.720000 6.420000 20.070000 0 255 0
3.797500 6.735000 25.020000 0 255 0
3.795000 6.786700 21.853300 0 255 0
4.230000 6.034800 1.405700 0 255 255
4.545000 6.925000 7.465000 255 0 0
4.550000 6.420000 26.260000 0 255 0
4.520000 6.940000 10.710000 255 0 0
4.580000 6.600000 26.590000 0 255 0
4.600000 6.177500 0.515000 0 255 255
4.581700 6.788300 13.563300 0 255 0
5.580000 7.325000 0.625000 0 255 255
5.100000 7.130000 26.580000 0 255 0
4.505000 5.982500 20.342501 0 255 0
5.937500 7.138800 11.210400 0 255 0
5.338500 7.175900 17.360399 0 255 0
5.687200 6.929600 11.320400 0 255 0
5.425000 6.485000 14.920000 0 255 0
5.460000 6.380000 21.180000 0 255 0
5.330000 7.170000 26.620001 0 255 0
4.740000 6.560000 0.520000 0 255 0
4.720000 6.590000 0.580000 0 255 0
5.540000 6.460000 26.055000 0 255 0
5.533800 6.324800 16.511400 0 255 0
4.742000 6.884000 17.266001 255 0 0
4.750000 6.585000 19.980000 0 255 0
4.735000 6.670000 26.270000 0 255 0
4.735000 6.900000 13.210000 255 0 0
5.680000 6.900000 11.120000 0 255 0
5.670000 6.880000 11.440000 0 255 0
5.700000 7.110000 17.650000 0 255 0
5.642000 6.928000 0.604000 0 255 255
4.530000 8.260000 1.240000 0 255 255
4.841000 6.990000 14.713000 255 0 0
4.847700 7.028500 17.854601 255 0 0
4.820000 6.880000 21.209999 255 0 0
4.390000 6.620000 23.200001 0 255 0
4.400000 6.600000 26.360001 0 255 0
3.870000 7.370000 1.140000 0 255 0
3.884300 7.122900 17.457100 0 255 0
3.890000 7.245000 23.775000 0 255 0
4.460000 7.180000 8.920000 255 0 0
3.894300 6.777100 18.125700 0 255 0
4.497300 6.328000 14.918700 0 255 0
4.591200 6.536200 19.920000 0 255 0
5.843300 7.233300 11.363300 0 255 0
4.444500 8.227300 2.417300 0 255 0
4.432900 7.938600 22.015699 0 255 0
4.740000 7.477500 21.552500 0 255 0
3.735000 7.080000 17.607500 0 255 0
3.673300 7.220000 0.966700 0 255 0
3.682300 7.276200 17.916201 0 255 0
4.090000 6.630000 26.469999 0 255 0
4.101800 6.235500 1.168200 0 255 255
3.880000 6.513300 1.100000 0 255 255
4.370000 7.140000 15.830000 0 255 0
4.644700 6.580000 14.709600 0 255 0
4.645000 6.740000 0.545000 0 255 0
4.490000 6.440000 12.610000 0 255 0
4.490000 6.500000 22.365000 0 255 0
4.740000 7.050000 16.440001 255 0 0
4.745700 7.293800 6.566200 0 255 0
4.733300 7.083300 19.613300 255 0 0
4.740000 6.969400 13.110000 255 0 0
4.733300 6.944400 9.968900 255 0 0
4.194400 7.985600 2.116700 0 255 0
4.200000 7.784600 13.961700 0 255 0
3.986300 7.243800 15.361200 0 255 0
5.106700 6.486700 22.500000 0 255 0
4.580000 7.810000 21.850000 0 255 0
4.700000 7.320000 11.400000 255 0 0
4.705000 7.415000 17.165001 0 255 0
4.688000 7.320000 10.652000 255 0 0
4.687500 7.371200 7.415000 255 0 0
4.737500 6.427500 26.552500 0 255 0
4.446700 7.230000 7.266700 255 0 0
4.460000 7.190000 4.015000 255 0 0
4.650000 6.273300 0.846700 0 255 255
4.634300 6.884600 13.510200 255 0 0
4.647800 6.778900 19.809999 255 0 0
4.487500 6.038800 0.817500 0 255 255
4.360000 6.460000 22.600000 0 255 0
3.630000 7.300000 1.000000 0 255 0
3.880000 7.840000 17.129999 0 255 0
3.890000 7.573300 20.020000 0 255 0
3.900000 7.830000 16.940001 0 255 0
4.820000 7.270000 9.400000 255 0 0
4.832500 7.317500 12.557500 0 255 0
4.845000 7.570000 16.165001 0 255 0
4.750000 8.100000 15.830000 0 255 0
5.387500 7.777500 16.707500 0 255 0
3.592000 6.332000 1.409000 0 255 255
3.697100 6.241400 1.458600 0 255 255
3.820000 6.630000 18.245001 0 255 0
4.100000 7.710000 20.030001 0 255 0
4.360000 6.080000 1.070000 0 255 255
5.140000 7.476300 0.675000 0 255 0
5.443300 7.036700 23.316700 0 255 0
5.673300 6.930000 0.413300 0 255 255
4.750000 6.900000 6.070000 255 0 0
4.140000 7.400000 25.469999 0 255 0
4.210000 6.700000 25.469999 0 255 0
4.600000 7.040000 21.730000 0 255 0
4.605000 7.090000 18.549999 255 0 0
4.579200 7.242500 9.055000 255 0 0
4.578000 7.128000 15.562000 255 0 0
4.577500 7.188300 12.409200 255 0 0
4.581400 7.292800 5.911400 255 0 0
4.610000 7.080000 19.410000 255 0 0
4.591500 7.176900 13.057700 255 0 0
4.583000 7.287000 6.760000 255 0 0
4.586300 7.233700 10.010000 255 0 0
4.591700 7.130000 16.298300 255 0 0
4.860000 7.730000 16.120001 0 255 0
3.784200 7.476700 21.455799 0 255 0
4.870000 7.100000 15.600000 255 0 0
4.870000 7.330000 25.510000 0 255 0
4.896000 7.127500 12.450500 255 0 0
4.580000 7.750000 25.879999 0 255 0
4.583300 8.076700 2.316700 0 255 0
4.641700 7.190000 14.823300 255 0 0
4.631200 7.298200 8.310600 255 0 0
4.633800 7.031200 17.716200 255 0 0
4.842000 6.324000 21.792000 0 255 0
3.720000 7.040000 0.940000 0 255 0
5.037500 7.080000 16.022499 0 255 0
3.710000 7.880000 11.980000 0 255 0
4.788600 7.318600 0.854300 0 255 0
4.792200 7.282900 4.110100 255 0 0
4.420000 6.280000 16.719999 0 255 0
5.080000 6.770000 13.745000 0 255 0
5.100000 6.720000 16.209999 0 255 0
4.760000 7.130000 14.680000 255 0 0
4.734300 7.180000 17.905701 255 0 0
4.427500 7.580000 21.762501 0 255 0
4.638000 7.319000 17.968000 0 255 0
4.330000 7.735000 21.817499 0 255 0
4.560000 7.360000 2.390000 255 0 0
4.536700 7.628000 18.207300 0 255 0
4.487500 7.784200 18.356701 0 255 0
3.838200 6.974500 16.253500 0 255 0
4.343800 8.080000 18.562500 0 255 0
4.243700 7.271200 15.319400 0 255 0
3.887000 6.524000 16.702000 0 255 0
4.450000 8.260000 1.680000 0 255 0
4.446300 8.277500 1.827500 0 255 0
4.590000 7.920000 0.920000 0 255 0
4.596000 7.933600 1.759400 0 255 0
5.687500 6.636200 11.458800 0 255 0
4.180000 6.000000 12.280000 0 255 0
5.390000 7.335000 16.305000 0 255 0
4.510000 6.836700 0.813300 0 255 0
3.480000 6.630000 0.880000 0 255 255
5.342500 6.222500 25.802500 0 255 0
4.840000 7.340000 6.280000 0 255 0
4.827000 7.267800 3.107600 255 0 0
5.260000 6.380000 21.105000 0 255 0
5.052000 6.366000 0.904000 0 255 0
4.346000 7.772000 1.122000 0 255 0
4.340900 7.580300 13.759200 0 255 0
4.345000 7.260000 20.910000 0 255 0
4.550000 6.510000 25.420000 0 255 0
4.536700 6.431700 19.098301 0 255 0
4.700000 8.130000 18.969999 0 255 0
4.730000 6.750000 23.090000 255 0 0
4.730000 6.770000 26.263300 0 255 0
4.550000 8.090000 1.310000 0 255 0
4.540000 7.680000 25.813999 0 255 0
4.540000 5.850000 20.080000 0 255 0
4.544000 6.522000 12.696000 0 255 0
3.940000 6.500000 21.639999 0 255 0
4.160000 6.820000 23.969999 0 255 0
4.530000 6.900000 10.470000 0 255 0
4.545000 6.922500 13.615000 255 0 0
4.894300 6.571400 0.750000 0 255 0
5.450000 6.370000 16.540001 0 255 0
5.835000 6.715000 11.445000 0 255 0
5.600000 6.950000 23.440001 0 255 0
5.640000 6.966000 11.216000 0 255 0
4.993300 6.680000 19.007799 0 255 0
4.890000 6.730000 26.575001 0 255 0
4.823900 7.265600 4.712800 0 255 0
4.525000 5.981700 1.161700 0 255 255
4.573300 6.520000 20.000000 0 255 0
4.840000 7.126700 16.253300 255 0 0
4.826700 7.224200 9.760800 0 255 0
4.855000 7.285000 26.469999 0 255 0
4.830000 6.930000 3.610000 255 0 0
4.832900 7.178300 6.515100 255 0 0
4.837300 7.079100 13.018200 255 0 0
4.835700 7.435700 23.212900 0 255 0
4.852000 7.372000 19.958000 0 255 0
5.695000 7.240000 20.709999 0 255 0
5.130000 7.880000 21.139999 0 255 0
3.360000 7.270000 1.120000 0 255 255
4.440000 7.370000 21.920000 0 255 0
4.440000 8.100000 2.170000 0 255 0
5.100000 7.280800 0.762500 0 255 0
5.080000 6.890000 26.870001 0 255 0
4.285000 6.975000 26.400000 0 255 0
3.690000 6.550000 22.400000 0 255 0
3.675000 7.086500 12.105500 0 255 0
4.680000 8.020000 2.490000 0 255 0
4.450000 7.050000 2.090000 255 0 0
3.646300 7.381300 18.055000 0 255 0
3.638600 7.477500 11.912100 0 255 0
3.542500 7.077500 18.047501 0 255 0
3.537500 7.022500 14.910000 0 255 0
5.284600 6.323800 16.956200 0 255 0
4.370000 6.120000 25.879999 0 255 0
4.370000 5.850000 19.520000 0 255 0
5.140000 6.791200 0.471300 0 255 0
5.140000 6.370000 26.549999 0 255 0
3.934300 6.082900 23.567101 0 255 0
3.394000 6.678000 1.360000 0 255 255
4.456700 7.230000 2.896700 255 0 0
5.770000 7.450000 0.700000 0 255 255
4.550000 6.950000 18.660000 255 0 0
3.735000 6.720000 0.615000 0 255 255
4.280000 7.220000 23.290001 0 255 0
4.276000 7.282000 20.058001 0 255 0
4.290000 7.550000 16.180000 0 255 0
4.195600 7.980000 17.112499 0 255 0
5.410000 6.560000 25.820000 0 255 0
5.793300 7.073300 11.266700 0 255 0
5.103300 7.533300 21.896700 0 255 0
4.980000 6.093300 24.020000 0 255 0
4.190000 7.570000 25.840000 0 255 0
4.193300 7.616700 22.670000 0 255 0
4.188500 7.727700 16.364201 0 255 0
4.244000 6.374500 16.712500 0 255 0
4.740000 6.810000 17.250000 255 0 0
4.746000 6.872000 20.496000 255 0 0
3.932500 7.737500 19.969999 0 255 0
3.892000 6.893000 16.259001 0 255 0
5.410000 7.260000 26.760000 0 255 0
4.390000 7.650000 21.969999 0 255 0
4.040300 7.381500 15.411500 0 255 0
3.910000 6.550000 0.860000 0 255 255
3.985000 6.635000 24.045000 0 255 0
5.340000 6.320000 20.049999 0 255 0
4.430000 6.510000 20.910000 0 255 0
5.300000 6.700000 26.660000 0 255 0
5.310000 6.480000 13.990000 0 255 0
4.040000 6.975000 19.195000 0 255 0
4.330000 7.060000 26.700001 0 255 0
4.550000 6.630000 19.120001 0 255 0
4.482600 7.078400 1.912100 255 0 0
4.498100 7.227100 5.213100 255 0 0
4.492500 7.177900 8.461700 255 0 0
4.660000 6.800000 22.510000 255 0 0
4.637100 6.884600 15.999600 255 0 0
4.050000 7.120000 13.830000 0 255 0
4.400000 6.420000 12.680000 0 255 0
5.602000 7.784000 0.852000 0 255 255
5.540000 6.140000 19.495001 0 255 0
4.570000 7.430000 23.930000 0 255 0
4.595000 6.942500 4.107500 255 0 0
3.795000 6.915000 19.264999 0 255 0
3.892900 6.925700 19.258600 0 255 0
4.045000 6.187500 23.555000 0 255 0
4.073300 6.120000 21.376699 0 255 0
5.480000 6.440000 26.070000 0 255 0
5.498000 6.614000 13.000000 0 255 0
5.490000 6.365600 16.506701 0 255 0
5.495000 6.440000 25.920000 0 255 0
5.500000 6.324000 19.400000 0 255 0
3.990000 7.832600 15.714800 0 255 0
4.996700 6.774200 0.707500 0 255 0
4.280000 7.950000 1.840000 0 255 0
4.292000 7.992000 1.502000 0 255 0
4.494000 8.074000 1.456000 0 255 0
5.535000 6.320000 19.450001 0 255 0
5.533300 6.423300 25.966700 0 255 0
4.996700 6.776700 21.623301 0 255 0
4.235000 7.810000 13.875000 0 255 0
4.240000 7.620000 26.120001 0 255 0
4.245000 7.760000 22.965000 0 255 0
4.230000 7.885000 17.010000 0 255 0
4.240000 7.720000 19.280001 0 255 0
4.240000 7.770000 22.520000 0 255 0
4.778300 7.269200 11.110000 255 0 0
5.036700 5.924400 18.913300 0 255 0
5.200000 5.860000 23.900000 0 255 0
4.138000 6.376000 16.860001 0 255 0
4.575000 7.870000 1.475000 0 255 0
5.750000 7.200000 16.070000 0 255 0
4.890000 7.650000 1.490000 0 255 0
3.844400 6.977800 21.823299 0 255 0
4.410000 6.230000 12.240000 0 255 0
4.610000 7.900000 1.050000 0 255 0
4.606400 7.886400 1.811800 0 255 0
4.080000 8.025000 16.815001 0 255 0
5.680000 7.077600 15.020600 0 255 0
5.602500 6.997500 18.309999 0 255 0
5.635000 7.330000 22.719999 0 255 0
5.740000 7.175000 23.910000 0 255 0
5.810000 6.900000 0.690000 0 255 255
4.645000 6.425000 0.760000 0 255 0
4.645000 6.135000 20.129999 0 255 0
4.570000 7.020000 4.410000 255 0 0
4.601100 6.938900 10.707800 255 0 0
4.592500 6.985100 7.559300 255 0 0
4.850000 7.530000 0.890000 0 255 0
4.360000 6.480000 22.559999 0 255 0
4.800000 8.130000 18.980000 0 255 0
4.810000 8.190000 15.890000 0 255 0
3.820000 7.470000 20.190001 0 255 0
5.640000 7.110000 18.250000 0 255 0
5.635000 7.065000 15.100000 0 255 0
3.646700 7.723300 0.893300 0 255 255
4.445000 7.780000 21.100000 0 255 0
4.890000 7.170000 15.920000 0 255 0
4.870000 7.130000 6.450000 255 0 0
4.880000 7.095000 9.625000 255 0 0
4.870000 6.985000 2.875000 255 0 0
4.845000 7.235000 18.955000 0 255 0
4.840000 7.182500 15.705000 255 0 0
4.825000 6.992500 3.066300 255 0 0
4.845400 7.024400 6.302800 255 0 0
5.090000 6.050000 23.440001 0 255 0
5.080000 6.570000 0.630000 0 255 0
4.225000 7.485000 0.905000 0 255 0
4.238300 7.116700 17.303301 0 255 0
4.050000 7.280000 21.207500 0 255 0
4.040000 6.910000 19.080000 0 255 0
4.995000 6.025000 0.652500 0 255 255
5.833300 7.283300 18.950001 0 255 0
5.720000 7.800000 1.200000 0 255 255
5.224000 7.214000 0.742000 0 255 0
4.900000 7.770000 23.530001 0 255 0
4.795000 7.335000 7.665000 255 0 0
4.778900 7.267800 10.908900 0 255 0
4.780000 7.420000 1.140000 255 0 0
5.175000 6.640000 16.299999 0 255 0
5.892500 7.240000 18.820000 0 255 0
4.200000 7.060000 16.100000 0 255 0
4.105600 6.226700 1.220000 0 255 255
5.220000 8.150000 0.840000 0 255 255
4.343700 7.078700 17.216200 0 255 0
4.541000 7.584800 18.166201 0 255 0
5.130000 5.990000 24.129999 0 255 0
4.590000 7.790000 23.000000 0 255 0
4.710000 7.450000 26.830000 0 255 0
5.540000 6.230000 24.195000 0 255 0
3.520000 7.230000 1.090000 0 255 255
4.080000 6.180000 1.460000 0 255 255
4.160000 7.020000 19.160000 0 255 0
4.545000 6.300000 19.055000 0 255 0
4.530000 7.330000 7.780000 255 0 0
4.538800 7.282400 4.510300 255 0 0
4.545700 7.286800 2.160300 255 0 0
4.550600 7.316500 5.306500 255 0 0
4.710000 8.260000 2.270000 0 255 255
4.687500 7.272500 13.702500 255 0 0
4.693300 6.936700 23.613300 255 0 0
4.684000 6.984000 20.455999 255 0 0
4.496700 6.340000 25.513300 0 255 0
4.483300 6.320000 25.170000 0 255 0
5.790000 6.570000 26.125000 0 255 0
4.310000 7.900000 0.960000 0 255 0
5.292500 6.188800 16.855000 0 255 0
5.333300 6.584700 13.869000 0 255 0
4.090000 6.330000 0.570000 0 255 255
4.110000 6.490000 16.860001 0 255 0
4.550000 7.400000 26.570000 0 255 0
4.542800 7.783100 1.208100 0 255 0
3.810000 7.680000 19.440001 0 255 0
4.350000 7.040000 7.640000 0 255 0
3.770000 7.650000 1.220000 0 255 0
4.830000 6.200000 26.530001 0 255 0
4.783800 7.272400 7.665200 255 0 0
4.774100 7.315300 4.505300 255 0 0
4.776100 7.374500 1.154800 255 0 0
4.850000 7.084000 14.250000 255 0 0
4.825000 7.217500 10.902500 255 0 0
4.833500 7.181000 7.761200 255 0 0
3.890800 6.728300 21.905001 0 255 0
4.430000 7.240000 1.720000 255 0 0
4.500000 6.920000 24.660000 0 255 0
5.470000 6.270000 20.240000 0 255 0
3.685600 6.626800 16.696400 0 255 0
4.290000 7.850000 1.215000 0 255 0
4.290000 7.732500 21.165001 0 255 0
3.720000 7.420000 11.860000 0 255 0
5.135000 5.980000 21.844999 0 255 0
4.739800 7.320900 2.711500 0 255 0
4.780000 6.090000 26.500000 0 255 0
5.780000 7.030000 20.389999 0 255 0
4.280000 7.470000 22.010000 0 255 0
4.140000 6.340000 11.170000 0 255 0
4.130000 6.172000 1.664000 0 255 255
5.190000 6.950000 23.070000 0 255 0
5.190000 6.875000 26.312500 0 255 0
4.790000 6.620000 25.090000 0 255 0
4.640000 7.935000 22.865000 0 255 0
5.080000 6.760000 25.430000 0 255 0
4.930000 7.110000 4.330000 255 0 0
4.140000 6.720000 18.110001 0 255 0
4.295000 7.510000 21.910000 0 255 0
5.160000 6.683300 26.516701 0 255 0
5.000000 6.530000 0.365000 0 255 0
5.030000 8.035000 1.110000 0 255 255
4.791000 7.022700 9.462300 0 255 0
4.795000 6.885000 19.205000 255 0 0
4.776700 6.979200 12.707500 255 0 0
4.791200 6.930400 15.960400 255 0 0
5.740000 7.175000 0.510000 0 255 255
4.460000 7.030000 1.680000 255 0 0
4.546700 8.046700 1.213300 0 255 0
4.830000 7.330000 5.090000 255 0 0
4.826200 7.266900 1.862500 0 255 0
4.190000 7.470000 25.830000 0 255 0
4.746700 7.120000 18.666700 255 0 0
5.336700 7.023300 20.070000 0 255 0
4.640000 7.296700 3.360000 255 0 0
4.630000 7.080000 16.407499 255 0 0
4.635000 6.933700 19.568800 255 0 0
4.637100 7.018600 13.262900 255 0 0
3.770000 7.100000 0.740000 0 255 0
4.300000 6.100000 1.030000 0 255 255
3.543100 7.478600 11.966900 0 255 0
5.640000 7.120900 15.049100 0 255 0
3.570000 7.110000 0.840000 0 255 0
3.491800 7.278200 12.201200 0 255 0
4.810000 6.800000 0.670000 0 255 0
3.946700 7.423300 23.700001 0 255 0
4.579100 7.423600 10.558200 0 255 0
3.860000 7.645000 21.065001 0 255 0
5.830000 7.250000 20.850000 0 255 0
5.100000 7.486700 21.826700 0 255 0
5.530000 7.820000 1.210000 0 255 255
4.833300 7.276700 21.663300 0 255 0
4.829500 7.230500 4.959300 255 0 0
4.844300 7.183900 1.710700 255 0 0
4.833200 7.083000 8.211900 255 0 0
4.828800 7.124100 11.457100 255 0 0
5.740000 7.385000 19.115000 0 255 0
3.674000 7.576000 18.096001 0 255 0
5.070000 6.320000 23.320000 0 255 0
4.050000 6.076700 22.799999 0 255 0
4.060000 6.090000 12.330000 0 255 0
4.788300 7.130000 17.358299 255 0 0
4.792300 7.233200 11.060500 255 0 0
4.798600 7.175700 14.208600 255 0 0
4.789700 6.985700 1.561300 0 255 0
4.390000 5.990000 25.945000 0 255 0
4.040000 6.985000 17.389999 0 255 0
4.810000 7.310000 7.930000 255 0 0
4.783300 7.270000 11.066700 255 0 0
4.403300 7.833300 15.653300 0 255 0
5.253300 8.266700 1.998300 0 255 255
4.938800 7.522500 16.073799 0 255 0
5.340000 6.073300 24.003300 0 255 0
4.205000 7.800000 13.905000 0 255 0
4.190000 7.740000 17.062500 0 255 0
4.341100 7.132600 15.259600 0 255 0
4.620000 7.070000 7.890000 255 0 0
4.620000 7.570000 26.680000 0 255 0
4.638000 7.026000 4.762000 255 0 0
4.637500 6.945000 11.256700 255 0 0
4.635800 6.977300 14.405800 255 0 0
4.180000 7.877500 17.070000 0 255 0
4.570000 7.160000 4.560000 255 0 0
4.598300 6.978300 17.606701 255 0 0
4.591500 7.027000 14.360600 255 0 0
4.570000 7.073800 11.110000 255 0 0
4.287500 6.025000 15.307500 0 255 0
4.287700 6.082400 12.057400 0 255 0
4.070000 7.920000 0.960000 0 255 0
4.292200 7.172900 13.660200 0 255 0
3.538300 7.329800 12.058100 0 255 0
3.600000 7.050000 14.760000 0 255 0
3.592000 6.983300 17.924700 0 255 0
4.827200 7.220600 7.708900 255 0 0
4.838300 7.128300 14.212500 255 0 0
4.836400 7.081800 11.060900 255 0 0
4.839300 7.179400 4.562000 0 255 0
4.792000 7.830000 1.270000 0 255 0
4.830900 7.278200 14.465500 255 0 0
4.830600 7.078900 1.009000 0 255 0
4.851200 7.131000 4.261400 255 0 0
4.600000 8.021700 17.256701 0 255 0
3.587100 7.530000 16.010000 0 255 0
3.830000 7.040000 18.150000 0 255 0
5.180000 6.547500 16.217501 0 255 0
5.085000 7.630000 16.299999 0 255 0
5.397500 6.535000 26.012501 0 255 0
4.831200 7.273500 2.858000 0 255 0
3.450000 7.200000 1.150000 0 255 255
5.278300 6.543300 0.416700 0 255 255
5.400000 6.040000 23.820000 0 255 0
4.336700 7.846700 21.913300 0 255 0
4.230000 7.286700 14.853300 0 255 0
4.247100 7.185700 21.010000 0 255 0
5.640000 7.700000 1.010000 0 255 255
5.120000 6.570000 16.299999 0 255 0
4.790000 7.940000 0.930000 0 255 0
4.237700 7.040800 15.257700 0 255 0
5.375000 6.585000 13.872500 0 255 0
4.250000 7.890000 1.530000 0 255 0
4.296700 7.921700 1.571700 0 255 0
4.150000 7.060000 0.725000 0 255 0
4.050000 6.100000 21.260000 0 255 0
3.595000 7.140000 14.300000 0 255 0
4.041400 6.075000 12.200000 0 255 0
4.090000 6.350000 21.250000 0 255 0
4.088800 6.068800 12.261200 0 255 0
4.270000 7.450000 25.500000 0 255 0
4.290000 7.782000 15.802000 0 255 0
4.430000 7.830000 1.010000 0 255 0
4.688000 7.294700 9.006000 255 0 0
4.692000 7.246000 12.156000 255 0 0
4.687100 6.971400 15.552900 255 0 0
4.687500 6.916200 18.712500 255 0 0
4.680000 7.226700 14.613300 255 0 0
4.701400 8.232900 1.564300 0 255 255
4.685000 6.960000 17.915001 255 0 0
4.694400 7.283900 11.355600 255 0 0
4.680000 6.943300 21.153299 255 0 0
4.240000 7.550000 21.879999 0 255 0
4.220000 7.616700 15.523300 0 255 0
4.220000 7.830000 2.170000 0 255 0
5.260000 6.840000 26.320000 0 255 0
4.839000 7.230000 2.309400 0 255 0
4.840000 7.422500 14.565000 0 255 0
4.831800 7.135200 8.811200 0 255 0
4.829100 7.084200 5.658400 255 0 0
5.370000 7.870000 22.205000 0 255 0
4.896700 6.820000 25.313299 0 255 0
4.520000 7.170000 23.170000 0 255 0
4.551400 7.037100 13.661400 255 0 0
4.546400 6.987000 10.511100 255 0 0
3.380000 7.276700 0.906700 0 255 255
4.890000 6.790000 25.250000 0 255 0
5.510000 6.770000 11.390000 0 255 0
4.338000 5.834000 19.518000 0 255 0
5.043300 6.793300 26.410000 0 255 0
4.440000 7.100000 12.830000 255 0 0
4.460000 7.080000 10.470000 255 0 0
4.430000 7.110000 13.730000 255 0 0
4.810000 7.070000 20.219999 255 0 0
4.800000 7.130000 17.056700 255 0 0
4.795600 7.186700 13.724400 255 0 0
4.802500 7.240000 10.550000 255 0 0
4.786100 6.985000 1.062400 255 0 0
4.777500 6.946700 4.415800 255 0 0
5.030000 6.960000 23.090000 0 255 0
5.040000 6.850000 26.250000 0 255 0
5.740000 6.540000 13.770000 0 255 0
4.851700 6.446700 18.018299 0 255 0
3.537100 6.580000 1.300000 0 255 255
4.675000 6.790000 21.565001 255 0 0
4.940000 8.385500 1.411800 0 255 255
4.140000 6.441700 16.856701 0 255 0
4.150000 6.560000 26.750000 0 255 0
4.102500 6.385000 16.852501 0 255 0
5.220000 6.210000 0.910000 0 255 255
3.590000 7.170000 17.620001 0 255 0
4.874700 7.083200 2.118900 255 0 0
4.889500 7.184000 8.602000 255 0 0
3.939200 6.880800 21.858299 0 255 0
3.686000 6.230000 1.420000 0 255 255
4.180000 6.690000 0.780000 0 255 0
4.140000 7.720000 22.900000 0 255 0
4.193300 6.446700 16.566700 0 255 0
4.391900 7.925300 15.666300 0 255 0
4.392300 7.834600 21.960800 0 255 0
5.787500 7.475000 16.110001 0 255 0
4.385000 8.180000 2.354300 0 255 0
4.390000 7.882000 21.955999 0 255 0
4.300000 6.400000 26.530001 0 255 0
5.192600 8.129600 13.613700 0 255 0
4.593300 7.730000 22.813299 0 255 0
4.690000 7.420000 26.530001 0 255 0
4.355000 5.995000 0.730000 0 255 255
5.252500 6.522500 19.200001 0 255 0
4.960000 7.590000 20.230000 0 255 0
4.642000 7.322300 8.359000 255 0 0
4.425000 7.115000 1.305000 255 0 0
4.495000 6.630000 24.955000 0 255 0
4.456700 7.033300 7.620000 255 0 0
3.687800 6.483300 0.496700 0 255 255
4.645000 6.682500 19.915001 0 255 0
5.285000 6.825000 26.495001 0 255 0
4.190000 7.215000 13.720000 0 255 0
5.020000 6.830000 13.770000 0 255 0
5.048500 7.878500 1.368100 0 255 0
5.070000 5.990000 24.320000 0 255 0
4.480000 5.923300 0.650000 0 255 255
5.180000 7.030000 26.690001 0 255 0
4.042500 6.273700 1.317500 0 255 255
4.053300 6.676700 26.610001 0 255 0
4.610000 7.220000 14.100000 255 0 0
4.594500 7.272000 10.860000 255 0 0
5.430000 7.220000 10.825000 0 255 0
4.480000 6.870000 20.750000 0 255 0
5.470000 6.350000 24.180000 0 255 0
5.436700 6.176700 20.160000 0 255 0
5.444800 6.130000 17.005600 0 255 0
3.583300 6.993300 12.216700 0 255 0
3.843800 7.980400 11.963500 0 255 0
4.770000 5.890000 1.390000 0 255 255
4.370000 7.730000 25.930000 0 255 0
4.388300 7.475000 16.120800 0 255 0
5.370000 7.280000 16.170000 0 255 0
5.375000 7.195000 22.455000 0 255 0
5.025700 5.974300 18.315701 0 255 0
4.338300 7.878300 21.963301 0 255 0
3.783300 6.490000 26.139999 0 255 0
3.790000 6.631400 16.662300 0 255 0
4.633300 7.890000 1.266700 0 255 0
3.687000 6.879000 16.349001 0 255 0
4.550000 7.110000 17.889999 255 0 0
4.551800 7.079100 14.659100 255 0 0
4.549300 6.992000 8.157300 255 0 0
4.548100 7.033100 11.407800 255 0 0
4.534300 7.637100 1.005700 0 255 0
4.530000 7.126700 20.754999 0 255 0
4.552900 6.992900 11.310000 255 0 0
4.552000 7.030700 14.452700 255 0 0
5.890000 7.160000 18.379999 0 255 0
5.885000 7.044200 15.215000 0 255 0
4.383300 6.376700 22.476700 0 255 0
5.381000 6.582300 13.918300 0 255 0
3.950000 7.140000 15.170000 0 255 0
4.540900 6.032900 11.963200 0 255 0
4.087800 6.082100 12.067100 0 255 0
4.450000 7.210000 1.890000 255 0 0
4.498100 6.784400 20.711901 0 255 0
5.630000 7.120000 11.230000 0 255 0
5.589000 6.327700 14.961300 0 255 0
3.840000 6.210000 1.443300 0 255 255
4.653300 7.300000 2.716700 255 0 0
4.645000 6.970000 21.840000 255 0 0
4.638500 6.932300 18.606899 255 0 0
4.636000 7.078000 15.362000 255 0 0
4.626700 7.021700 12.118300 255 0 0
4.390000 7.180000 6.490000 255 0 0
3.800000 6.570000 18.200001 0 255 0
3.745000 7.440000 21.430000 0 255 0
3.546100 7.033000 17.964300 0 255 0
5.240000 6.920000 20.093300 0 255 0
4.395000 6.520000 0.490000 0 255 255
4.695400 7.333100 21.563801 0 255 0
3.842200 7.690000 15.658900 0 255 0
4.520000 7.280000 1.140000 255 0 0
4.547500 7.315000 4.302500 255 0 0
4.552700 7.314000 3.562000 0 255 0
4.584000 6.288000 19.115999 0 255 0
4.547900 7.322000 3.709100 255 0 0
3.895000 7.675000 0.820000 0 255 0
4.180000 6.870000 26.389999 0 255 0
4.340000 6.310000 0.980000 0 255 255
4.320000 5.950000 25.450001 0 255 0
4.346000 6.120000 12.798000 0 255 0
3.946700 7.436700 0.946700 0 255 0
3.820000 7.630000 20.969999 0 255 0
3.860000 7.360000 0.880000 0 255 0
3.845000 7.840000 16.709999 0 255 0
5.700000 7.370000 16.200001 0 255 0
5.296700 7.430000 25.956699 0 255 0
5.244400 8.024600 12.913400 0 255 0
5.335000 6.310000 26.014999 0 255 0
4.410000 6.978000 0.910000 0 255 0
4.430000 6.900000 26.730000 0 255 0
4.400000 7.167800 13.565600 0 255 0
5.320000 8.140000 1.180000 0 255 255
5.490000 7.130000 24.049999 0 255 0
4.250000 6.630000 20.860001 0 255 0
4.400000 7.015000 18.915001 0 255 0
3.943300 7.743300 0.853300 0 255 0
3.940000 7.640000 20.216700 0 255 0
4.190000 5.935000 25.465000 0 255 0
4.140000 7.990000 15.860000 0 255 0
4.132500 7.965000 15.725000 0 255 0
4.030000 7.840000 14.090000 0 255 0
4.636700 7.976700 1.013300 0 255 0
4.920000 6.850000 9.460000 0 255 0
4.033300 6.030000 21.596701 0 255 0
4.302500 6.170000 26.562500 0 255 0
4.330000 6.350000 11.050000 0 255 0
4.625000 8.062500 1.610000 0 255 0
5.370000 6.250000 16.590000 0 255 0
4.388100 7.779700 15.805500 0 255 0
4.250000 7.795000 21.902500 0 255 0
4.800000 7.110000 18.410000 255 0 0
4.803300 7.163300 15.156700 255 0 0
4.791900 7.228100 11.913100 255 0 0
4.780000 6.950000 5.380000 255 0 0
4.791400 6.983300 2.110000 255 0 0
4.593300 6.890000 1.010000 255 0 0
4.996700 6.916700 0.610000 0 255 0
5.270000 7.460000 26.740000 0 255 0
4.980000 6.730000 25.309999 0 255 0
3.737800 7.535600 20.156700 0 255 0
4.390000 6.278600 12.204800 0 255 0
3.920000 7.620000 21.860001 0 255 0
3.935000 7.885000 11.965000 0 255 0
5.742500 6.467500 15.055000 0 255 0
4.988300 8.193300 1.145000 0 255 255
5.330000 7.410000 26.719999 0 255 0
5.340000 7.185000 10.905000 0 255 0
4.710000 6.110000 26.660000 0 255 0
4.650000 7.360000 9.260000 255 0 0
4.640000 7.329700 6.008400 255 0 0
4.140000 7.415000 20.170000 0 255 0
4.150000 7.530000 26.120001 0 255 0
5.380000 6.450000 22.030001 0 255 0
4.760000 6.570000 0.890000 0 255 0
4.850000 6.850000 20.580000 255 0 0
4.826000 6.694000 23.618000 0 255 0
5.600000 7.130000 0.560000 0 255 255
4.020000 7.660000 25.990000 0 255 0
4.778800 7.316500 2.960600 255 0 0
4.787300 7.282900 6.211500 255 0 0
4.996200 7.887500 0.862500 0 255 0
4.987500 5.927500 1.250000 0 255 255
4.650000 6.620000 0.700000 0 255 0
5.630000 6.400000 16.780001 0 255 0
4.335600 6.436300 11.007900 0 255 0
4.840000 7.320000 26.355000 0 255 0
4.837500 7.127500 12.910000 255 0 0
4.850000 7.280000 23.200001 0 255 0
4.828800 7.224600 6.608100 255 0 0
4.835400 7.079600 9.760000 255 0 0
4.853600 7.179100 3.459700 255 0 0
4.890000 6.790000 26.459999 0 255 0
4.905000 6.370000 0.355000 0 255 0
3.990000 6.960000 0.740000 0 255 0
3.943300 7.113300 22.013300 0 255 0
4.705000 6.725000 23.565001 255 0 0
4.180000 6.530000 0.440000 0 255 255
4.192800 6.277200 16.667700 0 255 0
4.143800 7.776900 16.411200 0 255 0
4.380000 7.170000 23.150000 0 255 0
4.500000 7.140000 12.710000 255 0 0
4.490000 7.070000 15.840000 255 0 0
4.490000 6.974400 9.355600 255 0 0
4.501100 7.038900 6.212300 0 255 0
4.480000 6.990000 10.330000 255 0 0
4.505000 7.040000 7.056700 255 0 0
4.927500 7.087500 12.457500 255 0 0
4.190000 7.215000 13.753800 0 255 0
4.970000 7.650000 1.010000 0 255 0
4.579400 7.291300 2.659700 255 0 0
4.593300 7.036700 18.556700 255 0 0
4.570000 7.170000 9.170000 255 0 0
4.589400 7.080000 15.304400 255 0 0
4.570000 7.120000 12.420000 255 0 0
4.595700 8.129500 1.415200 0 255 0
4.576700 7.246700 8.163300 255 0 0
4.593300 7.076700 18.046700 255 0 0
4.580000 7.188900 11.313300 255 0 0
4.579000 7.291000 5.009000 255 0 0
4.584800 7.137200 14.462800 255 0 0
5.193300 7.190000 0.740000 0 255 0
5.310000 6.110000 20.219999 0 255 0
5.290000 6.060000 23.340000 0 255 0
5.120000 6.850000 26.330000 0 255 0
3.746300 6.616200 0.603800 0 255 255
4.641700 8.191300 2.006500 0 255 255
4.638000 7.189000 15.454000 255 0 0
4.650000 7.050000 18.680000 255 0 0
4.641300 7.291000 9.163800 255 0 0
4.347500 6.940000 16.105000 0 255 0
4.532000 6.932000 9.358000 255 0 0
4.537300 6.275500 19.151800 0 255 0
4.395000 7.745000 22.770000 0 255 0
4.387500 7.422500 16.205000 0 255 0
4.955000 7.410000 6.395000 0 255 0
4.400000 7.836700 21.916700 0 255 0
3.595000 6.935000 14.925000 0 255 0
3.591200 6.886200 18.056299 0 255 0
3.593000 7.230700 17.907400 0 255 0
4.248800 7.127500 15.346200 0 255 0
4.290000 6.890000 26.815001 0 255 0
4.290000 7.040000 15.309400 0 255 0
5.240000 7.432500 25.965000 0 255 0
4.624000 7.014000 5.954000 255 0 0
4.642400 6.976500 15.601800 255 0 0
4.637700 6.925300 12.451100 0 255 0
5.720000 6.460000 14.240000 0 255 0
5.742100 6.430000 11.263200 0 255 0
3.832400 7.084100 17.955299 0 255 0
4.610000 6.950000 21.780001 255 0 0
4.597100 6.978600 18.511400 255 0 0
4.580000 7.077500 12.207500 255 0 0
4.589500 7.027900 15.459500 255 0 0
5.183100 8.085900 13.662100 0 255 0
3.490900 7.381400 12.061700 0 255 0
4.560000 6.880000 21.120001 255 0 0
4.780000 6.920000 13.205000 255 0 0
4.797500 6.880000 16.355000 255 0 0
4.786300 7.027400 6.709200 255 0 0
4.783300 6.992800 9.858300 0 255 0
3.988600 7.727900 20.010000 0 255 0
4.920000 7.120000 7.580000 255 0 0
4.570000 7.060000 4.960000 255 0 0
4.593300 6.936700 14.613300 255 0 0
4.592200 6.989300 11.458500 255 0 0
4.583900 7.019000 8.109300 255 0 0
4.589400 7.632500 21.555599 0 255 0
4.596000 6.946000 12.164000 255 0 0
4.579700 7.019300 5.860000 255 0 0
4.594100 6.989400 8.906200 0 255 0
4.990000 7.140000 10.760000 0 255 0
4.980000 7.050000 17.260000 0 255 0
3.550000 7.235000 0.950000 0 255 0
4.480000 7.900000 15.910000 0 255 0
4.480000 7.980000 22.052500 0 255 0
4.940000 7.010000 24.870001 0 255 0
4.196700 6.993300 17.308300 0 255 0
4.139600 7.078800 17.317699 0 255 0
5.510000 6.300000 16.660000 0 255 0
5.491700 6.226700 19.918301 0 255 0
5.494400 6.282800 16.510599 0 255 0
5.930700 7.228600 11.264800 0 255 0
5.386000 6.570000 22.006001 0 255 0
4.600000 6.840000 22.549999 255 0 0
4.150000 8.000000 1.346700 0 255 0
4.193600 6.077600 1.361600 0 255 255
4.234000 7.840000 22.510000 0 255 0
4.050000 8.150000 1.290000 0 255 0
4.550000 8.000000 0.960000 0 255 0
4.530000 7.380000 13.610000 0 255 0
5.778800 7.142500 0.601300 0 255 255
5.787500 6.835000 20.355000 0 255 0
3.580000 6.720000 22.340000 0 255 0
5.631000 7.092000 0.604000 0 255 255
3.744300 6.332100 1.310000 0 255 255
3.710000 6.590000 22.610001 0 255 0
3.480000 7.375000 12.190000 0 255 0
5.355000 6.135000 23.450001 0 255 0
4.400000 7.680000 18.639999 0 255 0
4.376700 7.630000 21.696699 0 255 0
4.180000 7.880000 19.502501 0 255 0
4.533300 8.236700 1.166700 0 255 0
3.346700 6.870000 1.160000 0 255 255
5.032500 7.167500 17.215000 0 255 0
4.227500 7.327500 25.312500 0 255 0
5.097100 7.285700 0.794300 0 255 0
4.875000 7.176400 3.319600 255 0 0
4.430000 6.900000 21.650000 0 255 0
4.380000 7.180000 5.810000 255 0 0
4.960000 7.410000 20.100000 0 255 0
4.250000 7.890000 15.900000 0 255 0
3.637500 6.727500 18.252501 0 255 0
5.440000 7.488000 16.563999 0 255 0
3.800000 7.786700 12.160000 0 255 0
3.775000 7.745000 15.400000 0 255 0
3.844000 7.789000 15.706000 0 255 0
4.884000 6.270000 17.450701 0 255 0
4.905000 6.370000 23.764999 0 255 0
4.229600 7.884400 2.152400 0 255 0
4.250000 7.560000 21.780001 0 255 0
4.530000 7.910000 21.120001 0 255 0
4.785200 7.277800 5.608600 255 0 0
4.780000 7.313600 2.355700 255 0 0
4.670000 7.950000 1.760000 0 255 0
4.490000 6.600000 26.590000 0 255 0
4.446000 7.128000 2.894000 255 0 0
4.425000 7.225000 21.844999 0 255 0
3.770000 6.530000 26.020000 0 255 0
5.280000 6.410000 26.610001 0 255 0
4.050000 7.010000 19.160000 0 255 0
4.737900 6.945800 2.312300 255 0 0
4.746500 7.018500 8.809500 255 0 0
4.734600 6.988700 5.559900 255 0 0
3.640000 6.660000 20.370001 0 255 0
3.795000 7.180000 14.205000 0 255 0
3.793300 7.118300 17.461700 0 255 0
5.250000 6.410000 26.504999 0 255 0
5.500000 6.513300 11.266700 0 255 0
4.050000 7.174000 15.207000 0 255 0
5.345600 6.136700 19.910000 0 255 0
3.650000 6.890000 19.320000 0 255 0
5.275000 8.285000 1.105000 0 255 255
5.737500 7.067500 23.517500 0 255 0
5.637300 6.528700 14.968700 0 255 0
5.405000 6.590000 12.955000 0 255 0
5.386700 6.370000 26.006701 0 255 0
5.487500 6.975000 23.305000 0 255 0
5.393300 6.380000 25.961700 0 255 0
3.660000 6.940000 22.100000 0 255 0
4.940900 7.622700 0.857300 0 255 0
4.640800 7.332600 3.510100 255 0 0
4.650000 7.360000 6.760000 255 0 0
4.555000 6.915000 12.625000 0 255 0
4.533800 6.231300 19.159599 0 255 0
4.420000 8.110000 1.470000 0 255 0
4.430000 7.395000 16.155001 0 255 0
4.140000 6.170000 25.990000 0 255 0
4.540000 7.380000 4.420000 255 0 0
4.134300 6.941000 16.156700 0 255 0
5.080000 7.260000 25.070000 0 255 0
4.978600 6.185700 18.175699 0 255 0
4.234800 5.983000 12.198900 0 255 0
4.685000 5.992500 11.912500 0 255 0
4.035000 6.022500 23.805000 0 255 0
4.785000 7.180000 23.094999 0 255 0
4.810000 6.880000 16.540001 255 0 0
4.786200 7.030700 6.911400 255 0 0
4.780800 6.985400 10.057700 255 0 0
4.782900 6.935800 13.408800 255 0 0
4.710000 7.270000 15.190000 255 0 0
4.686700 6.980000 21.346701 255 0 0
4.675000 6.920000 24.510000 255 0 0
4.688300 7.275000 12.650000 255 0 0
4.700000 7.225000 15.911700 255 0 0
4.690000 6.940000 22.240000 255 0 0
4.430000 6.825000 17.995001 0 255 0
4.450000 6.880000 17.990000 0 255 0
5.280000 6.200000 21.860001 0 255 0
5.134000 7.842000 16.268000 0 255 0
5.132000 8.177000 13.565000 0 255 0
4.788800 6.878800 17.812799 255 0 0
4.785000 6.938300 14.555000 255 0 0
4.789900 7.030300 8.060800 255 0 0
4.785400 6.985400 11.308800 255 0 0
4.760000 7.210000 1.420000 255 0 0
4.751100 7.291100 4.552200 255 0 0
4.736700 7.623300 26.726700 0 255 0
4.730000 6.950000 7.962500 255 0 0
4.740500 6.980000 11.106100 255 0 0
3.941100 6.772200 18.150000 0 255 0
4.690000 7.230000 2.590000 255 0 0
4.670000 7.030000 15.680000 255 0 0
4.689800 6.976400 5.910100 255 0 0
4.687100 6.944200 9.163700 255 0 0
4.685600 6.940200 9.216000 255 0 0
4.689700 6.974200 6.060700 255 0 0
4.580000 7.090000 3.480000 255 0 0
4.600000 6.940000 12.910000 255 0 0
4.578000 7.016000 6.611000 255 0 0
4.595500 6.986800 9.759500 255 0 0
4.150000 7.410000 25.420000 0 255 0
4.880000 6.730000 17.910000 0 255 0
4.270000 6.610000 16.670000 0 255 0
4.310000 6.490000 26.480000 0 255 0
4.290000 6.650000 22.350000 0 255 0
5.490000 7.715000 0.845000 0 255 0
4.800000 7.224300 12.162900 255 0 0
4.786700 7.178900 15.306700 255 0 0
4.787100 6.986000 2.659800 0 255 0
4.853900 7.128700 3.160400 255 0 0
4.489000 6.979500 1.310500 255 0 0
4.560000 6.650000 26.629999 0 255 0
4.498800 7.081900 7.609700 255 0 0
4.486800 7.131000 4.362400 255 0 0
4.495000 7.245000 1.165000 255 0 0
4.510000 7.320000 7.460000 255 0 0
4.550000 6.750000 23.240000 0 255 0
4.490800 7.181200 4.310000 255 0 0
4.543300 6.730000 26.580000 0 255 0
4.487800 7.177300 7.409700 255 0 0
4.499500 7.221500 4.258700 0 255 0
3.440000 6.740000 1.103300 0 255 255
