9.093000 10.079000 17.209999 255 0 0
9.096000 10.234000 8.102000 255 0 0
9.083600 10.292700 4.963600 255 0 0
9.210000 10.725000 23.760000 0 255 0
9.484000 9.639000 1.361000 0 255 0
8.948200 10.179100 15.310900 255 0 0
8.095000 10.377500 1.515000 0 255 0
8.990700 10.644300 2.465000 255 0 0
8.980000 10.594300 7.571400 0 255 0
8.992500 10.472500 13.857500 255 0 0
8.986800 10.536400 10.813600 255 0 0
9.150000 10.110000 17.379999 255 0 0
9.150000 9.835000 23.700001 0 255 0
9.135000 10.285000 1.645000 0 255 0
9.142900 10.371400 7.958600 255 0 0
9.129700 10.341100 4.713300 255 0 0
9.782500 10.431200 18.508699 0 255 0
8.520000 9.520000 21.670000 0 255 0
9.795500 10.487300 18.411800 0 255 0
9.904000 10.528000 1.562000 0 255 0
9.140000 9.835000 23.670000 0 255 0
9.144000 10.284000 1.512000 0 255 0
9.155000 10.375000 8.005000 255 0 0
9.141400 10.132900 17.507099 255 0 0
9.134500 10.340200 4.857900 255 0 0
10.040000 10.910000 2.460000 0 255 255
8.120000 9.620000 25.670000 0 255 0
8.990000 10.260000 18.150000 255 0 0
8.993300 10.336700 15.010000 255 0 0
9.650000 10.175000 1.170000 0 255 0
9.638700 10.426200 17.451200 0 255 0
9.720000 10.050000 1.820000 0 255 0
8.570000 10.730000 1.800000 0 255 0
9.733300 10.286700 17.469999 0 255 0
9.198200 11.072700 17.554501 0 255 0
9.350000 9.470000 20.400000 0 255 0
8.635000 11.020000 18.610001 0 255 0
9.220000 10.460000 8.420000 255 0 0
9.695700 9.335700 22.059999 0 255 0
9.836700 10.283300 18.462200 0 255 0
8.688300 9.880000 23.758301 0 255 0
8.570000 10.660000 22.129999 0 255 0
8.610000 9.920000 18.915001 0 255 0
8.800000 10.450000 13.310000 0 255 0
9.680000 9.700000 25.170000 0 255 0
9.330000 10.330000 18.305000 0 255 0
8.390000 9.280000 18.879999 0 255 0
8.830000 9.836700 24.523300 0 255 0
9.510000 9.730000 25.379999 0 255 0
8.840000 10.990000 22.100000 0 255 0
8.855000 10.527800 4.163900 255 0 0
8.230000 11.240000 1.340000 0 255 0
8.939500 10.535700 9.106700 255 0 0
8.925000 10.492000 5.966000 255 0 0
8.947100 10.566400 9.017900 255 0 0
9.380000 9.950000 26.520000 0 255 0
8.932400 10.530400 5.955200 255 0 0
8.587100 10.172100 17.457100 0 255 0
9.732000 10.582000 17.462700 0 255 0
8.650000 8.950000 22.320000 0 255 0
8.630000 10.760000 1.510000 0 255 0
9.690000 10.324400 17.347799 0 255 0
8.420000 10.730000 20.549999 0 255 0
8.760000 11.050000 23.570000 0 255 0
9.595000 10.476700 17.504200 0 255 0
8.370000 10.420000 1.600000 0 255 0
8.375000 10.430000 1.495000 0 255 0
8.433300 10.526700 1.413300 0 255 0
8.550000 10.000000 16.260000 0 255 0
8.535000 10.685000 19.514999 0 255 0
8.560000 10.750000 22.879999 0 255 0
8.590000 10.626700 22.053301 0 255 0
8.536700 9.983300 18.706699 0 255 0
8.489100 9.978200 15.107300 0 255 0
8.490000 10.140000 15.310000 0 255 0
8.510000 10.180000 24.590000 0 255 0
8.883600 10.581900 4.257400 255 0 0
8.901300 10.523700 9.061300 255 0 0
8.883300 10.420000 2.913300 255 0 0
8.895500 10.380200 6.062300 255 0 0
8.237500 10.290000 14.730000 0 255 0
9.230000 10.170000 12.340000 255 0 0
9.238300 10.223300 15.618300 255 0 0
9.220000 10.330000 9.115000 255 0 0
8.880300 10.478600 4.759700 255 0 0
8.440000 10.750000 1.110000 0 255 0
9.098000 10.534000 2.362000 255 0 0
9.083300 10.078300 18.010000 255 0 0
9.080000 10.250000 8.910000 255 0 0
9.090000 10.025000 21.170000 255 0 0
9.089800 10.270200 5.759400 255 0 0
7.943300 9.823300 16.264999 0 255 0
8.080000 9.815000 16.299999 0 255 0
9.725000 10.425000 1.265000 0 255 0
9.486700 10.483300 1.190000 0 255 0
9.470000 9.275000 26.510000 0 255 0
9.490000 10.229300 17.407600 0 255 0
7.895000 10.196300 14.976300 0 255 0
9.710000 10.130000 17.290001 0 255 0
8.850000 9.370000 19.459999 0 255 0
8.540000 9.022000 19.801001 0 255 0
7.790000 10.790000 1.580000 0 255 255
8.444300 9.133600 19.808599 0 255 0
9.488900 9.235600 17.503300 0 255 0
8.395700 9.577100 18.915701 0 255 0
8.843300 9.533300 1.453300 0 255 0
8.780000 10.520000 17.315001 0 255 0
8.490000 10.350000 15.750000 0 255 0
8.684300 9.135700 19.807100 0 255 0
8.690300 10.378100 17.318899 0 255 0
9.320000 11.670000 2.430000 0 255 255
8.950000 10.190000 13.400000 255 0 0
8.940700 10.230000 16.658001 255 0 0
8.430000 9.480000 19.020000 0 255 0
8.440000 9.390000 25.490000 0 255 0
9.880000 10.440000 22.264999 0 255 0
9.000000 10.370000 5.017500 0 255 0
8.993300 10.173300 17.256701 255 0 0
8.982900 10.321400 8.261700 255 0 0
8.987900 10.224300 14.554300 255 0 0
8.996300 10.284700 11.310300 255 0 0
7.986000 9.781700 15.112300 0 255 0
8.620000 11.080000 1.230000 0 255 0
8.651200 10.728700 17.309999 0 255 0
8.810000 10.020000 18.950001 0 255 0
9.147500 10.382500 15.215000 255 0 0
9.128200 10.579000 2.559700 255 0 0
9.145000 10.315000 12.055000 255 0 0
9.132000 10.030000 18.198000 255 0 0
9.127500 10.245000 5.562500 255 0 0
9.136100 10.289400 8.707200 255 0 0
9.585600 11.384400 2.067800 0 255 0
9.660000 10.680000 24.000000 0 255 0
8.696700 9.966700 17.500000 0 255 0
8.740000 10.140000 24.370001 0 255 0
8.736700 9.620000 18.795000 0 255 0
8.895700 10.381400 10.058600 255 0 0
8.898600 10.429500 6.908800 0 255 0
8.443700 10.718800 19.447500 0 255 0
9.230000 10.850000 23.680000 0 255 0
9.090000 10.322500 1.812500 0 255 0
9.103300 10.126700 14.080000 255 0 0
9.100000 10.560000 26.629999 0 255 0
8.130000 10.940000 1.480000 0 255 0
8.030000 9.623300 16.416700 0 255 0
8.390000 9.480000 21.799999 0 255 0
8.390000 9.527500 18.667500 0 255 0
9.841700 10.387200 18.417801 0 255 0
8.820000 9.850000 21.590000 0 255 0
8.830000 8.960000 19.680000 0 255 0
8.540000 10.570000 20.320000 0 255 0
8.880000 10.075000 19.100000 255 0 0
7.983500 9.732900 15.070600 0 255 0
8.860000 9.680000 19.389999 0 255 0
7.920000 10.180000 1.460000 0 255 255
7.955000 9.990000 22.355000 0 255 0
9.975000 10.040000 18.360001 0 255 0
9.453300 9.120000 20.563299 0 255 0
8.460000 11.330000 1.360000 0 255 0
8.980000 9.320000 23.889999 0 255 0
9.441500 9.279600 17.458099 0 255 0
8.941600 10.667900 4.614000 0 255 0
9.390000 9.880000 17.260000 0 255 0
8.940000 10.960000 23.545000 0 255 0
8.790000 10.370000 24.389999 0 255 0
8.840000 9.880000 22.606701 0 255 0
8.842000 9.526000 1.270000 0 255 0
9.770000 10.360000 1.220000 0 255 0
9.620000 10.280000 22.330000 0 255 0
9.000000 9.783300 17.376699 0 255 0
9.010000 9.240000 19.840000 0 255 0
10.091000 10.623000 1.864000 0 255 0
8.641400 9.629300 18.712099 0 255 0
9.486000 11.638000 2.502000 0 255 0
8.840000 9.485000 25.370001 0 255 0
8.430000 9.270000 19.760000 0 255 0
9.150000 10.490000 10.840000 255 0 0
9.160000 10.425000 7.720000 255 0 0
9.139100 10.579100 17.363501 0 255 0
9.140000 10.530600 17.352200 0 255 0
8.696700 9.290000 19.956699 0 255 0
8.348300 9.780000 16.360001 0 255 0
9.044000 10.188000 11.802000 255 0 0
9.038200 10.271000 5.659800 255 0 0
8.970000 10.170000 18.129999 255 0 0
8.990000 10.440000 2.270000 255 0 0
8.970000 10.130000 21.260000 255 0 0
8.985800 10.280000 12.162100 255 0 0
8.985800 10.321900 9.008300 0 255 0
8.981400 10.224300 15.317100 255 0 0
9.480000 10.710000 13.470000 0 255 0
9.190000 9.695000 21.570000 0 255 0
9.184300 10.380500 8.308600 255 0 0
9.192500 10.430200 5.162000 255 0 0
9.820000 11.110000 15.140000 0 255 0
8.860000 10.090000 22.260000 255 0 0
8.620000 10.510000 1.580000 0 255 0
9.700000 11.010000 1.570000 0 255 0
8.655000 10.370000 17.459999 0 255 0
9.588900 11.332200 15.111100 0 255 0
9.730000 9.500000 23.990000 0 255 0
9.720000 9.380000 17.480000 0 255 0
9.245300 9.681200 17.320000 0 255 0
9.230000 9.513300 17.446699 0 255 0
10.030000 10.160000 18.520000 0 255 0
9.050000 10.670000 23.594999 0 255 0
8.931500 10.434100 10.512100 255 0 0
8.944400 10.341500 4.009300 0 255 0
8.932700 10.379500 7.260800 255 0 0
7.926700 10.626700 1.610000 0 255 0
8.085000 9.831700 22.501699 0 255 0
9.850000 9.482000 22.906000 0 255 0
8.595000 9.735000 24.697500 0 255 0
9.795000 10.630000 1.565000 0 255 0
8.400000 10.345000 14.905000 0 255 0
9.080000 9.130000 26.490000 0 255 0
8.841600 9.181600 19.460400 0 255 0
8.240000 9.880000 17.500000 0 255 0
8.400000 10.332500 24.455000 0 255 0
8.981700 10.380000 14.100000 255 0 0
8.972000 10.430000 10.814000 255 0 0
8.990000 10.315000 17.350000 255 0 0
8.734200 10.879200 14.963700 0 255 0
8.733200 11.068800 1.910300 0 255 0
9.590000 10.221700 18.448299 0 255 0
9.100000 10.470000 7.440000 255 0 0
9.110000 10.530000 17.219999 0 255 0
8.660000 10.330000 1.090000 0 255 0
9.200000 10.390000 16.290001 0 255 0
9.180700 10.533900 6.857900 255 0 0
9.190000 10.440000 13.153300 255 0 0
9.194000 10.482500 10.008000 255 0 0
9.170000 9.580000 26.370001 0 255 0
8.610000 10.460000 15.730000 0 255 0
9.310000 10.060000 1.490000 0 255 0
9.294000 9.574000 20.305300 0 255 0
8.742600 10.386600 17.317400 0 255 0
8.493800 10.036900 17.411501 0 255 0
8.710000 9.990000 16.280001 0 255 0
8.960000 10.250000 5.695000 255 0 0
8.957100 10.290000 9.704300 0 255 0
8.940700 10.327200 12.860800 255 0 0
9.084500 10.334300 3.752700 255 0 0
9.078000 10.188000 13.556000 255 0 0
9.083800 10.125000 16.812500 255 0 0
9.090000 10.130000 17.804001 255 0 0
9.089300 10.182000 14.565300 255 0 0
9.088800 10.333000 4.355700 255 0 0
9.033700 9.386300 17.456301 0 255 0
9.000000 10.373300 2.056700 255 0 0
9.006700 10.230000 11.513300 255 0 0
9.010000 10.060000 21.799999 255 0 0
8.986400 10.182800 15.507600 255 0 0
8.990300 10.319700 5.208600 255 0 0
8.994300 10.291100 8.361100 255 0 0
9.490000 10.227500 1.310800 0 255 0
9.030000 10.020000 23.760000 255 0 0
9.047500 10.120000 17.465000 255 0 0
9.045000 10.237500 11.122500 255 0 0
9.038000 10.322600 4.813000 255 0 0
9.038000 10.344000 1.462000 0 255 0
9.020000 10.190000 17.670000 255 0 0
9.035500 10.365500 4.607300 255 0 0
9.055000 10.030000 20.805000 255 0 0
9.037000 10.130000 14.516000 255 0 0
9.039200 10.278500 10.908200 255 0 0
9.050000 10.240000 1.510000 0 255 0
9.035000 10.085000 17.409000 255 0 0
9.036500 10.286700 4.759800 255 0 0
9.020000 10.060000 19.910000 255 0 0
9.020000 9.980000 26.040001 0 255 0
9.040000 9.950000 22.790001 255 0 0
9.020000 10.020000 16.650000 255 0 0
9.040300 10.289700 7.262100 255 0 0
9.042500 10.189000 13.414000 255 0 0
8.685000 10.395000 1.220000 0 255 0
9.080000 10.160000 9.040000 0 255 0
9.100000 9.980000 21.690001 255 0 0
9.222500 10.420000 9.065000 255 0 0
9.228700 10.386300 5.813700 255 0 0
9.130000 9.986700 1.540000 0 255 0
9.270000 10.400000 8.950000 255 0 0
9.280000 9.865000 21.555000 0 255 0
9.990000 9.726700 24.956699 0 255 0
9.974000 10.220000 18.420000 0 255 0
9.193700 10.432400 5.107800 255 0 0
9.179600 10.379100 8.357000 255 0 0
9.436700 11.120000 1.370000 0 255 0
8.890000 10.466700 11.350000 255 0 0
8.900300 10.526600 8.107200 255 0 0
8.901400 10.385900 4.610200 255 0 0
9.688700 11.428800 1.915000 0 255 0
9.745000 10.427500 1.355000 0 255 0
8.870000 9.720000 19.219999 0 255 0
9.170000 10.430000 2.090000 255 0 0
9.184100 10.379800 5.362900 255 0 0
8.130000 9.430000 16.360001 0 255 0
8.170000 10.210000 16.320000 0 255 0
9.644300 10.334300 17.270000 0 255 0
8.240000 10.350000 1.430000 0 255 0
8.280000 10.850000 22.000000 0 255 0
8.276700 10.883300 18.846701 0 255 0
8.350000 9.525000 18.924999 0 255 0
9.244300 11.137100 19.010000 0 255 0
8.485000 11.190000 1.400000 0 255 0
9.236700 10.466700 10.300000 255 0 0
9.180000 10.577500 14.497500 0 255 0
9.180000 10.925000 17.405001 0 255 0
10.024300 10.978600 2.164300 0 255 255
8.795000 10.910000 15.005000 0 255 0
9.783300 10.533300 21.776699 0 255 0
9.795000 10.587500 18.503799 0 255 0
8.755000 11.070000 1.205000 0 255 0
9.597500 10.232500 17.545000 0 255 0
9.100000 8.920000 22.520000 0 255 0
9.205000 9.170000 20.860001 0 255 0
9.500000 11.380000 1.797500 0 255 0
9.792400 9.887100 18.361799 0 255 0
9.441200 9.783800 1.617500 0 255 0
8.685000 9.110000 21.309999 0 255 0
8.900000 10.093300 19.356701 255 0 0
8.890000 10.210000 22.610001 0 255 0
8.630000 9.870000 17.400000 0 255 0
8.450000 10.940000 23.120001 0 255 0
8.780000 10.183300 1.710000 0 255 0
8.780000 10.280000 21.650000 0 255 0
9.543100 11.176900 15.164400 0 255 0
8.803300 10.490000 4.290000 255 0 0
8.586700 10.573300 1.170000 0 255 0
9.160000 11.320000 1.980000 0 255 0
9.140000 10.190000 13.960000 255 0 0
9.136000 10.390000 1.702000 0 255 0
8.470000 10.530000 1.420000 0 255 0
9.240000 11.100000 18.959999 0 255 0
8.960000 10.515000 12.950000 255 0 0
8.939700 10.479700 9.708800 255 0 0
8.934300 10.424300 6.207100 255 0 0
8.929300 10.366000 2.960000 255 0 0
9.550000 10.445000 21.950001 0 255 0
8.778300 11.181700 18.900000 0 255 0
9.235000 10.290000 12.460000 255 0 0
9.530000 11.350000 1.900000 0 255 0
9.157300 10.533900 3.512300 255 0 0
9.140000 10.326000 16.559999 255 0 0
9.143200 10.583600 6.664400 255 0 0
9.143300 10.270000 13.410000 255 0 0
9.127800 10.236700 10.267800 255 0 0
9.770000 10.290000 17.559999 0 255 0
9.690300 11.385900 2.103400 0 255 0
9.055000 10.180000 21.145000 255 0 0
9.041700 10.236700 12.261300 255 0 0
9.035000 10.121700 18.011700 255 0 0
8.990000 9.950000 17.590000 0 255 0
8.980000 10.540000 8.140000 255 0 0
8.993800 10.428800 14.457500 255 0 0
8.984000 10.486000 11.310000 255 0 0
8.992500 10.247500 11.262500 255 0 0
8.980000 10.080000 20.670000 255 0 0
8.990900 10.322800 4.758800 255 0 0
8.986700 10.132200 17.405600 255 0 0
8.998300 10.188300 14.161700 255 0 0
8.989500 10.285300 8.009000 255 0 0
9.703300 11.166700 1.550000 0 255 0
9.010000 10.250000 7.910000 255 0 0
8.995000 10.325000 1.620000 0 255 0
9.000000 10.010000 20.570000 255 0 0
9.000600 10.292800 4.760300 255 0 0
8.997000 10.085000 17.412001 255 0 0
8.643300 10.831700 14.948300 0 255 0
9.035000 10.130000 20.860001 255 0 0
9.050000 10.300000 17.370001 255 0 0
9.032100 10.324300 7.803600 255 0 0
9.037000 10.220000 14.115000 255 0 0
9.090000 9.327500 19.665001 0 255 0
9.870000 9.300000 24.080000 0 255 0
9.900000 11.210000 1.920000 0 255 255
8.753300 10.376700 1.903300 255 0 0
8.737500 11.040000 20.902500 0 255 0
8.760000 10.930000 18.690001 0 255 0
9.050000 9.940000 23.940001 255 0 0
9.060000 10.060000 20.379999 255 0 0
9.043300 10.368600 1.810000 0 255 0
9.042500 10.037500 17.205000 255 0 0
9.038300 10.182300 14.056900 255 0 0
9.035500 10.283300 8.108300 255 0 0
9.210000 10.300000 8.900000 255 0 0
9.187500 10.185000 15.412500 255 0 0
9.190000 10.230000 12.145000 255 0 0
9.186100 10.335100 5.657800 255 0 0
9.220000 10.240000 11.890000 255 0 0
9.225000 10.345000 5.600000 255 0 0
8.720000 9.940000 18.440001 0 255 0
8.733800 10.286200 14.862300 0 255 0
9.220000 10.430000 8.330000 255 0 0
9.220000 10.390000 5.160000 255 0 0
9.638500 11.329500 15.056000 0 255 0
9.760000 10.190000 17.340000 0 255 0
9.947100 10.732900 1.708600 0 255 0
9.928600 10.318600 22.155701 0 255 0
9.000000 10.530000 26.650000 0 255 0
8.980000 10.560000 23.520000 0 255 0
8.630000 10.292500 14.865000 0 255 0
8.030000 9.630000 22.453300 0 255 0
9.830000 10.760000 2.560000 0 255 0
8.500000 9.480000 21.705000 0 255 0
9.742000 10.938000 1.854000 0 255 0
8.580000 10.428000 14.904000 0 255 0
9.725000 11.130000 14.915000 0 255 0
8.196000 9.828000 22.468000 0 255 0
9.205000 10.300000 6.800000 255 0 0
9.180000 10.340000 3.560000 255 0 0
9.180000 10.200000 13.130000 255 0 0
9.220000 10.523300 5.316700 0 255 0
9.225000 10.400000 8.680000 255 0 0
9.231800 10.423600 11.819100 255 0 0
9.235500 10.134500 1.564500 0 255 0
8.102500 11.137500 1.517500 0 255 0
9.250000 10.634600 13.254600 0 255 0
7.990000 9.860000 15.260000 0 255 0
8.387500 10.677500 19.320000 0 255 0
8.290000 10.836700 20.514999 0 255 0
9.443000 11.335000 15.259000 0 255 0
8.840000 10.090000 1.050000 0 255 0
8.845000 10.290000 14.490000 255 0 0
8.850000 10.374700 8.007600 255 0 0
8.396000 10.932000 22.108000 0 255 0
8.305000 10.935000 18.924999 0 255 0
8.040000 11.080000 1.720000 0 255 0
9.000000 9.730000 19.313299 0 255 0
9.494500 9.531500 17.416000 0 255 0
9.490000 9.610000 23.910000 0 255 0
9.182500 10.292500 5.470000 255 0 0
9.097500 10.319400 8.462500 255 0 0
9.103300 10.363300 5.206700 255 0 0
8.335000 9.235000 20.660000 0 255 0
8.973300 9.683300 19.296700 0 255 0
9.750000 9.650000 25.049999 0 255 0
9.249000 10.674000 14.498000 0 255 0
9.130000 11.140000 17.370001 0 255 0
9.155000 11.282500 1.565000 0 255 0
9.000000 9.885000 24.465000 255 0 0
8.790000 10.473300 17.263300 0 255 0
8.580000 10.540000 1.515000 0 255 0
8.591600 10.326900 14.558200 0 255 0
9.181600 10.528400 9.207900 0 255 0
9.170000 10.480000 12.456700 255 0 0
9.200000 10.190000 6.090000 255 0 0
9.188900 9.133000 19.705900 0 255 0
9.220000 10.300000 4.400000 255 0 0
9.255000 10.490000 17.450001 0 255 0
9.240000 10.340000 7.560000 255 0 0
9.230000 10.250000 13.850000 255 0 0
9.089400 10.327100 1.567600 0 255 0
9.082500 10.142500 14.202500 255 0 0
8.530000 9.650000 20.305000 0 255 0
9.385000 9.035000 22.215000 0 255 0
9.738600 11.274100 2.400500 0 255 0
9.383300 10.276700 22.226700 0 255 0
8.945800 10.228400 15.055800 0 255 0
8.945000 9.725000 19.302500 0 255 0
8.940000 9.875000 24.705000 255 0 0
8.940000 9.950000 21.860001 255 0 0
9.585000 9.135000 21.195000 0 255 0
8.570000 9.300000 20.700001 0 255 0
9.940000 10.190000 1.500000 0 255 0
9.493300 9.486700 17.503300 0 255 0
9.745000 11.045000 1.842500 0 255 0
8.594000 10.340000 14.907300 0 255 0
9.734800 11.235200 14.907000 0 255 0
8.100000 10.310000 1.180000 0 255 0
9.260000 10.140000 18.360001 0 255 0
9.586700 10.180000 18.463301 0 255 0
9.150000 9.810000 1.320000 0 255 0
9.740000 9.660000 22.840000 0 255 0
9.740000 10.935000 1.610000 0 255 0
8.600000 10.370000 17.490000 0 255 0
9.184000 10.290000 15.112000 255 0 0
9.191200 10.326500 11.864100 255 0 0
9.950000 10.273300 18.373301 0 255 0
8.991400 10.673200 17.361099 0 255 0
8.970000 10.100000 19.250000 255 0 0
8.990000 10.200000 12.740000 255 0 0
9.005000 10.245000 9.465000 255 0 0
8.980000 10.020000 22.520000 0 255 0
8.990000 10.135000 16.005699 255 0 0
8.990100 10.330000 2.963200 255 0 0
8.987800 10.278600 6.209900 255 0 0
8.752500 10.530000 2.510000 255 0 0
9.584200 11.231100 15.155800 0 255 0
9.240000 10.275000 5.710000 255 0 0
9.235000 10.320000 8.855000 255 0 0
9.176700 10.223300 11.763300 255 0 0
9.180700 10.338000 5.256000 255 0 0
9.737400 11.434800 2.210400 0 255 0
9.982200 10.673300 1.804400 0 255 0
8.690000 10.750000 17.559999 0 255 0
8.692500 10.876300 20.799999 0 255 0
9.970000 10.250000 1.710000 0 255 0
9.842900 10.782900 1.661400 0 255 0
8.535000 10.670000 23.549999 0 255 0
8.540000 10.633300 20.400000 0 255 0
8.689000 9.934000 17.277000 0 255 0
8.580000 10.590000 1.270000 0 255 0
7.950000 9.880000 17.820000 0 255 0
8.545200 9.680000 18.759001 0 255 0
8.490000 10.990000 22.020000 0 255 0
8.670000 10.390000 15.930000 0 255 0
8.595000 10.925000 20.807501 0 255 0
8.950000 10.180000 19.145000 255 0 0
8.953300 10.123300 16.000000 255 0 0
9.700000 11.331200 2.155600 0 255 0
8.950000 10.220000 21.209999 255 0 0
8.960000 10.150000 14.700000 255 0 0
8.952500 10.182500 18.055000 255 0 0
8.941400 10.647100 2.450000 255 0 0
8.940000 10.210000 17.950001 255 0 0
8.930000 10.280000 21.469999 0 255 0
8.952500 10.182500 14.700000 255 0 0
8.935000 10.296300 2.306200 255 0 0
8.935200 10.426400 11.764000 0 255 0
8.930000 10.376300 8.609000 255 0 0
8.932400 10.322100 5.462400 255 0 0
8.947800 10.378900 14.507800 255 0 0
8.948000 10.289300 8.011300 255 0 0
8.950000 10.332900 11.157400 255 0 0
8.110000 10.580000 24.660000 0 255 0
8.082500 10.325000 1.570000 0 255 0
8.920000 9.010000 19.980000 0 255 0
8.933300 10.535200 8.510000 255 0 0
8.928300 10.481700 5.358300 255 0 0
8.930000 10.636700 14.815000 0 255 0
8.610000 9.590000 21.690001 0 255 0
8.597300 10.920000 14.810700 0 255 0
8.260000 9.920000 15.060000 0 255 0
8.250000 9.175000 23.315001 0 255 0
9.220000 11.360000 1.580000 0 255 0
8.870000 9.500000 25.430000 0 255 0
9.448200 11.338800 15.212400 0 255 0
8.405600 10.436700 1.956700 0 255 0
8.187500 10.335000 21.065001 0 255 0
8.185700 10.372900 17.902901 0 255 0
9.100000 10.545000 2.460000 255 0 0
9.100000 10.065000 18.309999 255 0 0
9.095000 10.030000 21.480000 255 0 0
9.092700 10.273100 5.664000 255 0 0
9.088900 10.234400 8.812200 255 0 0
8.897500 9.680000 23.717501 0 255 0
8.985000 10.172500 17.617500 255 0 0
8.980000 10.120000 20.770000 255 0 0
8.985600 10.323300 7.710400 255 0 0
8.983400 10.228800 14.210600 255 0 0
8.993600 10.284800 11.061600 255 0 0
8.987700 10.369600 4.556200 255 0 0
9.028000 10.468000 14.214000 255 0 0
9.038300 10.326700 17.111700 255 0 0
9.040200 10.677800 3.959800 255 0 0
9.037800 10.596700 7.713300 255 0 0
9.610000 9.790000 22.860001 0 255 0
8.700000 9.280000 25.455000 0 255 0
9.740000 10.545000 22.305000 0 255 0
8.110000 9.870000 15.120000 0 255 0
10.010000 9.980000 25.110001 0 255 0
8.730000 9.850000 20.219999 0 255 0
8.782900 9.922900 20.248600 0 255 0
8.395000 10.390000 1.515000 0 255 0
8.370000 10.150000 17.270000 0 255 0
9.841000 10.777900 2.315600 0 255 0
9.210000 10.250000 23.770000 0 255 0
9.442000 9.118000 20.900000 0 255 0
9.793200 10.521600 1.708400 0 255 0
9.270000 10.210000 13.800000 255 0 0
8.193300 9.330000 21.959999 0 255 0
8.430000 10.940000 22.980000 0 255 0
9.860000 11.200000 2.430000 0 255 0
9.146300 10.538800 10.453700 255 0 0
9.150400 10.419800 4.158500 255 0 0
9.130000 10.210000 16.809999 255 0 0
8.376700 9.830000 16.306700 0 255 0
8.740000 9.880000 20.410000 0 255 0
9.930000 9.640000 23.250000 0 255 0
8.590000 9.560000 25.110001 0 255 0
8.610000 9.680000 18.610001 0 255 0
8.390000 9.236700 25.156700 0 255 0
8.388200 9.326400 18.870001 0 255 0
9.220000 10.130000 18.430000 0 255 0
10.038000 10.780000 2.444000 0 255 0
10.090000 10.783300 1.863300 0 255 255
9.333300 11.333300 2.503300 0 255 0
9.420000 11.190000 1.880000 0 255 0
9.441000 10.077000 22.257000 0 255 0
8.882200 10.573300 14.912800 0 255 0
8.893700 10.527900 5.257400 255 0 0
8.895600 10.474000 8.406400 255 0 0
9.688600 11.381900 2.070000 0 255 0
8.844000 9.976000 18.865999 0 255 0
8.860000 10.040000 22.100000 255 0 0
9.740000 10.240000 1.520000 0 255 0
8.729200 9.523300 1.498300 0 255 0
9.000000 10.470000 2.010000 255 0 0
9.010000 10.420000 5.140000 255 0 0
8.980000 10.270000 15.045000 255 0 0
8.985000 10.365000 8.560000 255 0 0
8.976700 10.236700 18.203300 255 0 0
8.983000 10.318000 11.709000 255 0 0
9.339000 11.078000 18.912001 0 255 0
9.333300 11.080000 19.059999 0 255 0
9.020000 9.940000 24.889999 255 0 0
9.060000 10.070000 21.830000 255 0 0
9.047500 10.370900 2.059400 255 0 0
9.044000 10.173000 15.509500 255 0 0
9.042000 10.285400 8.358000 255 0 0
9.042000 10.028000 18.559999 255 0 0
8.887700 10.827300 15.002700 0 255 0
8.886400 10.635500 3.159400 255 0 0
8.895000 10.567500 6.317500 255 0 0
9.082200 10.275600 1.548900 0 255 0
9.070000 9.890000 26.850000 0 255 0
9.095000 10.050000 17.350000 255 0 0
9.094000 10.322000 11.212000 255 0 0
9.446200 11.390000 1.756200 0 255 0
8.445000 10.075000 1.405000 0 255 0
10.000000 10.720000 1.610000 0 255 0
9.940000 10.613300 1.666700 0 255 0
9.341800 10.672400 17.514099 0 255 0
8.846700 9.980000 22.613300 255 0 0
8.945000 10.195000 13.125000 255 0 0
8.939300 10.232700 16.359301 255 0 0
9.037500 9.767500 17.457500 0 255 0
9.855000 11.120000 1.755000 0 255 0
8.630000 10.685000 22.040001 0 255 0
8.830000 11.695000 2.300000 0 255 255
9.490000 10.410000 21.629999 0 255 0
8.720000 10.520000 24.260000 0 255 0
8.740000 10.015000 18.320000 0 255 0
8.730000 9.930000 12.020000 0 255 0
8.750000 10.080000 18.410000 0 255 0
8.760000 9.990000 11.930000 0 255 0
8.710000 10.770000 14.780000 0 255 0
9.855000 10.775000 2.130000 0 255 0
9.543300 9.626700 17.410000 0 255 0
8.591400 11.124300 20.858601 0 255 0
9.723300 10.376700 17.613300 0 255 0
9.870000 10.700000 1.630000 0 255 0
8.435000 9.865000 23.860001 0 255 0
9.934700 10.329400 18.512899 0 255 0
8.650000 10.340000 15.770000 0 255 0
8.420000 10.950000 21.900000 0 255 0
8.640000 9.030000 21.165001 0 255 0
8.945400 10.571300 6.105800 255 0 0
8.635000 11.080000 22.110001 0 255 0
8.002900 10.725700 1.652900 0 255 0
8.280000 10.930000 19.049999 0 255 0
9.830000 11.170000 1.965000 0 255 0
8.545000 10.431900 15.773800 0 255 0
9.225000 10.330000 6.060000 255 0 0
8.250000 10.676700 1.366700 0 255 0
8.293300 9.733300 16.180000 0 255 0
8.280000 9.430000 22.889999 0 255 0
9.692500 10.480000 1.117500 0 255 0
8.640800 10.382300 15.761200 0 255 0
8.400000 11.395000 1.425000 0 255 0
8.792500 10.132500 18.947500 0 255 0
9.898100 11.331100 2.364600 0 255 255
9.200000 10.423300 1.373300 0 255 0
9.184300 10.390000 4.515700 255 0 0
9.940000 9.636700 25.053301 0 255 0
8.960000 10.110000 1.090000 0 255 0
8.940000 10.283300 11.010000 255 0 0
8.942100 10.329600 14.163600 255 0 0
8.744000 10.890000 14.998000 0 255 0
8.747500 11.062500 1.952500 0 255 0
9.593300 10.238300 18.406700 0 255 0
9.710000 10.880000 2.500000 0 255 0
9.693300 11.077500 15.155000 0 255 0
9.740000 10.281400 22.102900 0 255 0
8.345000 9.435000 16.400999 0 255 0
8.340000 9.420000 16.090000 0 255 0
8.350000 9.460000 20.719999 0 255 0
8.197500 9.927500 1.397500 0 255 0
8.070000 10.430000 16.160000 0 255 0
8.360000 10.180000 1.360000 0 255 0
8.860000 10.220000 17.879999 255 0 0
8.343300 9.683300 1.510000 0 255 0
8.880000 10.510000 11.190000 255 0 0
8.891300 10.426900 4.660400 0 255 0
8.901700 10.380000 7.913700 255 0 0
8.792500 11.127500 17.368799 0 255 0
9.536500 10.432200 17.366100 0 255 0
8.786000 10.846000 20.865999 0 255 0
8.950000 10.810000 24.900000 0 255 0
8.960000 10.570000 10.590000 255 0 0
8.920000 10.480000 4.320000 255 0 0
8.931800 10.532700 7.555500 255 0 0
8.038600 10.028600 1.312900 0 255 255
8.940000 10.560000 10.650000 255 0 0
8.925600 10.537800 7.502200 255 0 0
8.790000 10.170000 18.830000 0 255 0
8.735300 10.286000 14.505300 0 255 0
8.870000 10.150000 19.670000 255 0 0
8.580000 9.970000 1.080000 0 255 0
8.440000 10.500000 1.150000 0 255 0
8.880000 10.460000 2.930000 255 0 0
8.890000 10.570000 9.210000 255 0 0
9.025000 10.365000 15.225000 255 0 0
9.020000 10.220000 18.340000 255 0 0
9.048500 10.565400 10.710000 255 0 0
9.022500 10.447500 13.952500 255 0 0
9.260000 9.850000 26.559999 0 255 0
9.235000 10.377500 9.967500 255 0 0
8.553300 10.393300 15.773300 0 255 0
9.540000 10.226700 1.200000 0 255 0
9.610000 11.020000 15.140000 0 255 0
8.720000 10.635000 21.655001 0 255 0
8.750000 10.590000 18.430000 0 255 0
8.687800 9.678900 18.674400 0 255 0
8.646700 10.878300 14.963300 0 255 0
8.890000 10.660000 17.280001 0 255 0
8.871700 10.536700 3.855000 255 0 0
8.896100 10.476700 7.011200 255 0 0
9.640000 10.710000 1.510000 0 255 0
8.684200 10.377500 17.351700 0 255 0
8.430000 11.040000 1.630000 0 255 0
9.750000 10.870000 1.430000 0 255 0
8.090000 9.820000 20.799999 0 255 0
8.900000 10.250000 16.850000 255 0 0
9.740000 11.140000 1.563300 0 255 0
8.600000 10.436700 1.566700 0 255 0
9.487500 10.083800 1.263800 0 255 0
8.370000 9.790000 22.450001 0 255 0
8.950000 10.300000 3.530000 255 0 0
8.935200 10.328500 6.658200 0 255 0
8.950800 10.431700 12.961700 255 0 0
8.938000 10.380200 9.814000 255 0 0
9.390000 10.150000 18.389999 0 255 0
9.520000 9.100000 21.879999 0 255 0
9.650000 11.327800 2.104400 0 255 0
8.490000 10.366700 17.366699 0 255 0
9.540000 10.110000 1.850000 0 255 0
9.138100 9.670000 1.466800 0 255 0
9.125000 9.535000 17.465000 0 255 0
8.691900 11.184400 20.760000 0 255 0
9.825000 10.285000 17.250000 0 255 0
8.590000 10.840000 23.590000 0 255 0
9.995000 10.090000 23.325001 0 255 0
8.950000 9.990000 19.760000 255 0 0
8.620000 9.170000 21.120001 0 255 0
9.705000 11.265000 2.155000 0 255 0
9.640000 11.370000 1.930000 0 255 0
9.210000 11.320000 1.530000 0 255 0
9.546700 10.436700 18.353300 0 255 0
9.145000 10.541000 10.859500 255 0 0
9.155000 10.228800 17.205000 255 0 0
9.153000 10.419500 4.563500 255 0 0
8.450000 9.540000 25.110001 0 255 0
8.900000 9.880000 26.330000 0 255 0
8.885000 9.935000 23.080000 255 0 0
9.330000 11.180000 17.500000 0 255 0
8.870000 9.930000 1.050000 0 255 0
8.895000 10.232500 20.197500 0 255 0
9.310000 11.440000 1.690000 0 255 0
8.982500 10.377500 14.475000 255 0 0
8.980000 10.423300 11.266700 255 0 0
8.640900 9.077300 19.757299 0 255 0
7.945000 10.340000 14.870000 0 255 0
8.550000 10.810000 23.020000 0 255 0
8.960000 11.760000 2.340000 0 255 255
8.790000 10.790000 17.719999 0 255 0
8.790000 10.520000 6.690000 255 0 0
8.800000 10.585000 3.445000 255 0 0
9.145000 9.015000 21.007500 0 255 0
8.337500 10.927500 20.775000 0 255 0
8.350000 11.020000 1.200000 0 255 0
9.845000 10.245000 17.465000 0 255 0
8.580000 10.460000 15.120000 0 255 0
9.750000 10.864000 2.462000 0 255 0
9.741400 11.085700 15.111000 0 255 0
8.935000 9.990000 21.695000 255 0 0
9.042400 10.287400 6.960800 0 255 0
9.040000 10.187600 13.708100 255 0 0
8.840000 9.930000 23.750000 255 0 0
8.840000 10.030000 17.240000 0 255 0
9.376700 11.030000 18.866699 0 255 0
8.938000 10.298000 2.565000 255 0 0
8.934500 10.322900 5.808700 255 0 0
8.937800 10.425600 12.307800 255 0 0
8.933600 10.376800 9.057300 255 0 0
8.198000 10.374000 1.548000 0 255 0
7.941200 9.780600 15.107600 0 255 0
9.988600 10.574300 17.402100 0 255 0
8.840000 10.500000 9.200000 255 0 0
8.837200 10.584200 2.908600 255 0 0
8.610000 9.740000 18.440001 0 255 0
9.946700 10.520000 1.503300 0 255 0
8.488300 9.773300 18.502501 0 255 0
8.070000 10.210000 22.850000 0 255 0
9.543300 10.331700 22.264999 0 255 0
9.890000 9.930000 25.150000 0 255 0
8.670000 10.350000 24.240000 0 255 0
8.691500 10.680000 14.862100 0 255 0
9.347800 9.384400 17.368900 0 255 0
8.160000 11.140000 1.520000 0 255 0
8.396700 9.966700 1.506700 0 255 0
8.240000 9.679500 16.309999 0 255 0
8.390000 10.830000 22.110001 0 255 0
8.690000 10.090000 18.400000 0 255 0
8.860000 10.200000 16.490000 255 0 0
8.943000 10.279000 16.209999 255 0 0
8.946800 10.236300 13.611100 255 0 0
9.445000 11.430000 1.790000 0 255 0
8.350000 9.450000 1.810000 0 255 0
9.441300 11.581200 1.905000 0 255 0
8.087500 11.080000 1.610000 0 255 0
8.953300 10.293300 7.203300 255 0 0
8.947600 10.338800 10.362000 255 0 0
8.941000 10.381300 13.708700 255 0 0
9.730000 9.720000 25.270000 0 255 0
8.570000 10.420000 15.020000 0 255 0
8.590000 11.078300 22.113300 0 255 0
9.737800 11.133300 15.014400 0 255 0
9.500000 10.430000 22.309999 0 255 0
8.349300 10.634300 19.370701 0 255 0
8.500000 10.640000 1.440000 0 255 0
9.080000 10.310000 12.260000 255 0 0
9.080000 10.370000 9.030000 255 0 0
9.088000 10.030000 18.010000 255 0 0
9.090000 10.245300 5.761200 255 0 0
9.390000 11.230000 1.710000 0 255 0
9.370000 10.980000 17.400000 0 255 0
8.942500 10.318800 1.713800 0 255 0
8.927100 10.425700 8.014300 255 0 0
8.954300 10.585700 17.407101 0 255 0
8.942500 10.475400 11.110000 255 0 0
8.930600 10.371000 4.758000 255 0 0
7.830000 10.210000 1.870000 0 255 255
9.344000 11.568000 2.292000 0 255 0
8.992900 10.331700 1.857400 0 255 0
8.993300 10.033300 20.416700 255 0 0
9.005000 10.142500 14.107500 255 0 0
9.010000 10.240000 8.170000 255 0 0
8.997500 10.083800 17.163799 255 0 0
8.995500 10.299100 4.904500 255 0 0
9.470000 10.010000 26.629999 0 255 0
8.850000 10.335000 2.895000 255 0 0
9.150000 9.760000 1.590000 0 255 0
8.901700 10.662800 3.057800 0 255 0
9.085700 10.570000 1.562900 0 255 0
9.090000 10.395000 14.615000 255 0 0
9.105000 10.075000 20.365000 255 0 0
9.070000 10.050000 23.620001 255 0 0
9.084600 10.243800 11.366200 255 0 0
9.089000 10.287600 8.109500 255 0 0
9.100000 9.740000 22.730000 0 255 0
9.634000 10.772000 1.214000 0 255 0
8.710000 10.660000 20.580000 0 255 0
9.570000 9.770000 25.250000 0 255 0
8.747500 10.927500 22.102501 0 255 0
9.643300 11.290000 2.103300 0 255 0
8.900000 10.170000 16.610001 255 0 0
8.830000 9.750000 1.206700 0 255 0
8.810000 10.160000 15.010000 255 0 0
8.795000 10.222500 11.867500 0 255 0
9.691300 10.516000 1.658000 0 255 0
8.620000 9.970000 24.459999 0 255 0
8.510000 9.190000 25.330000 0 255 0
9.830000 11.045000 2.280000 0 255 0
8.770000 9.640000 1.520000 0 255 0
9.705000 11.190000 2.375000 0 255 0
8.650000 9.870000 1.370000 0 255 0
8.820000 10.600000 22.075001 0 255 0
8.860000 10.260000 15.510000 255 0 0
8.860000 10.370000 8.990000 255 0 0
8.597100 9.776400 18.717100 0 255 0
8.335000 10.565000 1.175000 0 255 0
9.045000 9.830000 17.325001 0 255 0
8.897300 10.380700 9.758700 255 0 0
8.887300 10.431200 6.612900 0 255 0
9.093800 9.878800 20.168800 0 255 0
9.086000 10.127000 16.955000 255 0 0
9.082800 10.185000 13.813900 255 0 0
9.085000 10.344200 3.506700 0 255 0
9.560000 10.470000 1.740000 0 255 0
8.790000 11.100000 1.760000 0 255 0
9.698000 10.670000 1.263000 0 255 0
8.640000 11.000000 23.350000 0 255 0
9.190000 11.100000 1.430000 0 255 0
9.186700 10.723300 23.660000 0 255 0
9.948000 11.072000 1.966000 0 255 255
8.390000 9.700000 1.980000 0 255 0
8.376000 9.868000 15.020000 0 255 0
8.950000 10.475000 13.053000 255 0 0
8.940600 10.339100 3.561400 255 0 0
8.933900 10.430500 10.061500 255 0 0
8.930400 10.374700 6.906800 255 0 0
8.873300 10.413300 2.966700 255 0 0
8.903300 10.523300 9.713300 255 0 0
8.910000 10.480000 12.970000 255 0 0
8.898800 10.379800 6.214500 255 0 0
8.310000 10.140000 1.600000 0 255 0
9.350000 9.410000 17.510000 0 255 0
8.400000 10.920000 21.990000 0 255 0
8.630000 9.820000 25.379999 0 255 0
8.944500 10.571600 6.258700 0 255 0
8.930000 10.340000 17.059999 255 0 0
8.939700 10.281800 13.911200 255 0 0
8.610000 9.690000 22.709999 0 255 0
8.520000 9.730000 26.520000 0 255 0
9.355000 10.195000 22.370001 0 255 0
9.110000 10.160000 21.570000 255 0 0
9.075000 10.325000 11.770000 255 0 0
9.110000 10.080000 15.280000 255 0 0
9.085700 10.242900 5.458600 255 0 0
9.090000 10.035000 18.512501 255 0 0
9.124000 10.387000 2.616000 255 0 0
9.126700 10.185600 14.856700 255 0 0
8.995000 9.990000 18.360001 255 0 0
9.190000 9.890000 1.740000 0 255 0
9.040000 10.360000 12.680000 255 0 0
9.035300 10.322900 9.408200 255 0 0
9.060000 10.420000 1.725000 0 255 0
9.020000 10.280000 17.500000 255 0 0
9.042500 10.317500 8.057500 0 255 0
9.042500 10.210000 14.345000 255 0 0
9.787500 10.927500 1.771200 0 255 0
8.792900 10.730700 14.952100 0 255 0
8.804000 10.478500 3.158500 255 0 0
8.780000 11.030000 21.090000 0 255 0
9.750000 11.250000 15.190000 0 255 0
9.745000 9.815000 25.075001 0 255 0
9.750000 11.160000 15.190000 0 255 0
9.193700 10.079500 17.260901 255 0 0
8.730000 10.820000 20.709999 0 255 0
9.730000 10.990000 2.310000 0 255 0
8.485000 9.890000 18.811701 0 255 0
9.230000 10.140000 1.070000 0 255 0
9.780000 10.330000 1.170000 0 255 0
10.086700 10.493300 1.773300 0 255 0
8.940400 10.282500 14.361800 255 0 0
8.590000 9.540000 25.070000 0 255 0
8.587900 9.633600 18.761400 0 255 0
9.030000 10.900000 17.610001 0 255 0
9.090000 9.930000 21.160000 0 255 0
8.020000 10.400000 15.030000 0 255 0
9.943300 11.232200 2.502200 0 255 255
8.538600 10.184300 24.402901 0 255 0
8.660000 10.190000 24.490000 0 255 0
9.780000 10.310000 1.330000 0 255 0
8.040000 9.970000 17.610001 0 255 0
8.030000 9.870000 24.100000 0 255 0
8.020000 9.960000 17.350000 0 255 0
8.110000 10.820000 1.720000 0 255 0
9.295000 10.265000 1.260000 0 255 0
8.485000 9.575000 25.150000 0 255 0
8.110000 9.290000 24.549999 0 255 0
8.880000 8.980000 24.105000 0 255 0
8.350000 9.950000 18.790001 0 255 0
8.320000 9.870000 15.025000 0 255 0
9.886700 10.733300 2.110000 0 255 0
9.127500 10.622500 3.209900 0 255 0
7.880000 10.430000 1.655000 0 255 255
8.040000 10.150000 1.390000 0 255 0
8.355000 9.640000 1.515000 0 255 0
8.690000 11.050000 23.549999 0 255 0
8.955000 10.095000 17.030001 255 0 0
8.945000 10.110000 20.309999 255 0 0
8.950000 10.090000 17.163300 255 0 0
8.995000 10.145000 22.459999 255 0 0
8.970000 10.190000 19.330000 255 0 0
8.990000 10.390000 6.250000 255 0 0
8.989600 10.275200 12.560400 255 0 0
8.984400 10.324200 9.411900 255 0 0
8.320000 9.430000 16.174999 0 255 0
8.340000 9.460000 20.650000 0 255 0
8.653300 10.673300 1.476700 0 255 0
8.890000 10.240000 20.040001 0 255 0
9.991000 10.924000 1.812000 0 255 255
9.020000 10.040000 1.090000 0 255 0
8.540000 9.815000 20.325001 0 255 0
8.086700 10.218900 15.157800 0 255 0
8.390000 10.660000 1.410000 0 255 0
9.040000 10.710000 3.730000 255 0 0
9.052000 10.580000 17.598000 0 255 0
9.082500 10.567500 23.770000 0 255 0
9.084300 10.614300 8.660500 255 0 0
9.087100 10.480600 17.265499 0 255 0
9.070000 10.670000 5.390000 255 0 0
9.185000 9.925000 1.515000 0 255 0
9.191000 10.082000 17.302999 255 0 0
8.583300 9.633300 21.653299 0 255 0
9.149400 8.982500 19.763100 0 255 0
9.637300 11.281900 2.313500 0 255 0
8.350000 10.420000 1.880000 0 255 0
9.238300 9.780000 1.370000 0 255 0
9.235500 10.029000 17.268000 0 255 0
8.400000 10.920000 22.180000 0 255 0
9.385000 10.410000 17.330000 0 255 0
8.695000 9.540000 26.655001 0 255 0
8.500000 10.180000 17.504999 0 255 0
9.970000 10.910000 2.320000 0 255 0
8.910000 9.970000 23.650000 255 0 0
8.897500 10.035000 20.502501 255 0 0
8.880000 9.900000 17.379999 0 255 0
8.850000 9.070000 19.590000 0 255 0
9.400000 10.225000 22.350000 0 255 0
9.880000 11.050000 15.140000 0 255 0
8.995000 10.070000 21.450001 255 0 0
8.997800 10.368900 2.315600 255 0 0
8.991500 10.286200 8.812800 255 0 0
8.997100 10.235700 12.058600 255 0 0
8.990900 10.180000 14.963500 255 0 0
8.983800 10.123700 18.209999 255 0 0
8.988200 10.315500 5.556400 255 0 0
9.010000 10.690000 1.370000 0 255 0
9.000000 10.420000 15.180000 255 0 0
8.996000 10.644000 4.510000 255 0 0
8.988700 10.592500 5.511300 255 0 0
8.980000 10.550000 8.655000 255 0 0
8.983100 10.483100 12.012300 255 0 0
8.677500 10.535000 1.760000 0 255 0
8.688800 10.334600 14.813100 0 255 0
8.910000 11.010000 17.330000 0 255 0
9.445000 10.060000 1.230000 0 255 0
8.890000 10.680000 1.220000 0 255 0
9.437000 9.726500 17.300900 0 255 0
8.870000 8.970000 24.000000 0 255 0
8.395000 10.925000 1.465000 0 255 0
8.385000 11.390000 1.600000 0 255 0
9.655000 11.437500 1.912500 0 255 0
9.996000 10.872000 15.064000 0 255 0
8.889000 11.722000 2.224000 0 255 255
8.505000 10.315000 24.424999 0 255 0
8.430000 10.835000 21.875000 0 255 0
8.538900 10.580000 1.514400 0 255 0
8.930000 9.990000 19.850000 255 0 0
8.931400 9.981400 20.208599 255 0 0
9.455000 11.365000 1.605000 0 255 0
8.940000 9.970000 20.360001 255 0 0
8.450000 10.950000 20.690001 0 255 0
8.405000 10.940000 1.695000 0 255 0
8.641400 10.626600 14.809500 0 255 0
8.245000 10.385000 1.115000 0 255 0
8.436000 10.579500 14.861500 0 255 0
8.044300 9.881400 22.414301 0 255 0
8.435800 10.428300 1.973300 0 255 0
9.545000 11.475000 2.105000 0 255 0
8.425000 9.775000 16.305000 0 255 0
8.436500 9.780000 16.170601 0 255 0
8.900000 10.480000 14.360000 255 0 0
8.887000 10.292000 1.705000 0 255 0
8.892900 10.635700 17.402901 0 255 0
8.893800 10.375800 8.005500 255 0 0
8.885800 10.428800 4.759600 255 0 0
8.886400 10.330200 14.408600 0 255 0
9.690000 10.500000 18.370001 0 255 0
10.050000 10.090000 25.090000 0 255 0
8.976700 10.816700 23.459999 0 255 0
8.595000 10.925000 20.910000 0 255 0
9.145000 10.135000 17.715000 255 0 0
9.147000 10.373000 7.808000 255 0 0
9.133300 10.342100 4.662900 255 0 0
9.130000 10.100000 14.350000 255 0 0
9.225000 10.490000 10.815000 255 0 0
9.240000 10.310000 1.430000 0 255 0
9.386000 10.084000 1.410000 0 255 0
8.920000 11.040000 23.490000 0 255 0
7.922500 9.975000 22.452499 0 255 0
8.480000 9.770000 1.590000 0 255 0
9.840000 10.990000 1.630000 0 255 0
8.230000 9.995000 16.280001 0 255 0
8.556700 11.126700 1.713300 0 255 0
8.590000 9.730000 20.450001 0 255 0
8.220000 9.423300 18.703300 0 255 0
9.820000 9.360000 23.980000 0 255 0
9.145000 9.635000 1.347500 0 255 0
9.189100 8.940900 19.766399 0 255 0
9.537800 11.533900 2.162200 0 255 0
9.795000 10.635000 1.325000 0 255 0
8.530000 10.420000 19.290001 0 255 0
9.330000 10.495000 26.625000 0 255 0
9.336700 10.896700 1.303300 0 255 0
8.650000 9.910000 1.430000 0 255 0
9.685000 10.820000 1.415000 0 255 0
8.630000 10.583300 17.316700 0 255 0
8.941900 10.422900 12.160500 255 0 0
8.955000 10.297500 2.705000 255 0 0
9.378900 11.028900 18.912201 0 255 0
8.934700 10.379100 9.007400 255 0 0
8.932800 10.324600 5.859100 255 0 0
8.945000 10.231700 13.657800 255 0 0
8.932900 10.282900 16.164301 255 0 0
9.742600 10.629500 1.256800 0 255 0
9.730000 10.390000 1.240000 0 255 0
8.486700 10.486700 1.453300 0 255 0
8.492500 10.042500 17.312500 0 255 0
8.893000 10.470000 10.258000 255 0 0
8.900400 10.526000 7.006800 255 0 0
8.897500 10.385200 4.111300 255 0 0
8.383300 11.021700 19.206699 0 255 0
8.495000 10.575000 22.080000 0 255 0
9.780000 9.850000 24.760000 0 255 0
9.800000 9.930000 18.440001 0 255 0
10.037100 9.780000 24.958599 0 255 0
8.590800 10.681700 14.815800 0 255 0
9.135700 11.418600 1.605700 0 255 0
8.420000 9.630000 1.770000 0 255 0
9.325000 10.590000 13.255000 0 255 0
8.790000 10.930000 23.620001 0 255 0
9.130000 10.388500 3.362300 255 0 0
9.149100 10.170000 15.611800 255 0 0
8.398300 9.671700 18.895000 0 255 0
8.370000 9.240000 22.299999 0 255 0
9.940000 10.824000 2.366000 0 255 0
8.383300 9.283300 18.956699 0 255 0
9.590000 10.085000 26.625000 0 255 0
8.990000 11.350000 1.480000 0 255 0
8.991700 11.080000 17.455000 0 255 0
8.985000 10.990000 23.600000 0 255 0
8.500000 9.400000 18.790001 0 255 0
9.843800 10.427500 22.160000 0 255 0
8.380000 10.020000 22.309999 0 255 0
8.840000 9.885000 23.709999 0 255 0
8.838800 9.987200 17.412399 0 255 0
8.947500 9.675000 23.747499 0 255 0
8.860000 11.210000 1.440000 0 255 0
8.795000 11.170000 20.862499 0 255 0
8.742900 11.185700 20.750000 0 255 0
9.591000 10.432000 17.497999 0 255 0
8.756000 11.136000 17.364000 0 255 0
9.580000 9.883300 1.513300 0 255 0
9.581500 10.427700 17.360800 0 255 0
8.500000 9.500000 18.790001 0 255 0
8.620000 9.070000 19.959999 0 255 0
9.790000 10.585000 18.468300 0 255 0
8.935000 10.410000 17.219999 0 255 0
8.955000 10.295000 7.655000 255 0 0
8.940000 10.376000 13.958000 255 0 0
8.944100 10.337000 10.910700 255 0 0
8.935700 10.231400 20.170000 255 0 0
8.942200 10.173300 16.898899 255 0 0
8.970000 10.620000 9.020000 255 0 0
8.980000 10.380000 26.480000 0 255 0
9.390000 10.830000 13.450000 0 255 0
8.940000 10.080000 22.940001 255 0 0
8.940000 10.023300 19.956699 255 0 0
9.483700 10.785000 13.456200 0 255 0
8.860000 10.130000 16.090000 255 0 0
9.840000 9.820000 25.120001 0 255 0
8.690000 10.915000 14.865000 0 255 0
9.480000 9.280000 20.730000 0 255 0
8.593300 10.483300 1.106700 0 255 0
8.450000 9.280000 19.725000 0 255 0
9.720000 10.220000 1.150000 0 255 0
8.990000 10.330000 17.510000 255 0 0
8.978000 10.374000 14.352000 255 0 0
8.982500 10.435000 11.345000 0 255 0
8.990000 10.460000 4.980000 255 0 0
8.984000 10.274000 17.612000 255 0 0
8.975000 10.375000 11.108000 255 0 0
8.981400 10.330000 14.361400 255 0 0
10.110000 10.070000 25.180000 0 255 0
9.070000 11.430000 1.530000 0 255 0
8.888300 9.975000 21.498301 255 0 0
8.891700 10.040000 18.275000 255 0 0
9.640000 10.620000 21.980000 0 255 0
9.340000 11.440000 1.710000 0 255 0
9.084400 10.131100 16.657801 255 0 0
9.088000 10.186000 13.508000 255 0 0
9.084700 10.339500 4.010800 255 0 0
8.690000 9.990000 0.980000 0 255 0
8.895000 10.265000 14.850000 255 0 0
8.900000 10.335700 11.712900 255 0 0
9.780000 10.880000 1.816700 0 255 0
8.232500 10.027500 16.270000 0 255 0
8.936700 9.993300 21.826700 255 0 0
9.000000 10.370000 6.530000 255 0 0
8.985000 10.125000 22.025000 255 0 0
8.987000 10.276800 13.010300 255 0 0
8.982500 10.222500 16.254999 255 0 0
8.984900 10.323900 9.761200 255 0 0
9.340000 11.600000 2.150000 0 255 0
9.223300 10.424300 6.008600 255 0 0
8.639200 9.672300 18.750000 0 255 0
9.176700 10.226700 15.261700 255 0 0
9.190000 10.280000 12.216300 255 0 0
9.183600 10.327300 8.961800 255 0 0
9.785000 11.290000 1.970000 0 255 0
9.796700 9.396700 23.963301 0 255 0
9.740000 11.010000 1.380000 0 255 0
8.920000 10.435000 4.215000 255 0 0
8.951300 10.522500 10.960000 255 0 0
8.921000 10.478000 7.710000 255 0 0
9.745000 10.782500 1.205000 0 255 0
9.680000 9.450000 23.990000 0 255 0
8.780000 10.760000 1.850000 0 255 0
8.943300 10.023300 21.150000 255 0 0
9.396000 10.832000 14.658000 0 255 0
9.801200 10.520000 1.743800 0 255 0
8.643300 10.726700 17.363300 0 255 0
8.932500 10.326500 14.406000 255 0 0
8.946700 10.281700 11.156700 255 0 0
8.570000 9.700000 26.600000 0 255 0
8.480000 9.070000 20.030001 0 255 0
8.450000 10.970000 18.995001 0 255 0
8.545000 10.365000 14.566700 0 255 0
8.940000 10.710000 2.580000 255 0 0
9.880000 10.880000 1.700000 0 255 0
8.445000 9.170000 21.254999 0 255 0
8.420000 9.880000 1.690000 0 255 0
9.136900 9.643800 1.458500 0 255 0
9.141700 9.480000 17.368299 0 255 0
9.039500 10.673400 3.411100 255 0 0
9.050000 10.460000 14.470000 255 0 0
9.038800 10.595400 8.163700 255 0 0
8.540000 10.395000 1.400000 0 255 0
9.095000 10.025000 17.715000 255 0 0
9.098300 10.321700 10.953300 255 0 0
9.080000 10.080000 14.457500 255 0 0
8.550000 9.730000 25.490000 0 255 0
8.550000 9.822500 18.705000 0 255 0
8.435000 10.740000 1.495000 0 255 0
9.650000 10.460000 1.620000 0 255 0
8.710000 10.550000 23.559999 0 255 0
9.645000 10.726000 17.421000 0 255 0
8.692000 10.035500 17.407000 0 255 0
8.842500 10.691700 14.950000 0 255 0
8.853200 10.532400 4.758800 255 0 0
8.950000 10.160000 26.530001 0 255 0
8.920000 10.080000 20.190001 255 0 0
9.096800 10.641200 3.911000 255 0 0
9.439200 9.479200 17.408300 0 255 0
8.993300 9.933300 22.803301 255 0 0
8.970000 10.050000 16.680000 255 0 0
9.005000 9.990000 19.655001 255 0 0
9.342000 10.146000 1.600000 0 255 0
8.850000 10.290000 1.930000 255 0 0
9.497800 11.078900 14.962200 0 255 0
8.846700 10.476700 14.960000 0 255 0
8.860000 10.350000 5.060000 255 0 0
9.040000 10.375000 17.155001 255 0 0
10.096700 10.533300 1.703300 0 255 0
10.093300 10.583300 1.953300 0 255 255
7.950000 10.260000 1.820000 0 255 255
8.884900 10.636600 3.012100 255 0 0
8.900000 10.826000 14.866000 0 255 0
9.730000 10.180000 18.440001 0 255 0
9.539400 9.890000 1.666300 0 255 0
8.760000 9.290000 19.730000 0 255 0
9.245000 10.340000 10.645000 255 0 0
9.689200 10.730400 2.458800 0 255 0
8.380000 10.090000 22.450001 0 255 0
9.786900 11.281500 2.256900 0 255 0
8.900000 10.250000 1.140000 0 255 0
9.420000 10.530000 1.170000 0 255 0
8.890000 10.390000 17.353300 0 255 0
8.904300 10.338600 7.910000 255 0 0
9.810000 10.680000 1.960000 0 255 0
8.780000 9.920000 18.754999 0 255 0
9.740000 10.776800 2.418200 0 255 0
8.710000 9.200000 19.940001 0 255 0
8.675000 10.380000 24.275000 0 255 0
8.694300 10.521400 14.768600 0 255 0
9.636700 11.031100 14.758900 0 255 0
9.233300 11.413300 1.606700 0 255 0
9.396700 9.737800 1.555600 0 255 0
9.388700 10.282500 17.311300 0 255 0
10.070000 10.660000 2.010000 0 255 255
9.485000 10.035000 1.445000 0 255 0
9.495000 10.385000 17.315001 0 255 0
9.085600 9.385000 17.456699 0 255 0
9.685000 10.790000 1.902500 0 255 0
8.620000 10.500000 21.690001 0 255 0
8.655000 10.240000 24.320000 0 255 0
8.740000 10.560000 21.650000 0 255 0
8.580000 9.810000 18.580000 0 255 0
9.250000 9.870000 1.410000 0 255 0
9.242000 10.138000 17.226000 255 0 0
9.175000 10.275000 16.950001 255 0 0
9.180000 10.320000 13.806700 255 0 0
9.220000 10.510000 10.580000 255 0 0
9.250000 10.400000 13.790000 255 0 0
9.223300 10.460000 7.316700 255 0 0
9.250000 10.220000 10.400000 255 0 0
9.230000 10.340000 3.890000 0 255 0
9.486700 10.626700 22.230000 0 255 0
8.850000 10.350000 5.890000 255 0 0
8.920000 9.460000 19.410000 0 255 0
8.150000 10.540000 19.350000 0 255 0
8.190000 9.545000 16.455000 0 255 0
8.520000 10.550000 1.210000 0 255 0
8.530000 10.000000 17.580000 0 255 0
9.620000 9.690000 22.870001 0 255 0
8.690000 10.375000 1.525000 0 255 0
9.441200 10.276900 17.406401 0 255 0
9.220000 10.260000 14.620000 255 0 0
8.910000 11.180000 17.410000 0 255 0
8.885000 11.040000 1.495000 0 255 0
9.437400 9.735900 1.515400 0 255 0
9.439200 10.379600 17.410400 0 255 0
8.392600 10.027900 15.204200 0 255 0
8.907500 10.615000 18.322500 0 255 0
8.880000 10.290000 2.410000 255 0 0
8.895500 10.519100 11.822700 255 0 0
8.901600 10.378400 8.910000 0 255 0
8.895900 10.428900 5.656600 255 0 0
8.940000 9.950000 22.440001 255 0 0
8.920000 9.870000 19.290001 0 255 0
8.944000 9.582000 1.296000 0 255 0
8.393800 9.788800 16.172501 0 255 0
9.480000 11.520000 1.920000 0 255 0
9.493300 11.332200 14.954400 0 255 0
9.736100 11.032800 1.904400 0 255 0
8.600000 10.510000 1.890000 0 255 0
9.741800 11.227600 14.962400 0 255 0
8.592000 10.335000 14.965000 0 255 0
8.636000 9.682000 24.660000 0 255 0
8.486700 9.573300 18.756701 0 255 0
9.360000 11.480000 1.990000 0 255 0
8.990000 10.646700 3.560000 255 0 0
