-2.890000 -17.260000 11.530000 0 255 0
-1.920000 -17.174999 15.312500 0 255 0
-3.054600 -17.615400 3.809200 0 255 0
-1.770000 -17.889999 9.070000 255 0 0
-1.755000 -17.754999 2.580000 255 0 0
-0.830000 -16.840000 5.970000 0 255 0
-1.080000 -16.780001 8.520000 0 255 0
-2.720000 -17.190001 14.905000 0 255 0
-1.460000 -18.010000 -6.360000 0 255 0
-1.517500 -17.822500 8.207500 0 255 0
-1.816700 -18.066700 11.220000 0 255 0
-1.766700 -17.553301 6.006700 255 0 0
-1.760000 -17.680000 12.305000 255 0 0
-1.770000 -17.526699 9.156700 255 0 0
-2.060000 -17.190001 15.050000 0 255 0
-1.380000 -17.389999 17.530001 0 255 0
-2.110000 -17.360001 -5.040000 0 255 0
-1.970000 -16.930000 -4.970000 0 255 0
-1.960000 -16.830000 14.555000 0 255 0
-1.666700 -17.629999 10.156700 255 0 0
-1.651300 -17.672501 7.012500 255 0 0
-1.668300 -17.715000 5.103300 255 0 0
-0.611800 -17.273199 4.007100 0 255 0
-2.200000 -18.400000 6.080000 0 255 0
-1.370000 -17.209999 9.280000 0 255 0
-1.380000 -17.330000 9.270000 0 255 0
-2.720000 -17.620001 14.940000 0 255 0
-2.640000 -17.200001 11.620000 0 255 0
-1.507100 -16.621401 15.265700 0 255 0
-1.425000 -16.930000 -6.350000 0 255 0
-1.140000 -18.290001 8.450000 0 255 0
-2.390000 -18.350000 20.450001 0 255 0
-2.857500 -17.132500 4.055000 0 255 0
-1.806700 -17.813299 -6.243300 0 255 0
-1.790000 -17.215000 6.005000 0 255 0
-2.100000 -17.389999 -4.170000 0 255 0
-2.700000 -17.275700 9.508600 0 255 0
-1.930000 -17.780001 12.950000 255 0 0
-1.900000 -17.670000 19.459999 255 0 0
-1.900000 -17.049999 5.995000 0 255 0
-1.615000 -18.209999 11.915000 0 255 0
-2.063300 -16.570000 -5.090000 0 255 255
-1.890000 -17.049999 11.430000 0 255 0
-1.895000 -17.820000 20.410000 255 0 0
-1.926700 -17.406700 -4.886700 255 0 0
-1.725000 -17.287500 -5.090000 255 0 0
-1.695000 -17.719999 5.105000 255 0 0
-1.720000 -17.799999 -1.190000 255 0 0
-1.715000 -17.775000 8.360000 255 0 0
-1.357100 -17.068600 8.352900 0 255 0
-1.380000 -17.165001 14.670000 0 255 0
-2.268000 -16.812000 -5.680000 0 255 255
-1.510000 -17.740000 6.830000 255 0 0
-1.140000 -18.080000 11.660000 0 255 0
-1.520000 -18.299999 17.270000 0 255 0
-1.415000 -17.420000 17.465000 0 255 0
-2.660000 -17.170000 17.709999 0 255 0
-1.930000 -17.820000 20.570000 255 0 0
-1.912000 -17.403999 -4.748000 255 0 0
-2.990000 -17.219999 3.710000 0 255 0
-1.730000 -16.950001 -5.900000 0 255 0
-1.960000 -17.520000 10.780000 0 255 0
-1.950000 -17.770000 7.180000 255 0 0
-1.976700 -17.671700 0.858300 255 0 0
-1.960000 -17.639999 17.080000 255 0 0
-1.950000 -17.180000 -5.900000 0 255 0
-1.840000 -17.170000 -5.805000 255 0 0
-1.860000 -17.629999 17.150000 255 0 0
-2.080000 -16.680000 -4.640000 0 255 255
-1.106700 -17.463301 -6.580000 0 255 255
-2.140000 -17.580000 3.500000 255 0 0
-2.080000 -17.340000 20.299999 0 255 0
-2.080000 -17.280001 23.650000 0 255 0
-1.980000 -16.889999 -4.890000 0 255 0
-1.960000 -16.765699 14.465700 0 255 0
-1.948700 -17.322500 -5.335000 255 0 0
-1.940000 -17.420000 1.180000 255 0 0
-1.990000 -17.660000 14.810000 255 0 0
-2.000000 -17.700001 17.980000 255 0 0
-1.990000 -17.410000 -0.850000 255 0 0
-2.000000 -17.760000 21.320000 255 0 0
-2.005000 -17.830000 24.450001 0 255 0
-1.480000 -17.549999 17.330000 0 255 0
-3.070000 -17.424999 4.155000 0 255 0
-2.415000 -16.785000 17.750000 0 255 0
-2.420000 -18.370001 23.530001 0 255 0
-2.340000 -18.639999 17.870001 0 255 0
-1.945400 -16.528500 6.319200 0 255 0
-1.916700 -18.860001 2.560000 0 255 0
-2.670000 -18.173300 -6.200000 0 255 255
-1.175000 -18.225000 11.605000 0 255 0
-1.410000 -17.320000 -6.207500 0 255 0
-1.410000 -17.980000 24.780001 0 255 0
-1.360000 -17.327000 11.408000 0 255 0
-1.260000 -18.370001 20.510000 0 255 0
-1.820000 -17.549999 2.520000 255 0 0
-1.820000 -17.670000 9.030000 255 0 0
-2.516000 -17.370001 3.920000 0 255 0
-1.150000 -16.771700 15.013300 0 255 0
-2.811400 -17.655701 9.317100 0 255 0
-1.720000 -17.780001 5.513300 255 0 0
-1.697000 -17.714001 2.355000 255 0 0
-1.980000 -17.520000 -5.780000 255 0 0
-1.970000 -17.610001 0.710000 0 255 0
-1.974000 -17.566999 3.966000 255 0 0
-1.954700 -17.477200 -2.540300 255 0 0
-1.960000 -16.555000 -5.390000 0 255 255
-1.700000 -17.750000 7.010000 255 0 0
-1.720000 -17.860001 0.500000 255 0 0
-1.693300 -17.716700 3.853300 255 0 0
-1.460000 -16.780001 15.620000 0 255 0
-1.450000 -16.628000 15.270000 0 255 0
-1.750000 -16.540001 6.310000 0 255 0
-1.700000 -17.600000 16.590000 0 255 0
-1.757500 -17.815001 -1.290000 255 0 0
-1.120000 -17.680000 11.430000 0 255 0
-1.056700 -17.226700 9.450000 0 255 0
-2.555000 -17.258699 4.008800 0 255 0
-2.205000 -16.957001 -4.243000 0 255 255
-2.390000 -18.070000 24.990000 0 255 0
-2.070000 -16.670000 -3.450000 0 255 255
-1.420000 -17.150000 15.040000 0 255 0
-2.490000 -18.680000 3.880000 0 255 0
-2.120000 -17.290001 -5.650000 0 255 0
-2.417100 -16.568600 -5.382900 0 255 255
-1.408300 -18.681700 14.906700 0 255 0
-1.370000 -17.725000 11.225000 0 255 0
-2.970000 -17.980000 22.799999 0 255 0
-2.955400 -17.669201 3.663800 0 255 0
-1.952500 -18.680000 9.270000 0 255 0
-1.710000 -17.980000 5.900000 0 255 0
-0.850000 -17.540001 3.830000 0 255 0
-0.960000 -17.080000 14.910000 0 255 0
-0.958300 -16.921700 11.758300 0 255 0
-2.520000 -17.290001 4.050000 0 255 0
-1.270000 -16.750000 16.160000 0 255 0
-0.960000 -17.540001 -6.530000 0 255 255
-1.056000 -16.722000 9.352000 0 255 0
-1.103300 -17.616699 11.993300 0 255 0
-2.000000 -16.840000 18.000000 0 255 0
-2.015000 -16.485001 -4.355000 0 255 255
-1.112000 -17.420500 9.258000 0 255 0
-1.410000 -16.570000 6.650000 0 255 0
-1.980000 -17.559999 -5.750000 255 0 0
-0.910000 -18.160000 4.000000 0 255 0
-1.719200 -17.764999 2.355800 255 0 0
-1.008300 -18.465000 9.778300 0 255 0
-1.013700 -17.722500 11.852500 0 255 0
-2.767500 -17.021299 11.661900 0 255 0
-2.450000 -17.430000 3.900000 0 255 0
-2.012500 -17.575001 -4.685000 255 0 0
-1.993300 -17.620001 -1.446700 255 0 0
-1.730000 -17.565001 9.655000 255 0 0
-1.695000 -17.668699 3.360000 255 0 0
-1.718100 -17.526199 6.510000 255 0 0
-1.870000 -18.240000 9.180000 0 255 0
-1.840000 -17.500000 1.210000 255 0 0
-1.853300 -17.483299 4.457200 255 0 0
-2.880000 -18.280001 22.650000 0 255 0
-2.910700 -17.469299 3.808700 0 255 0
-1.720000 -17.570000 13.730000 255 0 0
-1.700900 -17.616501 4.160000 255 0 0
-2.060000 -17.219999 16.250000 0 255 0
-2.452000 -16.816000 16.264000 0 255 0
-2.407500 -16.707500 -5.485000 0 255 255
-2.250000 -18.760000 4.110000 0 255 0
-1.760000 -18.760000 14.750000 0 255 0
-1.356000 -16.972000 15.170000 0 255 0
-2.520000 -18.150000 -6.300000 0 255 255
-1.963300 -16.413300 -6.180000 0 255 255
-0.690000 -17.510000 12.440000 0 255 0
-2.243300 -16.913300 -4.100000 0 255 255
-2.204000 -17.014000 -4.098000 0 255 255
-2.280000 -16.740000 -5.225000 0 255 255
-1.603300 -17.760000 17.309999 0 255 0
-1.010000 -16.840000 4.090000 0 255 0
-1.912500 -18.622499 2.550000 0 255 0
-1.043300 -17.583300 -6.426700 0 255 255
-1.052500 -17.318800 9.353700 0 255 0
-1.500000 -17.469999 17.530001 0 255 0
-1.090000 -17.040001 8.340000 0 255 0
-1.950000 -16.575001 14.250000 0 255 0
-1.573300 -17.525600 -3.290600 255 0 0
-2.755700 -17.278601 9.517100 0 255 0
-2.200000 -18.320000 20.260000 0 255 0
-1.800000 -16.850000 6.370000 0 255 0
-1.810000 -17.590000 16.129999 255 0 0
-1.860000 -16.879999 -5.880000 0 255 0
-2.250000 -16.799999 -5.880000 0 255 255
-1.600000 -16.809999 -6.010000 0 255 255
-1.920000 -17.650000 7.050000 255 0 0
-1.900000 -17.709999 10.320000 255 0 0
-1.910000 -17.785000 0.560000 255 0 0
-1.893300 -17.620001 16.456699 255 0 0
-1.916000 -17.580000 13.206000 255 0 0
-1.662500 -17.266199 -6.025000 0 255 0
-1.800000 -16.754999 -5.585000 0 255 255
-2.003300 -17.571100 -4.844400 255 0 0
-2.010000 -17.620001 -1.700000 255 0 0
-2.010000 -18.014999 23.594999 0 255 0
-0.970000 -17.809999 22.600000 0 255 0
-1.680000 -16.873301 -5.476700 0 255 0
-3.030000 -17.969999 8.380000 0 255 0
-0.660000 -17.469999 12.450000 0 255 0
-1.570000 -18.910000 6.120000 0 255 0
-0.965000 -17.225000 -6.575000 0 255 255
-1.220000 -16.666000 6.804000 0 255 0
-2.253300 -16.356701 -5.003300 0 255 255
-1.960000 -17.666700 -2.676700 255 0 0
-1.970000 -17.715000 -5.940000 255 0 0
-1.961700 -17.626699 13.406700 255 0 0
-2.206700 -16.883301 16.226700 0 255 0
-2.416700 -16.966700 17.570000 0 255 0
-2.270000 -18.400000 17.410000 0 255 0
-2.880000 -18.240000 1.370000 0 255 0
-2.320000 -17.190001 15.470000 0 255 0
-2.002500 -18.857500 4.022500 0 255 0
-1.550000 -16.959999 14.970000 0 255 0
-0.990000 -18.270000 8.510000 0 255 0
-2.305000 -16.520000 -3.173300 0 255 255
-1.855500 -16.521799 6.457700 0 255 0
-2.000000 -16.930000 -6.080000 0 255 0
-1.965000 -16.834999 14.375000 0 255 0
-2.867500 -17.165001 4.057500 0 255 0
-1.862500 -17.437500 3.612500 255 0 0
-1.620000 -17.709999 8.370000 255 0 0
-1.620000 -17.150000 24.900000 0 255 0
-1.622500 -17.615000 2.070000 255 0 0
-1.596800 -17.566200 -1.192400 255 0 0
-1.616700 -17.670000 5.116700 255 0 0
-2.220000 -17.200001 -3.170000 0 255 255
-2.258000 -16.719999 -3.196000 0 255 255
-1.840000 -18.190001 11.360000 0 255 0
-1.840000 -17.500000 2.250000 255 0 0
-1.853300 -17.486099 5.413900 255 0 0
-0.930000 -17.980000 11.960000 0 255 0
-1.670000 -17.735001 4.815000 255 0 0
-1.675000 -17.750000 1.670000 255 0 0
-1.661400 -17.815701 -1.691400 255 0 0
-1.952000 -17.334000 -5.190000 255 0 0
-1.810000 -17.355000 11.315000 0 255 0
-0.950000 -18.299999 9.890000 0 255 0
-0.960000 -18.475000 13.055000 0 255 0
-0.761700 -17.371700 13.310000 0 255 0
-2.270000 -17.480000 -6.240000 0 255 0
-1.240000 -17.240000 5.930000 0 255 0
-1.240000 -17.709999 24.889999 0 255 0
-1.945000 -17.663300 12.915000 255 0 0
-1.940000 -17.700001 9.660000 255 0 0
-1.950000 -17.770000 19.190001 255 0 0
-1.890000 -16.309999 -5.640000 0 255 255
-1.920000 -17.920000 19.910000 255 0 0
-1.630000 -17.650000 -5.685000 255 0 0
-1.613800 -17.707500 -2.439400 255 0 0
-0.816700 -17.219999 13.413300 0 255 0
-1.143300 -17.370001 -6.506700 0 255 255
-2.130000 -17.530001 8.330000 0 255 0
-1.900000 -17.270000 -5.005000 255 0 0
-1.200000 -17.077499 9.410000 0 255 0
-1.550000 -18.420000 14.870000 0 255 0
-2.080000 -17.870001 23.350000 255 0 0
-2.040000 -17.900000 20.090000 255 0 0
-2.304400 -16.820000 -4.792200 0 255 255
-1.255000 -16.678801 6.650000 0 255 0
-2.413300 -16.799999 -5.533300 0 255 255
-2.260000 -16.830000 -5.260000 0 255 255
-1.910000 -16.240000 -5.570000 0 255 255
-1.820000 -18.690001 6.430000 0 255 0
-1.960000 -18.160000 5.910000 0 255 0
-1.810000 -17.610001 24.580000 0 255 0
-2.000000 -17.513300 20.163300 0 255 0
-2.016700 -17.656700 4.260000 255 0 0
-2.000000 -17.700001 7.530000 255 0 0
-1.717500 -18.875000 2.505000 0 255 0
-1.320000 -16.990000 14.710000 0 255 0
-2.304300 -16.908600 -4.844300 0 255 255
-2.320000 -16.639999 14.530000 0 255 0
-2.756000 -17.865999 11.460000 0 255 0
-1.730000 -18.290001 9.560000 0 255 0
-1.695000 -18.219999 6.295000 0 255 0
-2.565000 -18.424999 20.445000 0 255 0
-2.380000 -18.070000 24.629999 0 255 0
-2.620000 -16.510000 -5.950000 0 255 255
-1.310000 -17.059999 6.040000 0 255 0
-0.965000 -17.719999 -6.405000 0 255 255
-1.760000 -16.822500 14.425000 0 255 0
-2.209600 -17.812901 1.406700 0 255 0
-2.122000 -16.822001 18.104000 0 255 0
-2.080000 -17.549999 -6.070000 0 255 0
-0.750000 -17.760000 3.900000 0 255 0
-1.927500 -17.612499 -1.550000 255 0 0
-1.915600 -17.466499 1.708200 255 0 0
-1.912200 -17.517799 4.960000 255 0 0
-1.155000 -17.730000 11.900000 0 255 0
-1.730000 -17.475000 7.220000 255 0 0
-1.715300 -17.281099 -5.442100 0 255 0
-1.200000 -18.400000 23.639999 0 255 0
-1.000000 -17.910000 11.880000 0 255 0
-0.710000 -17.629999 3.805000 0 255 0
-1.655900 -17.263700 -5.940000 255 0 0
-1.190000 -17.070000 8.430000 0 255 0
-1.212500 -17.162500 14.915000 0 255 0
-1.960000 -17.709999 7.563300 255 0 0
-1.940000 -17.820000 14.040000 255 0 0
-1.951400 -17.672899 10.800000 255 0 0
-1.256000 -17.622000 11.450000 0 255 0
-1.870000 -16.270000 -4.400000 0 255 255
-2.020000 -17.559999 -6.160000 0 255 0
-1.160000 -16.860001 15.390000 0 255 0
-1.805000 -18.662500 9.355000 0 255 0
-1.976700 -17.723301 2.770000 255 0 0
-1.970000 -17.763300 12.526700 255 0 0
-1.970000 -17.090000 -6.220000 0 255 0
-1.961700 -17.660000 6.005000 255 0 0
-1.357100 -17.031401 8.325700 0 255 0
-0.765000 -17.905001 11.725000 0 255 0
-1.640000 -18.500000 14.710000 0 255 0
-1.990000 -17.719999 1.840000 255 0 0
-1.995000 -17.764999 5.000000 255 0 0
-2.003300 -17.783300 3.763300 255 0 0
-1.995000 -17.719999 0.695000 255 0 0
-1.995000 -17.660000 -2.530000 255 0 0
-1.120000 -18.080000 9.740000 0 255 0
-1.053700 -16.722500 6.758800 0 255 0
-0.856700 -18.477800 9.754400 0 255 0
-2.020000 -17.260000 -5.430000 0 255 0
-1.940000 -16.650000 -6.230000 0 255 255
-2.070000 -16.750000 -3.160000 0 255 255
-2.056400 -16.612700 6.410000 0 255 0
-1.870000 -17.719999 9.710000 255 0 0
-1.846700 -17.626699 16.250000 255 0 0
-2.190000 -17.920000 24.600000 0 255 0
-1.700000 -17.856701 10.860000 255 0 0
-1.702700 -17.511999 1.251300 255 0 0
-1.709400 -17.572100 4.511500 0 255 0
-1.648900 -17.674400 -4.737800 255 0 0
-1.654000 -17.808001 11.162000 255 0 0
-1.657900 -17.573799 1.759400 255 0 0
-1.597600 -17.517599 -3.038100 255 0 0
-2.310500 -16.770300 -3.241100 0 255 255
-1.860000 -17.750000 21.469999 255 0 0
-1.859700 -17.380800 -3.843200 255 0 0
-1.930000 -17.389999 1.530000 255 0 0
-1.962800 -16.762800 -4.285600 0 255 255
-2.020000 -16.533300 -4.488900 0 255 255
-2.120000 -17.170000 24.930000 0 255 0
-2.153600 -16.517300 -4.940900 0 255 255
-1.320000 -17.080000 15.070000 0 255 0
-1.256700 -18.006701 9.276700 0 255 0
-1.880000 -17.680000 10.540000 255 0 0
-1.853800 -17.613100 13.750800 255 0 0
-1.860000 -17.121700 -6.053300 0 255 0
-2.406700 -16.528900 -4.538900 0 255 255
-2.000000 -17.007500 17.764999 0 255 0
-0.690000 -17.639999 11.680000 0 255 0
-1.080000 -17.639999 9.770000 0 255 0
-0.750000 -17.516701 4.040000 0 255 0
-1.990000 -16.809999 11.470000 0 255 0
-1.970000 -17.350000 22.530001 0 255 0
-1.840000 -17.240000 -3.520000 0 255 0
-1.880000 -17.730000 12.660000 255 0 0
-1.845000 -17.665001 15.920000 255 0 0
-0.900000 -18.500000 9.510000 0 255 0
-1.760000 -17.490000 6.650000 255 0 0
-1.770000 -17.379999 0.360000 255 0 0
-2.220000 -18.459999 18.049999 0 255 0
-1.055000 -17.059999 11.790000 0 255 0
-1.560000 -16.870001 15.420000 0 255 0
-1.170000 -17.340000 12.150000 0 255 0
-1.912500 -17.764999 0.715000 255 0 0
-1.922500 -17.662500 7.010000 255 0 0
-1.918000 -17.712000 10.162000 255 0 0
-1.914000 -17.624001 16.514000 255 0 0
-1.900000 -17.587500 13.352500 255 0 0
-1.060000 -18.430000 12.970000 0 255 0
-1.470000 -16.875000 -6.275000 0 255 255
-0.740000 -17.709999 13.640000 0 255 0
-0.800000 -18.080000 9.670000 0 255 0
-1.560000 -17.750000 1.240000 0 255 0
-2.855000 -17.422800 3.668900 0 255 0
-1.980000 -17.709999 20.660000 255 0 0
-1.940000 -17.330000 -4.640000 255 0 0
-1.955000 -17.434999 1.640000 255 0 0
-2.040000 -17.719999 1.930000 255 0 0
-2.060000 -17.420000 -4.840000 255 0 0
-2.046700 -17.660000 5.073300 255 0 0
-2.061400 -17.618099 8.206700 0 255 0
-2.311400 -16.510000 -3.150000 0 255 255
-1.715000 -18.635000 24.795000 0 255 0
-1.705000 -17.475000 3.550000 255 0 0
-1.717000 -17.434299 0.304300 255 0 0
-1.805600 -17.510000 3.114400 255 0 0
-1.813300 -17.750000 19.309999 0 255 0
-1.810000 -17.680000 12.765000 255 0 0
-1.813300 -17.606701 9.600000 255 0 0
-1.825000 -17.555000 6.275000 255 0 0
-1.790000 -17.700001 16.160000 255 0 0
-1.450000 -17.889999 24.650000 0 255 0
-2.290000 -17.120001 -4.900000 0 255 255
-1.393300 -18.263300 11.903300 0 255 0
-1.470000 -16.389999 -5.380000 0 255 255
-1.906700 -17.773300 6.166700 255 0 0
-1.910000 -17.667500 12.661300 255 0 0
-1.974000 -17.716000 3.058000 255 0 0
-1.955000 -17.665001 6.320000 255 0 0
-1.572500 -17.657499 -2.780000 255 0 0
-1.257700 -16.882299 8.415400 0 255 0
-2.460000 -17.570000 14.570000 0 255 0
-2.465600 -17.673300 8.267800 0 255 0
-1.970000 -17.450001 -5.170000 255 0 0
-1.980000 -18.139999 5.930000 0 255 0
-1.970000 -17.619301 -1.845700 255 0 0
-1.976700 -17.556700 1.303300 255 0 0
-1.950000 -17.879999 21.700001 255 0 0
-1.660000 -16.766100 6.262200 0 255 0
-1.645000 -17.682501 0.612500 255 0 0
-1.664700 -17.568399 6.911600 255 0 0
-1.667000 -17.622000 3.762500 255 0 0
-1.720000 -17.764999 16.545000 255 0 0
-1.708300 -17.508301 0.250000 255 0 0
-1.710700 -17.566500 3.505300 255 0 0
-1.915500 -17.516800 5.915000 255 0 0
-1.912000 -17.473000 2.758000 255 0 0
-2.523300 -17.129999 15.260000 0 255 0
-1.966700 -17.616699 -3.336700 255 0 0
-1.964600 -17.569599 -0.188200 255 0 0
-1.652500 -17.461100 -1.491800 255 0 0
-1.750000 -18.580000 24.889999 0 255 0
-1.775000 -17.475000 4.525000 255 0 0
-1.760700 -17.386299 -1.991500 255 0 0
-0.830000 -18.020000 3.950000 0 255 0
-2.860000 -17.174999 6.200000 0 255 0
-1.730000 -17.389999 -1.235000 255 0 0
-1.718600 -17.330000 -4.484300 255 0 0
-1.460000 -16.770000 -6.330000 0 255 255
-2.357100 -16.416300 -4.640300 0 255 255
-1.600000 -17.520000 -4.490800 255 0 0
-0.720000 -17.250000 9.430000 0 255 0
-1.520000 -17.910000 8.110000 0 255 0
-2.430000 -18.299999 18.190001 0 255 0
-1.527500 -18.157499 11.815000 0 255 0
-1.676700 -17.576700 4.113300 255 0 0
-1.675000 -17.540001 7.270000 255 0 0
-1.645600 -17.615601 0.966700 255 0 0
-1.160000 -18.565001 14.855000 0 255 0
-2.890000 -17.049999 6.190000 0 255 0
-2.160000 -16.715000 -5.090000 0 255 255
-2.115000 -17.020000 15.352500 0 255 0
-2.001400 -17.627100 5.602900 255 0 0
-2.010000 -17.469999 -3.845000 255 0 0
-1.990000 -17.500000 -0.690000 255 0 0
-2.018300 -17.569099 2.463500 0 255 0
-2.870000 -17.389999 15.010000 0 255 0
-0.720000 -17.700001 9.770000 0 255 0
-1.570000 -17.763300 1.110000 255 0 0
-0.874000 -17.820000 -6.490000 0 255 255
-0.770000 -17.139999 9.340000 0 255 0
-0.740000 -16.969999 6.210000 0 255 0
-1.270000 -18.770000 23.969999 0 255 0
-1.948000 -17.754000 1.614000 255 0 0
-1.968300 -17.670000 -4.698300 255 0 0
-1.957500 -17.632500 11.417500 255 0 0
-1.957300 -17.525499 5.108200 255 0 0
-1.350000 -16.959999 -6.300000 0 255 255
-1.580000 -17.570000 17.450001 0 255 0
-1.615000 -17.625000 17.480000 0 255 0
-1.615000 -17.768999 1.156000 255 0 0
-1.220000 -16.910000 13.930000 0 255 0
-1.200000 -17.160000 3.990000 0 255 0
-2.430000 -17.900000 20.230000 0 255 0
-2.400000 -16.770000 -4.710000 0 255 255
-2.592500 -17.764999 9.212500 0 255 0
-1.910000 -16.987499 -5.727500 0 255 0
-2.280000 -18.629999 24.200001 0 255 0
-1.565000 -17.625000 7.065000 255 0 0
-1.961100 -17.071100 16.315599 0 255 0
-1.457500 -16.615000 14.072500 0 255 0
-1.730000 -18.709999 14.940000 0 255 0
-1.650000 -17.500000 -3.970000 255 0 0
-1.680000 -17.780001 5.810000 255 0 0
-1.670000 -17.809999 2.560000 255 0 0
-1.655000 -17.705000 9.062500 255 0 0
-1.460000 -17.750000 4.770000 0 255 0
-1.454400 -17.669399 11.311100 0 255 0
-0.942000 -17.516001 10.098000 0 255 0
-2.600000 -16.570000 -4.186700 0 255 255
-1.761400 -18.766800 2.412100 0 255 0
-1.550000 -17.410000 11.500000 0 255 0
-1.569400 -17.618299 -1.935600 255 0 0
-1.566700 -17.660000 7.500000 255 0 0
-1.925000 -18.424999 6.205000 0 255 0
-1.906700 -18.270000 9.566700 0 255 0
-1.646000 -17.674000 0.454000 255 0 0
-1.668500 -17.618500 3.708000 255 0 0
-1.667300 -17.574699 6.956000 255 0 0
-1.150000 -16.924999 9.510000 0 255 0
-1.159500 -17.168900 6.002600 0 255 0
-1.857500 -17.417500 5.960000 255 0 0
-1.950000 -17.780001 2.560000 255 0 0
-1.950000 -17.667999 -3.738000 255 0 0
-1.980000 -17.639999 12.070000 255 0 0
-1.955100 -17.525700 5.764000 255 0 0
-1.930000 -17.570000 -3.070000 255 0 0
-1.920000 -17.610001 0.170000 255 0 0
-1.899200 -17.523300 6.462500 255 0 0
-1.907700 -17.478500 3.215600 255 0 0
-1.940000 -17.620001 9.270000 255 0 0
-1.963700 -17.515100 2.954900 255 0 0
-1.770000 -17.360001 -5.220000 255 0 0
-1.780000 -18.520000 22.410000 0 255 0
-1.755000 -18.350000 6.200000 0 255 0
-1.760000 -17.455601 1.056300 255 0 0
-0.640000 -18.040001 13.530000 0 255 0
-1.654700 -17.466200 -1.287700 0 255 0
-2.240000 -17.760000 -5.800000 0 255 0
-1.759700 -17.409500 -1.641600 255 0 0
-1.803600 -17.458599 1.263600 255 0 0
-1.810000 -17.410000 -1.990400 255 0 0
-2.765000 -17.014999 -6.175000 0 255 255
-2.205200 -16.869699 -4.183500 0 255 255
-2.156000 -17.024000 16.056000 0 255 0
-2.208200 -16.721800 -4.282400 0 255 255
-0.890000 -17.830000 9.780000 0 255 0
-2.262400 -16.512899 -4.491800 0 255 255
-2.020000 -17.540001 5.380000 255 0 0
-1.991400 -17.477100 2.114300 255 0 0
-2.406700 -16.478300 -5.178300 0 255 255
-1.970000 -18.469999 -6.175000 0 255 255
-2.380000 -17.290001 -6.130000 0 255 255
-2.073300 -18.469999 9.653300 0 255 0
-2.410000 -17.090000 17.500000 0 255 0
-0.980000 -17.290001 16.190001 0 255 0
-0.958300 -17.008301 6.401700 0 255 0
-1.016700 -18.423300 11.613300 0 255 0
-1.170000 -17.490000 11.670000 0 255 0
-1.196700 -17.376699 11.506700 0 255 0
-1.540000 -17.333300 14.426700 0 255 0
-1.550000 -18.570000 24.805000 0 255 0
-2.920000 -18.030001 3.930000 0 255 0
-1.840000 -17.340000 -2.760000 255 0 0
-1.860000 -17.775000 20.305000 255 0 0
-0.922900 -17.724300 -6.488600 0 255 255
-1.913300 -18.236700 9.560000 0 255 0
-1.909400 -17.468700 -0.737400 255 0 0
-2.410000 -18.485001 20.360001 0 255 0
-0.700000 -17.700001 12.980000 0 255 0
-0.718000 -17.672001 9.812000 0 255 0
-1.670000 -17.780001 1.820000 255 0 0
-1.660000 -17.820000 -1.436700 255 0 0
-1.670000 -17.170000 14.070000 0 255 0
-1.750000 -17.840000 11.230000 255 0 0
-1.480000 -17.379999 -6.110000 0 255 0
-1.200000 -17.879999 11.700000 0 255 0
-0.630000 -17.440001 10.130000 0 255 0
-0.640000 -17.620001 12.600000 0 255 0
-1.660000 -18.070000 9.610000 0 255 0
-1.852700 -17.267300 -5.390000 255 0 0
-2.080000 -17.139999 -6.010000 0 255 0
-2.060000 -17.500000 20.129999 0 255 0
-1.910000 -17.764999 10.050000 255 0 0
-1.910000 -17.660000 16.365000 255 0 0
-1.920000 -17.719999 19.610001 255 0 0
-1.918700 -17.320000 -5.683800 255 0 0
-2.140000 -18.360001 -6.090000 0 255 255
-2.460000 -17.820000 -6.120000 0 255 255
-1.960000 -17.020000 14.330000 0 255 0
-1.190000 -18.100000 11.870000 0 255 0
-1.950000 -17.702499 13.557500 255 0 0
-1.960000 -17.665001 16.799999 255 0 0
-2.120000 -16.620001 13.395000 0 255 0
-1.260000 -17.559999 24.980000 0 255 0
-2.460000 -17.059999 -3.210000 0 255 255
-1.370000 -17.129999 14.150000 0 255 0
-2.710000 -17.270000 14.970000 0 255 0
-1.963000 -16.476999 -4.399000 0 255 255
-1.010000 -17.350000 15.560000 0 255 0
-2.410000 -17.312300 11.408500 0 255 0
-1.830000 -17.680000 17.290001 255 0 0
-1.812500 -17.615000 14.060000 255 0 0
-1.807000 -17.530500 7.760500 255 0 0
-1.803300 -17.586700 11.012200 255 0 0
-1.970000 -17.730000 7.410000 255 0 0
-1.960000 -17.750000 17.059999 255 0 0
-1.956000 -17.664000 10.566000 255 0 0
-1.280000 -16.910000 15.330000 0 255 0
-1.880000 -17.520000 11.490000 255 0 0
-1.862300 -17.573099 8.253800 255 0 0
-2.040000 -17.680000 3.850000 255 0 0
-1.850000 -17.540001 11.280000 255 0 0
-1.857800 -17.564400 8.110000 255 0 0
-1.980000 -17.780001 14.200000 255 0 0
-1.966700 -17.726700 4.668300 255 0 0
-1.950000 -17.809999 10.955000 255 0 0
-1.955000 -17.674999 7.910000 255 0 0
-1.420000 -17.760000 -6.290000 0 255 0
-2.964500 -17.613600 8.474500 0 255 0
-1.063800 -17.213800 6.006900 0 255 0
-1.755000 -17.684999 9.405000 255 0 0
-1.770000 -17.770000 15.540000 255 0 0
-1.758600 -17.625700 12.564300 255 0 0
-1.760000 -17.566700 2.893300 255 0 0
-1.758600 -17.520901 6.061200 255 0 0
-2.454700 -17.417601 5.959400 0 255 0
-0.963200 -17.025900 4.006800 0 255 0
-1.710000 -17.139999 -5.890000 0 255 0
-1.700000 -18.440001 14.530000 0 255 0
-1.718700 -17.432699 0.662000 255 0 0
-1.711200 -17.469200 3.803200 255 0 0
-1.770000 -17.719999 16.600000 255 0 0
-1.761700 -17.613300 9.865800 255 0 0
-1.761100 -17.516300 3.555900 0 255 0
-1.954400 -17.518400 -0.392100 255 0 0
-1.956000 -17.628000 6.104000 255 0 0
-1.953000 -17.478701 2.856500 255 0 0
-1.950000 -17.490000 5.890000 255 0 0
-1.948000 -17.625999 9.054000 255 0 0
-1.963600 -17.513300 2.757600 255 0 0
-1.990000 -17.459999 -0.550000 255 0 0
-1.990000 -17.566700 5.946700 255 0 0
-2.000400 -17.527000 2.609600 255 0 0
-2.062700 -17.624500 2.503600 255 0 0
-2.505000 -17.764999 -6.275000 0 255 255
-1.215000 -17.170000 9.265000 0 255 0
-1.209100 -17.120899 6.011100 0 255 0
-1.190000 -16.840000 9.460000 0 255 0
-1.220000 -16.790001 6.300000 0 255 0
-2.723300 -18.330000 17.576700 0 255 0
-2.720000 -17.309999 14.750000 0 255 0
-2.600000 -18.049999 -6.110000 0 255 255
-2.766700 -17.483299 8.426700 0 255 0
-2.402500 -16.665001 -4.705000 0 255 255
-2.154000 -16.559999 -4.837000 0 255 255
-2.170000 -16.719999 14.250000 0 255 0
-2.253300 -16.711700 -4.845000 0 255 255
-2.193300 -17.676701 23.610001 0 255 0
-2.190000 -17.610001 20.469999 0 255 0
-2.460000 -16.480000 -4.750000 0 255 255
-1.640000 -18.150000 15.360000 0 255 0
-1.290000 -16.879999 -5.170000 0 255 255
-0.746000 -18.114000 11.652000 0 255 0
-1.220000 -17.370001 17.466700 0 255 0
-2.561700 -17.379999 6.068300 0 255 0
-2.570000 -18.740000 23.895000 0 255 0
-1.880000 -17.570000 4.060000 255 0 0
-1.850000 -17.670000 -2.100000 255 0 0
-1.852300 -17.529200 7.313100 0 255 0
-1.905000 -17.790001 1.525000 255 0 0
-1.900000 -17.610001 17.309999 255 0 0
-1.925000 -17.665001 7.810000 255 0 0
-1.890000 -17.580000 14.180000 255 0 0
-1.895000 -17.715000 10.970000 255 0 0
-1.860000 -17.455000 -3.250000 255 0 0
-1.750000 -17.809999 -1.480000 255 0 0
-1.575000 -17.466700 -5.343300 255 0 0
-1.565700 -18.624300 9.508600 0 255 0
-1.650000 -17.615000 0.756700 255 0 0
-1.658300 -17.578300 3.913300 255 0 0
-1.820000 -17.412001 -4.042000 255 0 0
-1.811400 -17.459999 -0.882900 255 0 0
-0.930000 -17.420000 9.390000 0 255 0
-1.657600 -17.372200 -4.890800 255 0 0
-1.460000 -17.830000 9.200000 0 255 0
-2.210000 -17.230000 -6.070000 0 255 0
-1.407500 -17.772499 17.407499 0 255 0
-1.603800 -16.977501 -5.130000 0 255 0
-1.610000 -16.860001 14.410000 0 255 0
-0.710000 -18.125000 9.660000 0 255 0
-0.850000 -18.264999 9.670000 0 255 0
-2.165000 -16.820000 -6.190000 0 255 255
-1.630000 -17.709999 -4.760000 255 0 0
-1.618000 -17.212000 14.056000 0 255 0
-1.990000 -18.549999 9.430000 0 255 0
-1.310000 -16.389999 -5.100000 0 255 255
-2.100000 -18.190001 5.890000 0 255 0
-1.511700 -17.568300 -5.533300 255 0 0
-1.540000 -17.540001 3.820000 0 255 0
-1.575000 -17.430000 -2.505000 255 0 0
-2.450000 -16.820000 17.820000 0 255 0
-2.420000 -17.049999 -4.320000 0 255 255
-2.551700 -17.834999 2.473300 0 255 0
-2.400000 -16.580000 -2.890000 0 255 255
-1.620000 -17.639999 3.350000 255 0 0
-1.630000 -17.730000 9.880000 255 0 0
-1.615000 -17.657499 6.607500 255 0 0
-1.608400 -17.568100 0.107300 255 0 0
-1.890000 -17.219999 -5.560000 255 0 0
-1.930000 -17.709999 13.390000 255 0 0
-1.915700 -17.672899 10.162900 255 0 0
-2.180000 -16.690001 18.240000 0 255 0
-2.250000 -16.770000 18.100000 0 255 0
-1.303300 -17.270000 11.306700 0 255 0
-2.014000 -17.120001 16.264000 0 255 0
-2.220000 -16.959999 -4.790000 0 255 255
-2.517500 -17.279200 3.923300 0 255 0
-0.880000 -18.129999 4.040000 0 255 0
-2.460000 -16.870001 -4.050000 0 255 255
-2.180000 -18.000000 20.230000 0 255 0
-2.443800 -18.575001 3.913800 0 255 0
-1.363300 -17.713301 11.296700 0 255 0
-1.310000 -18.600000 13.040000 0 255 0
-2.550000 -16.635000 -3.230000 0 255 255
-2.320000 -17.540001 14.550000 0 255 0
-2.320000 -17.603300 8.406700 0 255 0
-1.590000 -17.400000 -0.300000 255 0 0
-1.630000 -17.700001 -6.240000 0 255 0
-1.618000 -17.370001 -3.540000 255 0 0
-2.420000 -16.930000 17.530001 0 255 0
-2.270000 -18.010000 20.240000 0 255 0
-2.460000 -17.126699 17.510000 0 255 0
-2.052500 -17.667500 4.100000 255 0 0
-2.180000 -16.360001 -5.020000 0 255 255
-2.350000 -17.959999 1.430000 0 255 0
-2.160000 -16.690001 13.820000 0 255 0
-2.170000 -16.376699 -4.990000 0 255 255
-2.907500 -16.817499 -5.585000 0 255 255
-2.310000 -16.572901 -4.978600 0 255 255
-1.700000 -18.740000 11.520000 0 255 0
-1.720000 -18.750000 14.670000 0 255 0
-1.715000 -17.386999 -2.191000 255 0 0
-1.701900 -17.313801 -5.336900 255 0 0
-1.916700 -17.876699 3.766700 255 0 0
-1.115000 -17.455000 9.400000 0 255 0
-1.340000 -17.910000 16.709999 0 255 0
-1.580000 -17.629999 3.960000 255 0 0
-1.570000 -17.719999 10.440000 255 0 0
-1.580000 -17.580000 7.100000 255 0 0
-1.700000 -17.790001 11.870000 255 0 0
-1.710000 -17.170000 24.915001 0 255 0
-1.560000 -16.950001 -5.490000 0 255 0
-2.310000 -16.625000 -4.795000 0 255 255
-0.720000 -17.670000 9.855000 0 255 0
-1.790000 -17.520000 13.070000 255 0 0
-1.400000 -16.309999 -5.430000 0 255 255
-2.220000 -16.420000 -4.480000 0 255 255
-1.965000 -17.665001 13.105000 255 0 0
-1.947100 -17.719999 9.867100 255 0 0
-1.955000 -17.775000 19.405001 255 0 0
-2.567500 -17.067499 16.207500 0 255 0
-1.900000 -17.389999 -1.540000 255 0 0
-1.901200 -17.430401 1.708300 255 0 0
-2.203300 -16.625000 -3.238300 0 255 255
-2.670000 -17.969999 22.690001 0 255 0
-1.390000 -17.639999 17.370001 0 255 0
-1.415000 -17.510000 11.605000 0 255 0
-2.950000 -17.750000 3.990000 0 255 0
-2.005000 -17.666700 1.605000 255 0 0
-1.995000 -17.726700 4.758300 255 0 0
-2.013300 -17.813299 11.253300 255 0 0
-1.330000 -17.709999 11.250000 0 255 0
-2.270000 -17.780001 -5.870000 0 255 0
-2.966700 -17.120001 4.052700 0 255 0
-1.802000 -18.177999 11.354000 0 255 0
-1.670000 -17.799999 8.720000 255 0 0
-1.656000 -17.532000 2.570000 255 0 0
-2.210000 -17.180000 -5.030000 0 255 0
-2.273800 -16.770000 -5.032500 0 255 255
-2.303900 -16.571100 -4.591700 0 255 255
-1.730000 -17.580000 9.620000 255 0 0
-1.695000 -17.671000 3.114000 255 0 0
-1.711000 -17.528099 6.361900 255 0 0
-1.250000 -17.035000 6.060000 0 255 0
-1.960000 -16.990000 17.770000 0 255 0
-2.060000 -16.840000 14.570000 0 255 0
-1.960800 -17.716200 0.853800 255 0 0
-1.950000 -17.760000 10.420000 255 0 0
-1.330000 -18.459999 24.090000 0 255 0
-2.480000 -18.230000 17.830000 0 255 0
-1.580000 -16.690001 14.340000 0 255 0
-0.812900 -18.118601 9.775700 0 255 0
-1.140000 -17.100000 8.420000 0 255 0
-1.160000 -17.225000 14.910000 0 255 0
-1.730000 -17.490000 4.440000 255 0 0
-1.700000 -17.129999 -4.930000 0 255 0
-1.716200 -17.438700 1.205000 255 0 0
-1.830000 -17.440001 7.640000 0 255 0
-1.480000 -17.950001 15.420000 0 255 0
-2.512900 -18.715700 3.942900 0 255 0
-2.259700 -17.826300 1.368700 0 255 0
-2.010000 -16.930000 -4.806700 0 255 0
-2.105000 -17.160000 17.555000 0 255 0
-2.162200 -16.719601 -4.644800 0 255 255
-1.640000 -17.250000 -6.340000 0 255 0
-2.460000 -17.773300 -6.256700 0 255 255
-2.550000 -18.010000 22.480000 0 255 0
-2.904000 -17.322001 9.658000 0 255 0
-1.617500 -18.222500 11.820000 0 255 0
-1.614000 -18.521000 6.065000 0 255 0
-0.980000 -17.209999 14.960000 0 255 0
-1.290000 -18.090000 24.940001 0 255 0
-2.264000 -16.872000 -5.448000 0 255 255
-1.554300 -17.317101 -5.440000 255 0 0
-1.570000 -18.680000 9.570000 0 255 0
-1.855000 -17.549999 6.495000 255 0 0
-1.855000 -17.540001 9.660000 255 0 0
-1.695000 -17.809999 5.950000 255 0 0
-1.710000 -17.510000 -0.183300 255 0 0
-1.696700 -17.703300 12.466700 255 0 0
-1.704700 -17.568701 2.961300 0 255 0
-2.410000 -16.969999 16.290001 0 255 0
-1.755000 -18.321199 9.660000 0 255 0
-1.751900 -17.454201 0.759600 0 255 0
-2.158300 -16.481701 -5.088300 0 255 255
-1.971300 -17.612499 4.965000 255 0 0
-1.960000 -17.559999 8.120000 0 255 0
-1.960000 -17.475700 1.610400 255 0 0
-1.980000 -17.910000 24.540001 0 255 0
-1.955100 -17.522600 -1.541400 255 0 0
-1.375000 -17.100000 14.205000 0 255 0
-1.390000 -18.040001 11.660000 0 255 0
-2.245000 -16.520000 -5.245000 0 255 255
-1.600000 -17.969999 24.520000 0 255 0
-1.370000 -18.520000 16.420000 0 255 0
-2.361800 -18.422701 3.902700 0 255 0
-2.365000 -18.160000 17.570000 0 255 0
-2.640000 -18.540001 17.709999 0 255 0
-1.430000 -18.420000 9.600000 0 255 0
-1.400000 -18.480000 12.770000 0 255 0
-2.930000 -17.940001 2.550000 0 255 0
-2.216700 -17.129999 17.504999 0 255 0
-1.060000 -16.920000 6.520000 0 255 0
-2.790000 -17.700001 21.719999 0 255 0
-1.480000 -16.655001 16.219999 0 255 0
-2.560000 -17.080000 14.950000 0 255 0
-1.115700 -18.172899 9.610000 0 255 0
-2.410000 -18.775000 24.100000 0 255 0
-2.268600 -16.512899 -4.934300 0 255 255
-1.520000 -18.530001 15.030000 0 255 0
-1.510000 -17.155001 -6.335000 0 255 0
-2.210800 -16.772499 -4.534200 0 255 255
-2.020000 -17.770000 -5.420000 0 255 0
-1.990000 -17.469999 0.900000 255 0 0
-1.996000 -17.528000 4.162000 255 0 0
-1.390000 -17.350000 17.510000 0 255 0
-1.470000 -17.434999 17.860001 0 255 0
-1.480000 -17.500000 11.380000 0 255 0
-1.513300 -18.526699 -6.290000 0 255 255
-1.514500 -18.166401 9.716400 0 255 0
-1.555000 -16.805000 -6.145000 0 255 255
-2.720000 -18.030001 22.540001 0 255 0
-1.915000 -16.770000 -4.382500 0 255 255
-1.916700 -17.726700 -4.936700 255 0 0
-1.925000 -17.555000 -1.930000 255 0 0
-1.900000 -17.485001 4.565000 255 0 0
-2.480000 -18.309999 22.430000 0 255 0
-2.910000 -17.616699 9.456700 0 255 0
-2.550000 -16.830000 18.490000 0 255 0
-2.570000 -16.568001 -3.986000 0 255 255
-1.206700 -18.166700 9.663300 0 255 0
-1.500000 -17.809999 11.310000 0 255 0
-1.500000 -16.716700 -6.333300 0 255 255
-2.160000 -17.459999 0.540000 0 255 0
-2.162300 -17.430799 3.820800 0 255 0
-1.950000 -18.600000 16.020000 0 255 0
-1.600000 -17.320000 -5.160000 255 0 0
-1.740000 -18.530001 9.430000 0 255 0
-1.850000 -18.059999 2.590000 0 255 0
-1.456700 -18.224400 11.760000 0 255 0
-2.630000 -18.510000 20.510000 0 255 0
-2.600000 -18.500000 17.639999 0 255 0
-1.470000 -16.469999 -5.190000 0 255 255
-1.515000 -16.924999 15.005000 0 255 0
-2.480000 -17.040001 17.760000 0 255 0
-2.380000 -17.160000 17.490000 0 255 0
-2.580000 -17.209999 15.200000 0 255 0
-1.610000 -17.680000 10.450000 255 0 0
-1.610000 -17.622499 7.110000 255 0 0
-1.790000 -17.780001 -2.510000 255 0 0
-1.765000 -17.770000 -5.290000 255 0 0
-1.750000 -17.820000 4.460000 255 0 0
-1.762500 -17.875000 1.205000 255 0 0
-1.761100 -17.129999 11.420000 0 255 0
-2.660000 -17.400000 9.250000 0 255 0
-1.390000 -17.040001 8.300000 0 255 0
-1.410000 -17.072500 14.102500 0 255 0
-2.655000 -18.520000 20.504999 0 255 0
-2.490000 -17.059999 15.120000 0 255 0
-2.510700 -17.567900 8.352100 0 255 0
-1.125000 -17.825001 22.605000 0 255 0
-1.915000 -17.378000 1.566000 255 0 0
-1.963300 -16.770000 -4.340000 0 255 255
-1.930000 -16.969999 17.760000 0 255 0
-2.020000 -17.059999 17.799999 0 255 0
-2.063800 -16.924999 -4.235000 0 255 0
-1.610000 -17.774000 8.654000 255 0 0
-1.473300 -17.254999 3.948300 0 255 0
-1.460000 -18.674999 16.215000 0 255 0
-1.470000 -16.865000 15.265000 0 255 0
-1.050000 -17.180000 17.690001 0 255 0
-1.580000 -17.480000 -0.750000 255 0 0
-1.571000 -17.521400 -3.880500 255 0 0
-1.960000 -18.250000 9.810000 0 255 0
-2.525000 -17.905001 11.400000 0 255 0
-1.310000 -18.690001 14.750000 0 255 0
-1.950000 -17.325001 11.295000 0 255 0
-2.168000 -16.784000 -4.208000 0 255 255
-2.110000 -17.150000 20.370001 0 255 0
-0.910000 -17.760000 12.005000 0 255 0
-1.705000 -16.910000 -5.430000 0 255 0
-2.170000 -16.670000 16.209999 0 255 0
-2.280000 -17.260000 16.250000 0 255 0
-2.020000 -17.360001 -6.100000 0 255 0
-2.010000 -17.700001 16.870001 255 0 0
-2.010000 -17.680000 13.720000 255 0 0
-2.000000 -17.674999 11.745000 255 0 0
-2.010000 -17.809999 21.510000 255 0 0
-2.010000 -17.420000 -3.790000 255 0 0
-1.990000 -17.705000 15.020000 255 0 0
-2.110000 -17.610001 21.520000 0 255 0
-1.590000 -18.000000 11.670000 0 255 0
-1.630000 -17.750000 5.630000 255 0 0
-1.620000 -17.825001 8.780000 255 0 0
-1.680000 -17.775000 2.355000 255 0 0
-1.672500 -17.716299 5.513700 255 0 0
-1.167500 -18.070000 9.615000 0 255 0
-2.680000 -17.610001 14.660000 0 255 0
-1.390000 -17.370001 23.870001 0 255 0
-1.200000 -17.059999 15.150000 0 255 0
-1.440000 -17.840000 22.450001 0 255 0
-2.425000 -17.825001 9.255000 0 255 0
-3.000000 -17.514999 21.850000 0 255 0
-1.845000 -17.764999 7.345000 255 0 0
-1.840000 -17.650000 13.850000 255 0 0
-1.853300 -17.171700 -6.085000 0 255 0
-1.840000 -17.629999 16.879999 255 0 0
-2.650000 -17.719999 8.240000 0 255 0
-2.660000 -18.366699 17.953300 0 255 0
-1.514400 -18.270599 9.668100 0 255 0
-1.892500 -18.565001 2.477500 0 255 0
-1.315600 -17.207800 3.911100 0 255 0
-1.907500 -16.872499 14.465000 0 255 0
-1.960000 -16.629999 -4.900000 0 255 255
-1.200000 -18.270000 8.420000 0 255 0
-2.870000 -17.735001 14.770000 0 255 0
-2.480000 -17.500000 -6.340000 0 255 255
-2.200000 -16.660000 -6.175000 0 255 255
-2.650000 -17.250000 3.920000 0 255 0
-1.346700 -18.730000 14.706700 0 255 0
-1.530000 -17.610001 -2.570000 255 0 0
-1.515000 -17.420000 -2.675000 255 0 0
-1.514700 -17.316099 3.857800 0 255 0
-1.510000 -17.375601 -5.943300 255 0 0
-2.650000 -17.469999 9.350000 0 255 0
-1.570000 -17.629999 11.220000 0 255 0
-1.590000 -18.690001 16.260000 0 255 0
-2.317500 -16.815001 -5.790000 0 255 255
-0.955000 -17.764999 -6.675000 0 255 255
-1.665700 -17.326700 -4.393300 255 0 0
-1.653300 -18.628300 14.615000 0 255 0
-1.956000 -16.516001 -4.980000 0 255 255
-2.830000 -17.620001 -6.355000 0 255 255
-2.413300 -16.709999 -5.438300 0 255 255
-1.740000 -17.879999 -6.340000 0 255 0
-1.770000 -17.830000 -3.210000 255 0 0
-1.305000 -16.754999 15.365000 0 255 0
-2.200000 -16.968000 15.308000 0 255 0
-2.218200 -16.664499 -4.250900 0 255 255
-3.020000 -17.420000 8.740000 0 255 0
-2.362700 -16.514500 -4.787300 0 255 255
-1.440000 -18.510000 24.520000 0 255 0
-1.360000 -17.730000 -4.920000 0 255 255
-2.380000 -18.129999 17.709999 0 255 0
-2.350000 -17.959999 1.370000 0 255 0
-2.520000 -17.653299 -6.403300 0 255 255
-2.350000 -16.750000 13.350000 0 255 0
-2.250000 -17.920000 2.470000 0 255 0
-1.610000 -17.469999 11.490000 0 255 0
-1.620000 -17.621401 -5.287100 255 0 0
-1.601900 -17.674400 -1.938100 255 0 0
-1.611700 -17.423401 8.164500 0 255 0
-1.612500 -17.740000 1.195000 255 0 0
-0.625000 -18.155001 10.130000 0 255 0
-1.560000 -18.879999 2.440000 0 255 0
-1.340000 -17.940001 11.660000 0 255 0
-1.260000 -18.450001 12.830000 0 255 0
-1.275000 -18.521200 9.662500 0 255 0
-1.997500 -17.670000 13.022500 255 0 0
-1.990000 -17.709999 16.150000 255 0 0
-3.030000 -17.219999 4.070000 0 255 0
-2.160000 -17.389999 15.150000 0 255 0
-2.330000 -17.990000 17.549999 0 255 0
-2.400000 -18.059999 17.565001 0 255 0
-2.352000 -17.018000 -3.192000 0 255 255
-1.545000 -16.955000 15.060000 0 255 0
-1.170000 -17.440001 17.670000 0 255 0
-1.160000 -18.150000 24.870001 0 255 0
-1.154300 -18.114300 9.660000 0 255 0
-2.313300 -17.010799 -3.234200 0 255 255
-2.540000 -16.780001 -6.090000 0 255 255
-1.360000 -17.211500 3.895400 0 255 0
-1.700000 -17.770000 6.560000 255 0 0
-1.701400 -17.728600 3.311400 255 0 0
-2.380000 -17.889999 -6.130000 0 255 255
-2.170000 -16.549999 -3.330000 0 255 255
-2.930000 -17.590000 21.790001 0 255 0
-1.876700 -17.456699 -2.190000 255 0 0
-1.875000 -18.125000 6.155000 0 255 0
-1.870000 -17.889999 22.459999 255 0 0
-1.866900 -17.458500 -2.040000 255 0 0
-1.880000 -17.219999 -5.100000 255 0 0
-1.863300 -17.680000 17.709999 255 0 0
-1.755000 -17.625000 17.172501 255 0 0
-1.808300 -16.538300 -5.543300 0 255 255
-1.760000 -17.561701 7.511700 255 0 0
-1.760000 -17.690001 14.030000 255 0 0
-1.110000 -18.405001 14.790000 0 255 0
-1.515000 -16.717501 14.152500 0 255 0
-1.262500 -17.430000 -6.280000 0 255 0
-1.575000 -17.809999 -0.925000 0 255 0
-2.160000 -17.059999 -6.010000 0 255 0
-1.710000 -17.799999 2.700000 255 0 0
-1.690000 -17.559999 -0.170000 255 0 0
-1.710000 -17.540001 -3.430000 255 0 0
-2.555000 -17.375000 14.940000 0 255 0
-1.608000 -16.568001 -5.882000 0 255 255
-2.100000 -17.510000 15.030000 0 255 0
-2.120000 -17.440001 21.530001 0 255 0
-1.690000 -17.780001 6.670000 255 0 0
-1.703300 -17.716700 3.405800 0 255 0
-2.290000 -18.049999 1.360000 0 255 0
-2.090000 -17.600000 2.890000 255 0 0
-1.230000 -17.459999 14.620000 0 255 0
-1.140000 -17.705000 -6.345000 0 255 255
-1.060000 -17.889999 16.670000 0 255 0
-2.067800 -18.231100 5.965600 0 255 0
-1.400000 -17.650000 11.510000 0 255 0
-1.395000 -17.920000 -6.445000 0 255 255
-1.618000 -17.010000 -5.402000 0 255 0
-2.355000 -18.725000 4.015000 0 255 0
-2.610000 -16.850000 -5.620000 0 255 255
-2.250000 -18.299999 20.170000 0 255 0
-1.840000 -16.320000 -5.560000 0 255 255
-2.070000 -17.139999 11.590000 0 255 0
-1.820000 -17.633301 16.273300 255 0 0
-1.852500 -16.709999 6.402500 0 255 0
-1.810000 -17.580000 13.205000 255 0 0
-2.055800 -16.866800 6.264700 0 255 0
-2.063200 -16.621599 -3.252800 0 255 255
-2.110000 -17.740000 16.209999 0 255 0
-1.950000 -17.830000 19.230000 255 0 0
-1.980000 -17.719999 12.900000 255 0 0
-1.950000 -17.660000 16.080000 255 0 0
-1.970000 -17.379999 -3.750000 255 0 0
-2.220000 -16.930000 16.090000 0 255 0
-2.200000 -16.780001 6.310000 0 255 0
-2.660600 -17.267099 6.024700 0 255 0
-2.560000 -17.200001 6.090000 0 255 0
-1.263300 -18.516701 9.750000 0 255 0
-1.760000 -17.850000 5.690000 255 0 0
-1.750000 -17.709999 2.680000 255 0 0
-1.740000 -17.820000 8.970000 255 0 0
-1.820000 -16.360001 -5.310000 0 255 255
-1.980000 -18.809999 4.200000 0 255 0
-2.653300 -16.833300 -6.183300 0 255 255
-1.993300 -17.483299 -3.336700 255 0 0
-1.990000 -17.530001 -0.195000 255 0 0
-2.007500 -17.565901 3.156900 255 0 0
-1.566700 -17.600000 -4.723300 255 0 0
-1.550000 -17.490000 17.340000 0 255 0
-1.575200 -17.570400 -1.589300 0 255 0
-1.560000 -18.520000 9.570000 0 255 0
-1.695000 -17.777500 -1.392500 255 0 0
-1.704000 -17.728001 -4.532000 255 0 0
-0.990000 -17.650000 9.790000 0 255 0
-1.120000 -16.780001 13.815000 0 255 0
-2.103300 -16.776699 -4.240000 0 255 255
-2.105000 -16.875000 15.310000 0 255 0
-1.990000 -17.719999 13.060000 255 0 0
-2.000000 -17.690001 9.930000 255 0 0
-2.650000 -18.490000 20.490000 0 255 0
-1.990000 -17.049999 15.390000 0 255 0
-2.090000 -17.590000 0.160000 255 0 0
-1.630000 -16.650000 16.420000 0 255 0
-1.715000 -17.770000 -3.105000 255 0 0
-1.570000 -16.750000 18.230000 0 255 0
-1.540000 -16.799999 15.070000 0 255 0
-2.217500 -16.772499 14.410000 0 255 0
-2.213600 -16.571800 -4.749100 0 255 255
-1.867500 -18.615000 2.555000 0 255 0
-1.590000 -17.830000 -6.350000 0 255 0
-1.615700 -17.622900 6.311400 255 0 0
-1.610000 -17.674999 9.665000 255 0 0
-1.480000 -17.740000 17.510000 0 255 0
-1.440000 -17.799999 11.340000 0 255 0
-1.926000 -17.510000 1.006000 255 0 0
-1.912100 -17.464399 -2.137000 255 0 0
-2.590000 -16.540001 -5.610000 0 255 255
-1.911100 -17.565599 6.407800 255 0 0
-1.910000 -17.622499 9.667500 255 0 0
-2.898600 -17.485701 8.517100 0 255 0
-1.722500 -17.482500 3.357500 255 0 0
-1.714700 -17.430000 0.111700 255 0 0
-1.716700 -17.133301 -6.250000 0 255 0
-1.920000 -17.680000 -1.500000 255 0 0
-1.930000 -17.719999 1.660000 255 0 0
-1.900000 -17.469999 11.570000 0 255 0
-1.910000 -17.617599 8.211800 255 0 0
-1.910000 -17.558001 5.044000 255 0 0
-1.850000 -18.235001 2.475000 0 255 0
-1.867100 -17.453800 -1.637600 255 0 0
-1.620000 -17.790001 7.440000 255 0 0
-1.625000 -17.809999 10.725000 255 0 0
-2.175000 -18.120001 -5.900000 0 255 255
-2.453300 -17.126699 15.166700 0 255 0
-1.730000 -17.690001 12.570000 255 0 0
-1.711400 -17.617100 9.411400 255 0 0
-1.620000 -16.670000 17.966700 0 255 0
-1.610000 -17.135000 -5.455000 0 255 0
-1.861700 -17.430000 3.700000 255 0 0
-1.920000 -18.309999 6.320000 0 255 0
-2.095000 -16.670000 -3.210000 0 255 255
-2.107900 -16.828400 6.213200 0 255 0
-2.110000 -16.905001 -3.290000 0 255 0
-2.106000 -16.861000 6.258000 0 255 0
-1.600000 -17.809999 -1.240000 255 0 0
-1.430000 -17.230000 -5.960000 0 255 0
-3.050000 -17.660000 21.780001 0 255 0
-3.017700 -18.016899 2.602300 0 255 0
-1.693300 -17.726700 5.066700 255 0 0
-1.708900 -17.815599 -1.438900 255 0 0
-1.690000 -17.780001 8.230000 255 0 0
-1.900000 -18.490000 2.650000 0 255 0
-1.905000 -18.372499 9.212500 0 255 0
-0.710000 -17.420000 12.460000 0 255 0
-2.010000 -16.613300 -6.183300 0 255 255
-2.006700 -16.226700 -5.683300 0 255 255
-1.800000 -17.559999 -1.540000 255 0 0
-1.705000 -17.809999 -0.140000 255 0 0
-1.690000 -17.730000 6.160000 255 0 0
-1.215000 -16.613300 6.520000 0 255 0
-1.250000 -16.870001 15.570000 0 255 0
-1.805000 -17.455000 11.310000 255 0 0
-1.600000 -18.020000 9.580000 0 255 0
-1.095000 -17.655001 -6.260000 0 255 255
-2.870000 -17.570000 14.660000 0 255 0
-2.861100 -17.224400 11.660000 0 255 0
-1.270000 -17.122000 4.000000 0 255 0
-0.855000 -17.424999 4.095000 0 255 0
-2.090000 -17.730000 -5.530000 0 255 0
-2.090000 -17.639999 0.940000 255 0 0
-1.030000 -18.360001 10.060000 0 255 0
-2.713300 -17.870001 11.558300 0 255 0
-1.350000 -17.914301 3.854300 0 255 0
-1.560000 -16.719999 16.530001 0 255 0
-2.150000 -17.440001 3.770000 0 255 0
-1.062000 -18.068001 9.752000 0 255 0
-2.000000 -18.790001 24.700001 0 255 0
-2.280000 -18.270000 17.400000 0 255 0
-1.964500 -17.565201 -2.337900 255 0 0
-2.018900 -17.671101 3.058900 255 0 0
-2.175000 -16.719999 -3.150000 0 255 255
-1.666700 -17.860001 -0.330000 255 0 0
-1.670000 -17.760000 5.965000 255 0 0
-1.660000 -17.840000 2.820000 0 255 0
-1.660000 -17.723301 9.130000 255 0 0
-1.655000 -17.514999 -3.530000 255 0 0
-2.260000 -18.120001 17.275000 0 255 0
-1.313300 -17.073299 -6.196700 0 255 0
-2.020000 -17.639999 13.210000 255 0 0
-2.001400 -17.480000 3.760000 255 0 0
-1.740000 -17.780001 4.130000 255 0 0
-2.070000 -16.309999 -4.940000 0 255 255
-1.666000 -17.477400 0.411700 255 0 0
-1.650000 -18.389999 14.760000 0 255 0
-1.640000 -18.400000 11.530000 0 255 0
-1.671100 -17.432600 -1.139300 255 0 0
-2.220000 -17.160000 -6.000000 0 255 0
-2.270000 -16.750000 -5.990000 0 255 255
-1.620000 -17.070000 14.380000 0 255 0
-1.996700 -17.226700 15.206700 0 255 0
-1.050000 -17.520000 10.080000 0 255 0
-1.607100 -17.175699 -6.284300 0 255 0
-2.055000 -16.475000 -4.540000 0 255 255
-1.945000 -17.275000 24.820000 0 255 0
-2.055000 -16.867500 14.360000 0 255 0
-2.790000 -17.469999 14.890000 0 255 0
-2.205000 -17.500000 3.825000 0 255 0
-1.240000 -17.379999 11.975000 0 255 0
-2.295000 -16.820000 16.299999 0 255 0
-2.545000 -17.090000 -6.225000 0 255 255
-2.160000 -17.059999 15.310000 0 255 0
-2.660000 -18.033300 22.600000 0 255 0
-1.220000 -17.615000 11.457500 0 255 0
-1.220000 -17.275000 14.650000 0 255 0
-0.918000 -17.816000 9.814000 0 255 0
-2.290000 -17.530001 -6.260000 0 255 0
-2.080000 -17.280001 15.260000 0 255 0
-1.915000 -18.674999 15.815000 0 255 0
-1.920000 -18.778000 9.308000 0 255 0
-0.610000 -17.730000 9.880000 0 255 0
-1.960000 -17.660000 4.470000 255 0 0
-1.953300 -17.773300 10.773300 255 0 0
-1.974000 -17.716000 1.312000 255 0 0
-1.940000 -17.200001 -4.620000 0 255 0
-0.740000 -17.389999 13.910000 0 255 0
-1.960000 -17.660000 -4.555000 255 0 0
-1.950000 -17.770000 1.740000 255 0 0
-1.954000 -17.610001 11.264000 255 0 0
-1.961000 -17.527500 4.959000 255 0 0
-1.905000 -16.830000 14.460000 0 255 0
-1.512000 -16.326000 -5.194000 0 255 255
-2.120000 -18.256701 -5.843300 0 255 255
-1.980000 -17.750000 10.460000 255 0 0
-1.961100 -17.718901 0.812200 255 0 0
-1.976700 -17.219999 -5.750000 0 255 0
-0.755000 -17.525000 10.025000 0 255 0
-1.610000 -17.018299 -6.298300 0 255 0
-1.716000 -16.514000 6.376000 0 255 0
-1.650000 -17.629999 11.650000 255 0 0
-1.664300 -17.655701 8.512900 255 0 0
-1.716000 -16.577999 6.314000 0 255 0
-1.050000 -16.969999 9.505000 0 255 0
-1.062500 -17.008699 6.360000 0 255 0
-1.065000 -16.940001 4.015000 0 255 0
-0.866700 -16.830000 4.121100 0 255 0
-0.990000 -17.889999 -6.410000 0 255 255
-1.468000 -17.908001 9.166000 0 255 0
-0.930000 -16.570000 -5.210000 0 255 255
-1.656700 -17.023300 -6.086700 0 255 0
-1.615000 -16.820000 -5.895000 0 255 255
-2.260000 -18.139999 -5.940000 0 255 255
-2.060000 -16.290001 -5.290000 0 255 255
-2.030000 -17.299999 15.130000 0 255 0
-2.060000 -16.615000 -5.300000 0 255 255
-1.990000 -17.660000 14.580000 255 0 0
-2.000000 -17.379999 -5.042900 255 0 0
-1.622000 -17.812000 -0.954000 255 0 0
-1.355000 -17.014999 -6.350000 0 255 0
-1.720000 -16.920000 -5.740000 0 255 0
-1.971400 -17.621401 0.655700 255 0 0
-1.965700 -17.567101 3.817100 255 0 0
-1.953900 -17.479601 -2.487900 255 0 0
-1.650000 -17.330000 8.300000 0 255 0
-1.654600 -17.465000 -1.339200 255 0 0
-0.780000 -17.969999 11.700000 0 255 0
