-8.453700 -15.165000 13.006300 0 255 0
-8.952500 -16.712500 2.270000 0 255 0
-8.970000 -16.783300 -0.996700 0 255 255
-9.105000 -15.225000 -4.100000 0 255 255
-8.760000 -16.305000 11.100000 0 255 0
-8.765000 -16.030001 17.650000 0 255 0
-8.750000 -15.990000 20.860001 0 255 0
-8.566700 -15.470000 11.490000 0 255 0
-10.052500 -15.610000 12.812500 0 255 0
-8.250000 -15.300000 -3.830000 0 255 255
-9.500000 -16.283300 10.755000 0 255 0
-9.950000 -15.340000 16.780001 0 255 0
-10.170000 -14.950000 16.430000 0 255 0
-8.643600 -15.218200 -3.792700 0 255 255
-8.845000 -15.330000 -3.975000 0 255 255
-8.910000 -14.904000 15.668000 0 255 0
-9.493300 -15.563300 9.213300 255 0 0
-8.510000 -15.060000 18.740000 0 255 0
-9.100000 -14.835000 21.355000 0 255 0
-9.103300 -14.770000 18.200001 0 255 0
-9.075000 -16.520000 -0.690000 0 255 255
-9.416700 -16.170000 9.740000 0 255 0
-9.406700 -16.213301 12.763300 0 255 0
-9.711200 -14.875000 9.663800 0 255 0
-9.540000 -15.280000 10.520000 0 255 0
-9.550600 -15.483600 -2.139700 255 0 0
-9.562500 -15.267500 11.610800 0 255 0
-9.555900 -15.477700 -1.037000 0 255 0
-9.558000 -15.500000 -3.630000 255 0 0
-9.563300 -15.313300 9.406700 0 255 0
-9.560500 -15.469300 -0.391200 255 0 0
-9.550000 -16.625000 16.139999 0 255 0
-10.105000 -16.012501 7.167500 0 255 0
-10.110000 -16.219999 19.410000 0 255 0
-10.120000 -16.299999 16.020000 0 255 0
-9.853300 -16.764999 2.895000 0 255 0
-10.261300 -14.714200 -4.386500 0 255 255
-10.111300 -16.517500 -0.356200 0 255 255
-10.110000 -16.400000 5.655000 0 255 0
-9.220000 -16.620001 7.500000 0 255 0
-9.203300 -15.566700 16.596701 0 255 0
-9.190000 -15.550000 12.340000 0 255 0
-9.220000 -16.632500 2.155000 0 255 0
-9.110000 -16.389999 -1.020000 0 255 255
-9.115000 -16.230000 15.705000 0 255 0
-10.076700 -16.030001 7.873300 0 255 0
-9.670000 -16.559999 19.730000 0 255 0
-10.060000 -15.000000 16.700001 0 255 0
-9.750000 -16.535000 6.105000 0 255 0
-9.760000 -16.580000 2.965000 0 255 0
-9.760000 -15.900000 7.910000 0 255 0
-9.512500 -14.627500 11.865000 0 255 0
-9.515000 -14.610000 11.730000 0 255 0
-9.662500 -14.805000 -4.737500 0 255 255
-9.667500 -14.970000 11.657500 0 255 0
-9.650000 -14.780000 -2.440000 0 255 255
-9.410000 -14.521800 -4.800000 0 255 255
-9.410000 -14.900000 20.530001 0 255 0
-9.400000 -14.750000 11.430000 0 255 0
-10.013300 -16.116699 12.703300 0 255 0
-10.007900 -15.473600 -4.149300 0 255 0
-10.156700 -16.523300 10.253300 0 255 0
-8.910000 -15.490000 -4.600000 0 255 255
-8.970000 -15.090000 23.969999 0 255 0
-8.917500 -15.468800 -3.652500 0 255 255
-9.440000 -15.020000 24.209999 0 255 0
-9.010000 -15.967300 9.768200 0 255 0
-9.620000 -16.030001 1.490000 0 255 0
-9.617500 -16.125000 7.802500 0 255 0
-9.706700 -15.926700 9.290000 0 255 0
-9.800000 -15.275000 22.455000 0 255 0
-9.816700 -15.120000 12.803300 0 255 0
-9.800000 -15.880000 10.200000 0 255 0
-9.440000 -15.500000 1.360000 255 0 0
-9.460300 -15.473800 4.609000 255 0 0
-9.463300 -15.216700 20.500000 0 255 0
-9.470000 -15.570000 -2.090000 255 0 0
-9.460000 -15.370000 10.540000 255 0 0
-9.450000 -15.510000 1.125000 255 0 0
-9.463800 -15.472900 4.261200 0 255 0
-9.010000 -15.350000 -4.200000 0 255 255
-9.760000 -15.460000 0.420000 255 0 0
-9.760000 -16.459999 13.010000 0 255 0
-10.180000 -15.430000 16.930000 0 255 0
-9.208900 -15.611100 -4.950000 0 255 0
-9.200000 -15.980000 17.219999 0 255 0
-9.560000 -15.350000 12.970000 0 255 0
-9.550000 -15.550000 0.240000 255 0 0
-9.463800 -14.516200 15.005000 0 255 0
-9.098700 -16.318701 1.255000 0 255 0
-9.959100 -15.170500 10.154100 0 255 0
-9.810000 -15.710000 18.230000 0 255 0
-8.900000 -14.590000 -4.110000 0 255 255
-8.906000 -14.582000 -3.950000 0 255 255
-8.940000 -14.790000 -3.980000 0 255 255
-9.480000 -14.480000 15.670000 0 255 0
-8.520000 -16.059999 7.330000 0 255 0
-9.521400 -15.482900 8.812900 255 0 0
-9.502500 -15.532500 11.963700 255 0 0
-9.940000 -16.650000 6.090000 0 255 0
-10.750000 -15.950000 -4.060000 0 255 255
-9.355000 -14.810000 -4.320000 0 255 255
-9.000000 -15.500000 12.840000 0 255 0
-10.130000 -15.650000 15.030000 0 255 0
-9.696700 -16.170000 10.193300 0 255 0
-9.312500 -15.572500 4.910000 255 0 0
-9.330000 -15.590000 13.940000 255 0 0
-9.325000 -15.565000 6.405000 255 0 0
-9.306700 -15.720000 15.503300 255 0 0
-9.390000 -16.250000 15.190000 0 255 0
-8.980000 -15.120000 -3.550000 0 255 255
-9.165000 -16.309999 12.650000 0 255 0
-9.157800 -16.323299 13.215600 0 255 0
-9.157500 -16.415001 7.425000 0 255 0
-9.358000 -15.012000 -4.892000 0 255 255
-9.250000 -14.830000 -4.780000 0 255 255
-9.515000 -15.617500 15.945000 255 0 0
-9.515000 -15.570000 12.710000 255 0 0
-9.530000 -15.620000 16.990000 255 0 0
-9.500000 -15.775000 0.805000 255 0 0
-9.508000 -15.568000 13.854000 255 0 0
-8.760000 -16.180000 16.105000 0 255 0
-9.250000 -16.600000 10.820000 0 255 0
-10.005000 -15.565000 17.465000 0 255 0
-10.030000 -15.580000 16.799999 0 255 0
-9.990000 -15.550000 16.940001 0 255 0
-10.016700 -15.606700 14.760000 0 255 0
-10.020000 -16.070000 18.870001 0 255 0
-10.055000 -16.610001 -0.300000 0 255 255
-8.961700 -14.715000 -4.591700 0 255 255
-9.060000 -15.350000 15.580000 0 255 0
-9.050000 -15.325000 19.155001 0 255 0
-9.045000 -15.410000 12.850000 0 255 0
-9.890000 -16.530001 23.719999 0 255 0
-9.921700 -15.866700 7.811700 0 255 0
-9.650000 -15.030000 12.480000 0 255 0
-9.070000 -15.233300 19.469999 0 255 0
-9.480000 -16.330000 -0.700000 0 255 255
-9.490000 -15.070000 17.620001 0 255 0
-9.565000 -15.560000 10.945000 255 0 0
-9.560000 -15.715000 14.215000 255 0 0
-9.540000 -15.905000 1.165000 0 255 0
-9.580000 -15.670000 17.459999 255 0 0
-9.240000 -15.470000 19.799999 0 255 0
-9.280000 -15.510000 16.580000 0 255 0
-9.260000 -15.570000 12.251700 255 0 0
-9.854000 -14.670000 9.772000 0 255 0
-10.020000 -15.890000 7.150000 0 255 0
-10.030000 -15.870000 7.805000 0 255 0
-10.010000 -16.520000 23.730000 0 255 0
-8.690000 -14.770000 12.570000 0 255 0
-8.705000 -14.810000 15.795000 0 255 0
-8.325000 -16.125000 1.525000 0 255 0
-9.660000 -16.715000 3.450000 0 255 0
-8.860000 -15.415000 24.305000 0 255 0
-10.295000 -15.805000 20.905001 0 255 0
-8.952900 -16.431400 11.052900 0 255 0
-8.963300 -15.733300 15.700000 0 255 0
-8.658900 -15.418900 11.462200 0 255 0
-9.055000 -15.215000 21.270000 0 255 0
-10.023300 -16.326700 11.163300 0 255 0
-9.295000 -15.030000 -4.920000 0 255 255
-8.630000 -15.330000 12.660000 0 255 0
-9.908000 -14.766000 -4.156700 0 255 255
-9.920000 -15.070000 22.860001 0 255 0
-9.911000 -15.268000 10.207000 0 255 0
-9.860000 -15.920000 13.080000 0 255 0
-9.866700 -15.906700 12.413300 0 255 0
-9.865000 -15.850000 15.660000 0 255 0
-9.450000 -15.076700 17.456699 0 255 0
-9.466700 -15.123300 14.323300 0 255 0
-9.480000 -15.040000 20.830000 0 255 0
-9.460900 -15.120900 14.363600 0 255 0
-9.450000 -15.060000 17.629999 0 255 0
-9.470000 -15.015000 20.645000 0 255 0
-9.780000 -15.180000 19.799999 0 255 0
-9.810000 -16.430000 11.150000 0 255 0
-9.800000 -16.510000 17.290001 0 255 0
-10.020000 -15.380000 14.720000 0 255 0
-9.940000 -16.049999 18.160000 0 255 0
-9.950000 -15.540000 1.410000 0 255 0
-8.710000 -15.250000 15.840000 0 255 0
-9.263300 -16.410000 12.656700 0 255 0
-9.260000 -16.772499 14.710000 0 255 0
-9.310000 -15.540000 9.020000 255 0 0
-9.300000 -15.730000 22.450001 255 0 0
-9.318600 -15.560000 12.252900 255 0 0
-9.455700 -14.510000 11.557100 0 255 0
-9.440000 -14.530000 11.800000 0 255 0
-9.510000 -16.709999 10.965000 0 255 0
-10.017300 -16.171801 -0.886400 0 255 255
-8.500000 -16.222500 1.850000 0 255 0
-9.230000 -16.559999 12.710000 0 255 0
-9.225000 -16.775000 -0.775000 0 255 255
-9.210000 -15.480000 18.180000 0 255 0
-8.315000 -15.958300 1.455000 0 255 0
-9.725000 -14.666700 16.363300 0 255 0
-9.710000 -15.080000 -4.036700 0 255 255
-10.100000 -15.280000 16.830000 0 255 0
-9.872000 -15.520000 -4.594000 0 255 0
-9.656000 -16.117001 7.763000 0 255 0
-9.710000 -14.450000 10.560000 0 255 0
-9.730000 -14.640000 19.830000 0 255 0
-9.712500 -14.469400 10.404400 0 255 0
-9.230000 -15.720000 -0.230000 255 0 0
-10.260000 -15.480000 17.795000 0 255 0
-8.946000 -14.814000 12.513000 0 255 0
-8.980000 -14.810000 11.470000 0 255 0
-8.970000 -14.670000 -4.846700 0 255 255
-9.550000 -15.650000 15.420000 255 0 0
-9.562000 -15.570000 8.924000 255 0 0
-9.565000 -15.557500 8.052500 255 0 0
-8.980000 -16.520000 17.110001 0 255 0
-8.940000 -16.629999 23.840000 0 255 0
-8.980000 -16.680000 20.690001 0 255 0
-8.964300 -16.559999 14.904300 0 255 0
-8.980000 -16.629999 23.920000 0 255 0
-9.705000 -14.710000 17.910000 0 255 0
-9.460000 -14.565000 -2.350000 0 255 255
-10.240000 -15.530000 -4.220000 0 255 255
-10.258000 -15.532000 -4.878000 0 0 255
-9.260000 -15.775000 -1.100000 255 0 0
-9.260000 -15.430000 -4.270000 0 255 0
-9.306700 -14.526700 -4.050000 0 255 255
-9.305000 -14.772000 12.255000 0 255 0
-9.290000 -14.900000 21.280001 0 255 0
-9.450000 -15.270000 -3.590000 0 255 0
-9.470000 -16.610001 10.870000 0 255 0
-9.480000 -15.250000 -4.430000 0 255 0
-9.466700 -15.266700 -3.890000 0 255 0
-8.930000 -15.980000 1.290000 0 255 0
-8.900000 -15.680000 20.309999 0 255 0
-8.900000 -15.366700 13.013300 0 255 0
-9.305000 -16.184999 21.705000 0 255 0
-8.870000 -16.059999 1.150000 0 255 0
-8.875000 -15.475000 14.220000 0 255 0
-8.860000 -16.052700 1.803600 0 255 0
-8.870000 -15.770000 -5.080000 0 255 0
-8.857000 -16.075500 1.660000 0 255 0
-9.345000 -15.777500 -5.052500 0 255 0
-9.380000 -15.810000 4.940000 255 0 0
-9.340000 -15.730000 -1.790000 255 0 0
-9.340000 -15.730000 -1.880000 255 0 0
-9.347500 -15.770000 -2.385000 255 0 0
-9.357300 -15.715500 0.755500 255 0 0
-8.930000 -15.600000 -4.710000 0 255 255
-8.950000 -15.160000 21.400000 0 255 0
-8.980000 -14.930000 11.610000 0 255 0
-8.960000 -15.030000 17.910000 0 255 0
-8.950000 -15.070000 15.690000 0 255 0
-8.940000 -15.180000 21.500000 0 255 0
-8.940000 -15.090000 15.370000 0 255 0
-9.660000 -15.360000 15.167500 0 255 0
-9.675000 -15.270000 -4.375000 255 0 0
-9.650000 -15.475000 8.665000 255 0 0
-9.650000 -15.273300 -4.936700 0 255 0
-9.640000 -15.480000 7.720000 255 0 0
-10.265600 -16.216700 11.406700 0 255 0
-10.007800 -16.464399 5.705600 0 255 0
-8.770000 -16.334999 11.700000 0 255 0
-8.766200 -16.217699 5.568100 0 255 0
-8.775000 -16.020000 17.545000 0 255 0
-10.160000 -14.930000 14.955000 0 255 0
-10.140000 -14.990000 11.230000 0 255 0
-9.490000 -15.840000 4.170000 0 255 0
-9.510000 -15.760000 1.010000 255 0 0
-9.500000 -15.610000 16.790001 255 0 0
-9.510000 -15.570000 13.640000 255 0 0
-9.490000 -15.600000 17.840000 255 0 0
-9.510000 -15.580000 14.606700 255 0 0
-9.020000 -15.260000 19.740000 0 255 0
-8.915000 -15.715000 9.703300 0 255 0
-8.917500 -16.365000 1.407500 0 255 0
-8.907500 -16.062500 19.860001 0 255 0
-9.410000 -15.110000 -2.535000 0 255 0
-9.523300 -14.666700 13.703300 0 255 0
-9.510000 -14.570000 19.997999 0 255 0
-9.310000 -16.070000 12.400000 0 255 0
-9.318600 -16.172899 12.764300 0 255 0
-9.065000 -14.872500 14.800000 0 255 0
-9.850000 -15.930000 19.090000 0 255 0
-9.670700 -15.073300 -4.288000 0 255 255
-9.065000 -15.517500 12.872500 0 255 0
-8.870000 -16.219999 -4.950000 0 255 255
-8.865000 -16.370001 10.865000 0 255 0
-8.450000 -15.710000 9.900000 0 255 0
-9.254000 -16.374001 7.468000 0 255 0
-9.270000 -16.059999 1.280000 0 255 0
-9.270000 -16.336700 10.863300 0 255 0
-9.252000 -16.375999 7.612000 0 255 0
-9.460000 -15.268400 -4.079700 0 255 0
-10.310000 -15.665000 20.760000 0 255 0
-9.970000 -14.615000 14.910000 0 255 0
-9.753300 -16.166700 7.996700 0 255 0
-9.204700 -15.225300 -4.195900 0 255 255
-8.440000 -15.240000 19.850000 0 255 0
-9.750000 -15.170000 19.969999 0 255 0
-9.740000 -15.670000 1.530000 255 0 0
-9.170000 -16.299999 12.750000 0 255 0
-9.207800 -15.278900 15.020000 0 255 0
-9.207500 -16.621201 -0.743700 0 255 255
-10.030000 -15.170000 19.840000 0 255 0
-9.667500 -15.566300 1.700000 255 0 0
-9.660000 -15.867100 8.051400 0 255 0
-9.659700 -15.616200 -1.437300 255 0 0
-9.652500 -15.522500 4.872500 255 0 0
-8.670000 -15.400000 -4.745000 0 255 255
-8.656700 -15.266700 -4.190000 0 255 255
-8.643300 -15.018300 11.505000 0 255 0
-9.220000 -14.820000 11.560000 0 255 0
-9.220000 -14.840000 12.220000 0 255 0
-9.140000 -15.840000 -3.680000 0 255 0
-8.840000 -15.440000 -5.070000 0 255 255
-8.840000 -15.640000 7.560000 0 255 0
-8.765000 -15.735000 -4.675000 0 255 255
-10.000000 -15.660000 13.160000 0 255 0
-10.125000 -16.582500 9.545000 0 255 0
-9.900000 -15.450000 15.300000 0 255 0
-10.020000 -14.700000 -2.645000 0 255 255
-9.613200 -15.116800 -4.897300 0 255 0
-9.610000 -14.650000 18.190001 0 255 0
-10.100000 -15.140000 19.750000 0 255 0
-9.156100 -16.722200 8.969400 0 255 0
-9.200000 -15.720000 2.740000 0 255 0
-9.220000 -15.790000 5.370000 0 255 0
-9.150000 -14.670000 13.710000 0 255 0
-9.120000 -15.930000 -4.030000 0 255 0
-9.915000 -16.174999 13.045000 0 255 0
-9.870000 -15.420000 -3.890000 0 255 0
-9.664000 -14.682000 8.268000 0 255 0
-9.840000 -15.130000 15.280000 0 255 0
-9.860000 -15.080000 18.389999 0 255 0
-9.657100 -14.620000 11.417100 0 255 0
-9.873300 -15.163300 12.953300 0 255 0
-9.680000 -14.490000 -4.690000 0 255 255
-9.660000 -14.600000 11.120000 0 255 0
-9.880000 -15.110000 15.560000 0 255 0
-9.650000 -14.416000 -2.494000 0 255 255
-9.880000 -15.110000 16.520000 0 255 0
-9.672500 -14.575000 13.610000 0 255 0
-9.640000 -14.600000 10.550000 0 255 0
-9.860000 -15.218000 10.200000 0 255 0
-9.575000 -15.220000 20.625000 0 255 0
-9.580000 -15.560000 -2.240000 255 0 0
-9.550000 -15.440000 7.330000 255 0 0
-9.580000 -15.450000 16.740000 0 255 0
-9.560000 -15.555000 -1.795000 255 0 0
-9.550000 -15.525000 13.615000 255 0 0
-9.560000 -15.550000 -1.740000 255 0 0
-9.570000 -15.510000 13.570000 255 0 0
-9.540000 -15.470000 16.790001 0 255 0
-9.550000 -15.390000 10.500000 255 0 0
-9.570000 -15.420000 7.250000 255 0 0
-9.555000 -15.560000 -1.685000 255 0 0
-9.412500 -15.762500 3.055000 255 0 0
-10.310000 -15.515000 15.345000 0 255 0
-10.300000 -15.540000 15.130000 0 255 0
-9.456700 -15.170000 13.413300 0 255 0
-9.470000 -15.390000 0.350000 255 0 0
-10.115000 -15.585000 23.844999 0 255 0
-9.840000 -15.150000 12.930000 0 255 0
-9.650000 -14.576700 13.516700 0 255 0
-9.650900 -14.614500 10.263600 0 255 0
-9.865600 -15.216700 9.922200 0 255 0
-9.875000 -15.085000 19.674999 0 255 0
-9.208000 -14.930000 14.766000 0 255 0
-9.220000 -14.630000 -4.760000 0 255 255
-9.215000 -15.025000 20.559999 0 255 0
-9.203300 -14.923300 15.323300 0 255 0
-9.306500 -14.418800 11.400000 0 255 0
-9.311700 -14.418300 11.950000 0 255 0
-9.280000 -15.800000 0.810000 255 0 0
-9.052600 -15.678500 -3.986700 0 255 0
-9.080000 -15.650000 -4.530000 0 255 0
-8.795000 -14.705000 11.015000 0 255 0
-10.210000 -15.530000 16.770000 0 255 0
-9.100000 -14.560000 14.730000 0 255 0
-10.105000 -16.430000 16.094999 0 255 0
-9.040000 -15.630000 15.860000 0 255 0
-9.220000 -16.014999 5.305000 0 255 0
-9.202500 -15.817500 20.615000 0 255 0
-9.223800 -15.667500 11.167500 0 255 0
-9.720000 -15.970000 10.290000 0 255 0
-9.700000 -15.960000 10.240000 0 255 0
-9.905000 -16.020000 18.075001 0 255 0
-9.912000 -16.122000 11.298000 0 255 0
-8.310000 -15.480000 20.340000 0 255 0
-10.210000 -15.930000 18.379999 0 255 0
-10.190000 -15.860000 14.450000 0 255 0
-9.270000 -15.560000 23.240000 0 255 0
-9.250000 -15.310000 13.360000 0 255 0
-9.259300 -16.674299 3.617900 0 255 0
-9.355000 -16.577499 7.397500 0 255 0
-9.350000 -16.670000 14.695000 0 255 0
-8.810000 -15.860000 9.470000 0 255 0
-8.800000 -15.560000 15.630000 0 255 0
-8.810000 -15.610000 18.750000 0 255 0
-8.830000 -15.720000 24.320000 0 255 0
-8.760000 -15.980000 21.100000 0 255 0
-8.762500 -16.457500 1.522500 0 255 0
-8.753100 -16.163799 7.659200 0 255 0
-8.756700 -16.321699 10.918300 0 255 0
-8.780000 -16.340000 10.950000 0 255 0
-8.752700 -16.165501 7.607300 0 255 0
-8.605000 -16.075001 9.720000 0 255 0
-8.590000 -16.180000 16.000000 0 255 0
-8.630000 -15.990000 3.370000 0 255 0
-9.555700 -15.211400 -3.995700 0 255 0
-9.870000 -15.990000 24.139999 0 255 0
-9.850000 -16.004999 21.450001 0 255 0
-9.490000 -14.580000 10.650000 0 255 0
-9.515000 -14.772500 -2.397500 0 255 255
-8.400000 -15.265000 18.150000 0 255 0
-8.750000 -16.476000 1.574000 0 255 0
-8.767700 -16.460800 3.002300 0 255 0
-9.520700 -15.367000 -3.946700 255 0 0
-9.503800 -15.437000 -0.691100 0 255 0
-8.580000 -15.100000 17.150000 0 255 0
-8.540000 -15.180000 14.010000 0 255 0
-10.550000 -16.200001 8.210000 0 255 0
-10.007500 -15.160800 10.119200 0 255 0
-10.030000 -15.180000 10.250000 0 255 0
-9.916400 -15.714500 10.062700 0 255 0
-10.580000 -15.800000 16.120001 0 255 0
-9.330000 -15.300000 13.310000 0 255 0
-9.306700 -16.650000 10.716700 0 255 0
-9.300000 -16.629999 7.540000 0 255 0
-9.710000 -14.625000 13.390000 0 255 0
-9.720000 -14.670000 16.650000 0 255 0
-8.996700 -15.416700 19.463301 0 255 0
-9.455000 -15.805000 -0.305000 255 0 0
-9.475000 -15.580000 15.505000 255 0 0
-9.475000 -15.610000 12.380000 255 0 0
-9.450000 -15.770000 3.550000 255 0 0
-9.465000 -15.565000 16.620001 255 0 0
-9.450000 -15.620000 13.460000 255 0 0
-9.710000 -14.500000 10.550000 0 255 0
-9.703500 -14.319500 -2.735500 0 255 255
-9.725000 -14.530000 10.050000 0 255 0
-9.690000 -15.600000 15.760000 0 255 0
-9.850000 -15.013300 14.903300 0 255 0
-9.843300 -14.973300 16.966700 0 255 0
-9.863100 -14.475400 -2.643800 0 255 255
-9.515000 -15.070000 13.005000 0 255 0
-9.265400 -15.922300 5.457700 0 255 0
-9.269100 -15.615500 -0.682700 255 0 0
-9.268400 -15.621600 -1.243700 255 0 0
-9.565000 -14.735000 11.665000 0 255 0
-9.050000 -14.450000 -4.480000 0 255 255
-9.050000 -14.955000 15.320000 0 255 0
-9.506700 -15.570000 8.956700 255 0 0
-9.490000 -15.560000 9.110000 255 0 0
-9.510000 -15.550000 9.275000 255 0 0
-9.501700 -15.485000 9.563300 255 0 0
-9.505000 -15.535000 12.805000 255 0 0
-9.995000 -16.299999 11.110000 0 255 0
-9.670000 -15.860000 19.010000 0 255 0
-9.660000 -15.620000 9.205000 255 0 0
-9.655000 -15.665000 5.963800 255 0 0
-9.668200 -15.519100 15.511800 0 255 0
-9.320000 -15.710000 23.350000 255 0 0
-9.290000 -15.560000 13.200000 255 0 0
-9.290000 -15.710000 23.100000 255 0 0
-9.603300 -14.623300 13.650000 0 255 0
-9.630000 -14.730000 19.950001 0 255 0
-9.590000 -14.550000 10.490000 0 255 0
-9.640000 -14.780000 -4.420000 0 255 255
-9.656200 -14.723100 -2.526300 0 255 255
-10.300000 -15.620000 14.300000 0 255 0
-8.940000 -14.890000 -4.130000 0 255 255
-9.414000 -16.275999 16.410000 0 255 0
-9.390000 -16.209999 13.270000 0 255 0
-9.430000 -16.110001 6.905000 0 255 0
-8.800000 -16.629999 13.450000 0 255 0
-9.390000 -16.200001 9.790000 0 255 0
-10.505000 -15.075000 12.290000 0 255 0
-9.890000 -15.940000 19.200001 0 255 0
-9.905000 -16.040001 12.725000 0 255 0
-9.925000 -15.865000 13.302500 0 255 0
-9.906700 -16.003300 10.243300 0 255 0
-8.310000 -16.000000 5.890000 0 255 0
-8.640000 -16.219999 1.780000 0 255 0
-9.280000 -16.299999 17.480000 0 255 0
-9.280000 -16.299999 17.500000 0 255 0
-9.260000 -16.309999 17.410000 0 255 0
-9.245000 -16.180000 1.225000 0 255 0
-9.250000 -16.040001 10.640000 0 255 0
-9.605900 -14.371800 -4.285900 0 255 255
-9.604000 -14.373000 -4.249300 0 255 255
-9.080000 -14.630000 13.320000 0 255 0
-10.010000 -16.066700 13.220000 0 255 0
-9.513700 -15.123800 -4.905000 0 255 0
-9.495000 -14.770000 11.010000 0 255 0
-9.997500 -16.462500 10.310000 0 255 0
-9.990000 -16.559999 17.100000 0 255 0
-10.004000 -16.004000 8.006000 0 255 0
-9.068300 -15.476700 -4.178300 0 255 0
-9.050000 -15.420000 -3.440000 0 255 255
-9.850000 -16.040001 18.680000 0 255 0
-9.855000 -16.070000 16.760000 0 255 0
-9.840000 -16.180000 10.270000 0 255 0
-9.840000 -16.120001 12.860000 0 255 0
-9.880000 -16.090000 16.110001 0 255 0
-8.760000 -15.150000 12.670000 0 255 0
-9.250000 -15.110000 -4.550000 0 255 255
-8.770000 -14.620000 -4.330000 0 255 255
-9.205000 -15.515000 2.695000 0 255 0
-9.305000 -14.740000 -4.295000 0 255 255
-9.330000 -14.840000 15.270000 0 255 0
-9.302500 -14.975000 11.665000 0 255 0
-9.408300 -14.620000 -4.798300 0 255 255
-9.415000 -14.990000 17.420000 0 255 0
-9.390000 -15.030000 20.520000 0 255 0
-9.960000 -16.059999 18.520000 0 255 0
-9.460000 -15.815000 -0.825000 255 0 0
-9.470000 -15.575000 15.445000 0 255 0
-9.450000 -15.650000 8.940000 255 0 0
-10.340000 -15.070000 19.940001 0 255 0
-9.640000 -14.860000 10.080000 0 255 0
-9.680000 -14.820000 13.300000 0 255 0
-9.010000 -14.930000 21.670000 0 255 0
-8.955800 -15.369200 -3.637900 0 255 255
-9.116000 -16.024000 1.114000 0 255 0
-9.030000 -14.670000 14.940000 0 255 0
-9.030000 -14.700000 18.180000 0 255 0
-9.013300 -14.728300 18.415001 0 255 0
-9.006700 -14.660000 15.503300 0 255 0
-9.062700 -15.119500 -4.992700 0 255 255
-10.050000 -16.090000 19.690001 0 255 0
-10.040000 -15.860000 7.070000 0 255 0
-9.180000 -15.540000 -5.120000 0 255 0
-9.140000 -15.350000 17.660000 0 255 0
-9.180000 -15.350000 19.580000 0 255 0
-9.195000 -15.460000 12.960000 0 255 0
-9.200000 -15.530000 16.655001 0 255 0
-10.230000 -16.209999 13.420000 0 255 0
-10.218800 -16.263800 12.918700 0 255 0
-10.106700 -15.490000 14.746700 0 255 0
-10.248000 -14.770000 -4.430000 0 255 255
-9.190000 -15.460000 -4.740000 0 255 0
-9.218000 -15.414000 18.062000 0 255 0
-9.080000 -14.690000 14.920000 0 255 0
-9.060000 -14.660000 15.580000 0 255 0
-9.062500 -16.070000 15.622500 0 255 0
-9.760000 -14.910000 -4.760000 0 255 255
-9.615000 -16.215000 10.125000 0 255 0
-9.430000 -16.709999 23.639999 0 255 0
-9.659100 -14.917300 -4.085500 0 255 255
-9.660000 -14.613300 15.711100 0 255 0
-9.556000 -15.520000 11.970000 255 0 0
-9.570000 -15.530000 13.500000 255 0 0
-9.550000 -15.430000 7.020000 255 0 0
-9.566000 -15.466000 16.674000 0 255 0
-9.564300 -15.361400 10.161400 0 255 0
-9.560000 -15.553300 -3.293300 255 0 0
-9.560000 -15.350000 10.200000 0 255 0
-9.580000 -15.460000 16.690001 0 255 0
-9.550000 -15.515000 13.005000 255 0 0
-9.550000 -15.426700 6.720000 255 0 0
-9.555000 -15.560000 -2.785000 255 0 0
-9.520000 -15.150000 -2.400000 0 255 0
-9.525000 -15.305000 -4.595000 0 255 0
-10.160000 -15.000000 14.790000 0 255 0
-10.170000 -15.080000 10.990000 0 255 0
-9.690000 -16.459999 1.820000 0 255 0
-9.708200 -15.380000 -4.396500 0 255 0
-10.125000 -15.435000 16.815001 0 255 0
-9.755000 -16.764999 3.015000 0 255 0
-9.755000 -16.727501 6.170000 0 255 0
-8.851700 -16.666700 7.676700 0 255 0
-8.880000 -16.600000 10.910000 0 255 0
-9.421100 -16.817801 3.453300 0 255 0
-9.463300 -14.870000 18.211100 0 255 0
-9.470000 -14.990000 11.860000 0 255 0
-8.961300 -16.003799 9.712500 0 255 0
-8.958300 -15.571700 15.715000 0 255 0
-8.940000 -15.520000 19.240000 0 255 0
-8.958000 -15.416000 12.704000 0 255 0
-8.370000 -15.116700 14.103300 0 255 0
-8.296700 -15.810000 9.760000 0 255 0
-8.320000 -15.630000 22.400000 0 255 0
-9.068000 -16.174000 15.662000 0 255 0
-9.060000 -16.215000 13.351700 0 255 0
-9.180000 -14.730000 18.270000 0 255 0
-9.770000 -14.460000 8.130000 0 255 0
-8.630000 -15.810000 9.850000 0 255 0
-8.600000 -15.920000 16.170000 0 255 0
-8.680000 -15.120000 -3.605000 0 255 255
-8.456300 -15.721300 9.610000 0 255 0
-8.430000 -15.420000 11.220000 0 255 0
-8.420000 -15.120000 17.555000 0 255 0
-8.370000 -15.210000 14.020000 0 255 0
-9.665000 -16.625000 3.003300 0 255 0
-9.640000 -16.540001 11.660000 0 255 0
-9.665000 -16.668301 1.905000 0 255 0
-9.098800 -15.336200 -4.400000 0 255 255
-9.100000 -16.023300 2.156700 0 255 0
-9.040000 -15.070000 -4.730000 0 255 255
-10.040000 -15.860000 19.170000 0 255 0
-10.010000 -16.590000 2.060000 0 255 0
-10.053300 -16.373301 9.946700 0 255 0
-10.060000 -16.209999 19.719999 0 255 0
-10.230000 -16.180000 7.450000 0 255 0
-10.230000 -16.315001 17.665001 0 255 0
-10.200000 -16.360001 17.870001 0 255 0
-10.207500 -16.080000 -0.883300 0 255 255
-10.206700 -16.271099 11.361100 0 255 0
-9.054600 -15.375400 10.107700 0 255 0
-8.752000 -16.266001 3.148000 0 255 0
-8.756700 -16.063299 16.196699 0 255 0
-8.759400 -15.967100 9.714100 0 255 0
-9.880000 -16.709999 -0.205000 0 255 255
-8.766700 -16.173300 16.000000 0 255 0
-8.630000 -15.500000 9.630000 0 255 0
-8.630000 -15.550000 12.740000 0 255 0
-8.640000 -15.130000 16.170000 0 255 0
-8.660000 -15.168000 12.764000 0 255 0
-9.390000 -14.770000 -2.570000 0 255 255
-9.400000 -15.035000 12.950000 0 255 0
-8.240000 -15.480000 -4.110000 0 255 255
-8.258000 -15.570000 20.208000 0 255 0
-9.105000 -16.420000 13.150000 0 255 0
-9.230000 -16.040001 19.559999 0 255 0
-9.210000 -15.865000 10.365000 0 255 0
-9.630000 -15.775000 6.650000 255 0 0
-9.620000 -15.870000 13.150000 0 255 0
-8.390000 -15.140000 17.280001 0 255 0
-9.795000 -15.960000 13.315000 0 255 0
-9.821400 -15.918600 10.068600 0 255 0
-8.825000 -15.775000 -3.895000 0 255 255
-8.807100 -15.924300 5.874300 0 255 0
-8.790000 -15.730000 18.780001 0 255 0
-8.820000 -15.680000 15.623300 0 255 0
-9.862400 -16.117100 10.111900 0 255 0
-9.870000 -16.080000 13.260000 0 255 0
-9.850000 -16.087500 13.020000 0 255 0
-8.300000 -15.635000 -4.300000 0 255 255
-8.970000 -16.379999 19.830000 0 255 0
-8.963300 -16.266701 13.266700 0 255 0
-8.966000 -16.115999 9.706000 0 255 0
-8.958000 -16.282000 12.756000 0 255 0
-8.954300 -16.128599 10.947100 0 255 0
-8.759500 -16.071301 1.710300 0 255 0
-8.780000 -15.910000 9.620000 0 255 0
-8.740000 -15.710000 21.870001 0 255 0
-8.865000 -14.872500 15.572500 0 255 0
-8.810000 -14.930000 17.807501 0 255 0
-9.060000 -16.619301 7.558600 0 255 0
-9.056700 -16.466700 17.013300 0 255 0
-9.070000 -15.610000 20.340000 0 255 0
-9.080000 -16.775000 -0.900000 0 255 255
-9.075000 -16.722500 2.167500 0 255 0
-9.060000 -16.535000 14.825000 0 255 0
-10.590000 -15.690000 -4.760000 0 0 255
-9.900000 -14.800000 8.040000 0 255 0
-9.916700 -14.713300 15.113300 0 255 0
-9.950000 -15.410000 19.450001 0 255 0
-9.150000 -14.920000 14.590000 0 255 0
-10.615700 -15.230000 -4.804300 0 0 255
-8.840000 -15.060000 -4.550000 0 255 255
-8.870000 -15.130000 18.240000 0 255 0
-8.868200 -15.217300 11.752700 0 255 0
-8.880000 -15.220000 12.230000 0 255 0
-9.011700 -14.828300 12.413300 0 255 0
-9.012000 -14.870000 15.648000 0 255 0
-9.320000 -16.170000 16.580000 0 255 0
-9.300000 -16.020000 19.690001 0 255 0
-8.800000 -15.580000 14.130000 0 255 0
-9.570000 -15.850000 13.750000 0 255 0
-9.540000 -15.900000 11.180000 0 255 0
-9.540000 -15.620000 17.709999 255 0 0
-9.550000 -15.610000 16.790001 255 0 0
-9.558000 -15.872000 13.704000 0 255 0
-9.553300 -15.616700 16.650000 255 0 0
-8.657100 -15.205700 -4.157100 0 255 255
-8.660000 -15.723300 9.960000 0 255 0
-9.110000 -14.930000 15.606700 0 255 0
-9.104000 -14.870000 12.448000 0 255 0
-8.770000 -15.485000 -4.226300 0 255 255
-8.755800 -15.472500 -4.794200 0 255 255
-9.310000 -15.320000 24.325001 0 255 0
-9.020000 -16.230000 9.740000 0 255 0
-8.748000 -16.059999 5.912000 0 255 0
-8.770000 -16.280001 -4.890000 0 255 255
-8.775000 -15.985000 1.660000 0 255 0
-9.006700 -14.726700 -4.046700 0 255 255
-8.710000 -16.223301 15.860000 0 255 0
-8.353300 -15.436700 -3.820000 0 255 255
-8.303300 -15.803300 16.806700 0 255 0
-8.415000 -15.620000 22.240000 0 255 0
-9.850000 -15.240000 9.825000 0 255 0
-9.670000 -14.570000 13.560000 0 255 0
-9.865300 -15.220600 9.965900 0 255 0
-9.652500 -14.635000 10.222500 0 255 0
-9.666700 -14.573300 14.516700 0 255 0
-9.656700 -14.626700 11.260000 0 255 0
-9.850000 -15.410000 -3.750000 0 255 0
-9.855000 -15.230000 9.860000 0 255 0
-10.500000 -16.120001 15.430000 0 255 0
-9.600000 -16.299999 10.020000 0 255 0
-8.897500 -16.567499 10.915000 0 255 0
-9.070000 -16.725000 3.560000 0 255 0
-10.040000 -15.570000 14.870000 0 255 0
-10.065000 -15.210000 10.295000 0 255 0
-10.052500 -15.527500 16.822500 0 255 0
-10.065000 -15.225000 11.063000 0 255 0
-8.655600 -15.986900 3.300000 0 255 0
-10.663000 -15.969000 -4.103500 0 255 255
-9.000000 -14.926700 -4.493300 0 255 255
-9.005000 -15.170000 11.720000 0 255 0
-9.700000 -15.472000 0.820000 255 0 0
-9.693300 -15.473300 1.843300 255 0 0
-9.705000 -15.485000 3.155000 255 0 0
-10.450000 -15.400000 12.320000 0 255 0
-10.460000 -15.100000 12.100000 0 255 0
-9.600000 -16.330000 11.660000 0 255 0
-9.600000 -16.040001 17.790001 0 255 0
-9.590000 -16.510000 -1.000000 0 255 255
-10.202500 -15.911200 7.656300 0 255 0
-10.200000 -15.960000 10.250000 0 255 0
-8.955600 -16.502199 1.157800 0 255 0
-9.820000 -15.980000 18.940001 0 255 0
-9.820000 -16.455000 -0.625000 0 255 255
-8.820000 -15.470000 11.560000 0 255 0
-8.860000 -15.025000 21.495001 0 255 0
-9.570000 -14.935000 20.795000 0 255 0
-9.560000 -14.835000 14.325000 0 255 0
-9.810000 -16.065001 8.050000 0 255 0
-10.130000 -15.533300 -4.306700 0 255 255
-10.101300 -15.620000 15.053800 0 255 0
-9.840000 -16.090000 17.620001 0 255 0
-9.880000 -15.630000 -4.790000 0 255 0
-9.400000 -14.770000 11.640000 0 255 0
-9.390000 -14.500000 -4.250000 0 255 255
-9.404000 -14.824000 15.366000 0 255 0
-9.823300 -15.870000 12.360000 0 255 0
-9.813300 -15.113300 15.466700 0 255 0
-9.800000 -15.620000 -3.530000 255 0 0
-9.808600 -15.777100 6.952900 0 255 0
-9.805000 -15.815000 10.195000 0 255 0
-10.300000 -15.675000 14.545000 0 255 0
-9.770000 -14.915000 -4.195000 0 255 255
-9.750000 -14.920000 -4.870000 0 255 255
-9.740000 -14.480000 11.490000 0 255 0
-9.316000 -14.582000 11.766000 0 255 0
-9.095000 -15.215000 21.290001 0 255 0
-9.102500 -15.160000 18.070000 0 255 0
-9.150000 -14.730000 15.400000 0 255 0
-9.120000 -15.690000 6.940000 0 255 0
-10.120000 -16.290001 10.280000 0 255 0
-10.060000 -15.710000 7.880000 0 255 0
-9.053300 -14.970000 -3.730000 0 255 255
-10.060000 -15.690000 10.160000 0 255 0
-9.120000 -15.130000 19.330000 0 255 0
-9.090000 -16.400000 -1.150000 0 255 255
-9.120000 -16.373301 -4.303300 0 255 255
-9.712500 -14.417500 10.265000 0 255 0
-9.706700 -14.460000 13.510000 0 255 0
-10.290000 -15.310000 20.059999 0 255 0
-8.780000 -16.629999 20.100000 0 255 0
-8.796300 -16.412500 1.643800 0 255 0
-8.808000 -16.420000 3.098000 0 255 0
-8.810000 -16.215000 15.752500 0 255 0
-10.072000 -16.573999 5.700000 0 255 0
-9.858800 -14.523300 9.958800 0 255 0
-9.865000 -14.577500 9.868800 0 255 0
-9.710000 -16.672501 -0.485000 0 255 255
-9.697500 -16.576200 6.022500 0 255 0
-9.710000 -15.910000 15.170000 0 255 0
-9.720000 -15.970000 18.389999 0 255 0
-9.727500 -15.130000 -3.952500 0 255 255
-10.030000 -14.725000 15.095000 0 255 0
-9.090000 -14.890000 -4.570000 0 255 255
-9.097500 -14.877500 -3.952500 0 255 255
-9.703300 -15.203300 -4.236700 0 255 0
-9.720000 -15.470000 11.290000 0 255 0
-9.710000 -15.240000 -4.500000 0 255 0
-8.806700 -15.466700 18.750000 0 255 0
-8.810000 -15.940000 -3.940000 0 255 255
-9.110000 -16.680000 19.570000 0 255 0
-9.090000 -16.780001 13.240000 0 255 0
-9.112200 -16.117800 9.767800 0 255 0
-9.002500 -15.122500 -3.487500 0 255 255
-9.350000 -15.200000 20.620001 0 255 0
-9.360000 -16.700001 14.670000 0 255 0
-9.358000 -16.722000 15.762000 0 255 0
-9.350000 -16.754999 12.045000 0 255 0
-9.360000 -16.575701 -0.602900 0 255 255
-9.346700 -16.616699 8.913300 0 255 0
-9.908300 -16.376699 -0.490000 0 255 255
-9.780000 -14.810000 22.139999 0 255 0
-9.701700 -16.773300 -3.948300 0 255 255
-9.780000 -14.700000 15.680000 0 255 0
-9.763300 -14.726700 16.316700 0 255 0
-9.010000 -15.230000 -4.930000 0 255 255
-10.320000 -15.330000 -3.800000 0 255 255
-8.820000 -16.379999 11.530000 0 255 0
-8.803100 -16.616301 1.550000 0 255 0
-9.520000 -16.030001 11.400000 0 255 0
-8.710000 -15.290000 -4.730000 0 255 255
-8.713100 -15.123100 11.164600 0 255 0
-9.960000 -14.560000 -1.950000 0 255 255
-9.946700 -14.870000 17.853300 0 255 0
-9.970000 -14.900000 14.990000 0 255 0
-8.810000 -15.230000 11.420000 0 255 0
-8.810000 -15.335000 17.707500 0 255 0
-8.771800 -15.411800 -3.535500 0 255 255
-8.810000 -15.230000 11.850000 0 255 0
-8.750000 -15.406700 -3.583300 0 255 255
-8.823300 -15.156700 12.400000 0 255 0
-8.760000 -15.650000 -4.220000 0 255 255
-8.950000 -16.379999 12.940000 0 255 0
-10.195000 -15.480000 14.655000 0 255 0
-9.656000 -14.761300 7.956000 0 255 0
-9.640000 -14.990000 20.629999 0 255 0
-9.670000 -14.710000 10.580000 0 255 0
-8.750000 -15.855000 7.510000 0 255 0
-8.760000 -15.570000 14.275000 0 255 0
-8.750000 -15.420000 24.160000 0 255 0
-8.912500 -14.614400 11.405600 0 255 0
-8.918100 -14.961700 -4.389600 0 255 255
-9.710000 -15.590000 -1.890000 255 0 0
-9.957100 -16.407101 11.211400 0 255 0
-9.015000 -15.231700 17.566700 0 255 0
-9.010000 -15.170000 15.451700 0 255 0
-10.140000 -14.930000 17.770000 0 255 0
-9.170000 -16.320000 10.655000 0 255 0
-9.160000 -16.420000 17.139999 0 255 0
-9.555000 -14.615000 19.469999 0 255 0
-10.130000 -16.379999 10.270000 0 255 0
-8.770000 -16.629999 3.280000 0 255 0
-9.860000 -14.815000 18.160000 0 255 0
-9.840000 -14.920000 11.170000 0 255 0
-9.700000 -16.559999 11.750000 0 255 0
-8.852500 -16.212500 5.556200 0 255 0
-10.066700 -16.168699 -0.592000 0 255 255
-10.060000 -16.370001 12.860000 0 255 0
-10.250000 -14.750000 -4.520000 0 255 255
-9.450000 -16.290001 15.620000 0 255 0
-9.707300 -16.810900 -0.495500 0 255 255
-9.302500 -16.772499 3.615000 0 255 0
-9.310000 -16.440001 -0.820000 0 255 255
-8.554000 -15.968000 7.604000 0 255 0
-8.525000 -15.910000 9.510000 0 255 0
-9.030000 -16.260000 1.350000 0 255 0
-9.007500 -16.420000 10.860000 0 255 0
-8.610000 -15.820000 11.280000 0 255 0
-8.600000 -15.780000 7.760000 0 255 0
-8.658000 -14.920000 11.266000 0 255 0
-8.562200 -14.822200 11.522200 0 255 0
-9.310000 -15.930000 -5.190000 0 255 0
-9.324500 -15.829100 1.317300 255 0 0
-9.361000 -14.425000 11.914000 0 255 0
-9.380000 -14.530000 18.420000 0 255 0
-8.970000 -16.120001 9.810000 0 255 0
-8.963300 -16.271700 13.063300 0 255 0
-8.660000 -14.870000 -4.680000 0 255 255
-8.600000 -15.990000 1.620000 0 255 0
-10.250900 -14.774500 -4.777300 0 255 255
-9.760000 -15.310000 22.480000 0 255 0
-9.770000 -15.121700 11.055000 0 255 0
-9.410000 -15.490000 19.420000 255 0 0
-9.400000 -15.540000 18.690001 255 0 0
-9.803300 -16.680000 -4.253300 0 255 255
-9.820000 -16.209999 17.809999 0 255 0
-9.790000 -16.063299 10.663300 0 255 0
-9.860000 -15.300000 19.610001 0 255 0
-9.856700 -15.383300 16.910000 0 255 0
-8.906700 -16.766701 -0.810000 0 255 255
-8.902000 -16.424000 15.656000 0 255 0
-8.909000 -16.115000 9.501000 0 255 0
-9.557100 -16.021400 11.310000 0 255 0
-9.575000 -16.165001 1.506700 0 255 0
-9.580000 -16.180000 1.190000 0 255 0
-9.565000 -16.264999 7.695000 0 255 0
-9.560000 -16.120001 19.860001 0 255 0
-9.565000 -14.480000 -4.295000 0 255 255
-9.366700 -16.360001 15.460000 0 255 0
-9.005000 -15.105000 12.100000 0 255 0
-9.015000 -15.170000 15.345000 0 255 0
-9.160000 -15.730000 11.310000 0 255 0
-9.140000 -15.870000 1.490000 0 255 0
-8.927500 -15.450000 10.150000 0 255 0
-8.900000 -16.010000 -4.800000 0 255 255
-8.920000 -15.940000 1.530000 0 255 0
-8.910000 -15.362500 16.870001 0 255 0
-9.950000 -16.590000 23.370001 0 255 0
-9.970000 -16.200001 -5.110000 0 0 255
-9.947500 -16.014999 7.975000 0 255 0
-9.960000 -15.967500 12.455000 0 255 0
-9.970000 -16.160000 -0.590000 0 255 255
-9.270000 -15.630000 5.610000 255 0 0
-9.270000 -15.715000 -0.690000 255 0 0
-9.280000 -15.680000 2.370000 255 0 0
-9.057500 -15.057500 13.210000 0 255 0
-10.250000 -16.325001 -0.690000 0 255 255
-8.900000 -14.760000 -4.140000 0 255 255
-10.156700 -15.061700 16.145000 0 255 0
-9.830000 -16.670000 16.219999 0 255 0
-9.830000 -16.610001 13.050000 0 255 0
-9.810000 -16.559999 5.980000 0 255 0
-9.830000 -15.950000 19.000000 0 255 0
-9.820000 -15.900000 15.780000 0 255 0
-9.812000 -16.469999 -0.592000 0 255 255
-10.180000 -16.520000 9.480000 0 255 0
-10.160000 -16.330000 -0.930000 0 255 255
-9.691400 -15.621400 1.005700 255 0 0
-9.690000 -15.510000 7.300000 255 0 0
-9.717500 -15.619200 1.507500 255 0 0
-9.690000 -15.770000 24.230000 0 255 0
-9.609000 -14.722700 9.960700 0 255 0
-9.616000 -14.930000 -4.042000 0 255 255
-9.604400 -14.713300 10.455600 0 255 0
-9.813000 -16.426001 1.957000 0 255 0
-9.218000 -14.410000 11.358000 0 255 0
-8.870000 -15.660000 20.415001 0 255 0
-8.860000 -15.320000 17.110001 0 255 0
-9.710000 -16.350000 15.850000 0 255 0
-9.755000 -15.180000 -4.475000 0 255 0
-9.750000 -15.173300 -4.243300 0 255 0
-8.966000 -15.316000 -4.950000 0 255 255
-8.950000 -15.665000 11.265000 0 255 0
-9.130000 -15.540000 -4.570000 0 255 0
-9.110000 -15.500000 -3.640000 0 255 0
-9.700000 -16.080000 7.880000 0 255 0
-9.052900 -14.871400 11.114300 0 255 0
-9.045000 -14.860000 11.140000 0 255 0
-9.400000 -15.430000 4.500000 255 0 0
-9.420000 -15.580000 14.263300 255 0 0
-9.417500 -15.527500 11.006200 255 0 0
-9.418000 -15.616000 17.143999 255 0 0
-9.406000 -15.654000 20.403999 255 0 0
-9.410000 -15.600000 16.910000 255 0 0
-9.422500 -15.482500 6.617500 255 0 0
-9.416000 -15.525000 9.762000 255 0 0
-9.420000 -15.575000 12.907500 255 0 0
-9.420000 -15.680000 20.070000 255 0 0
-9.500000 -16.750000 11.940000 0 255 0
-9.380000 -15.480000 2.905000 255 0 0
-9.368000 -15.573300 9.404700 255 0 0
-9.356700 -15.666700 15.570000 255 0 0
-9.366000 -15.410000 -4.584000 0 255 0
-9.364300 -15.618600 8.862900 255 0 0
-9.364800 -15.521800 1.708700 255 0 0
-9.355000 -15.669000 5.705000 255 0 0
-9.340000 -15.575000 -1.430000 0 255 0
-9.370000 -15.700000 15.170000 255 0 0
-9.324000 -15.568000 3.212000 255 0 0
-9.307500 -15.762500 15.457500 255 0 0
-9.325600 -15.527500 0.063100 255 0 0
-9.310000 -15.625000 19.070000 255 0 0
-9.329200 -15.526700 -0.485000 0 255 0
-9.321700 -15.570000 2.761700 255 0 0
-8.960000 -15.020000 17.809999 0 255 0
-8.940000 -14.930000 11.330000 0 255 0
-8.905000 -15.640000 -3.935000 0 255 0
-9.655600 -14.673300 13.510000 0 255 0
-9.660000 -14.632500 16.752501 0 255 0
-8.980000 -14.910000 14.690000 0 255 0
-8.930000 -15.350000 -4.900000 0 255 255
-8.955000 -15.060000 18.295000 0 255 0
-8.952500 -15.027500 21.465000 0 255 0
-9.910900 -15.316100 -4.832200 0 255 0
-9.912300 -15.303800 -4.178500 0 255 255
-9.280000 -16.639999 7.540000 0 255 0
-9.263300 -15.276700 18.143299 0 255 0
-9.830000 -16.230000 10.370000 0 255 0
-8.813200 -15.869200 7.356800 0 255 0
-8.810000 -15.690000 19.760000 0 255 0
-8.810000 -15.650000 19.670000 0 255 0
-8.812000 -15.864500 7.019000 0 255 0
-10.190000 -15.650000 20.750000 0 255 0
-10.190000 -15.710000 23.820000 0 255 0
-9.502000 -15.452000 -4.492000 0 255 0
-9.502500 -15.314200 11.301700 0 255 0
-9.505000 -15.175000 14.455000 0 255 0
-9.515000 -15.515000 -1.355000 255 0 0
-9.115600 -15.166700 -4.578900 0 255 255
-9.103700 -15.171200 -4.028800 0 255 255
-9.107500 -14.877500 15.510800 0 255 0
-9.640000 -16.100000 -4.120000 0 255 0
-9.170000 -15.620000 -4.060000 255 0 0
-8.822000 -14.620000 -4.348000 0 255 255
-8.970000 -16.580000 7.530000 0 255 0
-9.770000 -14.428000 -2.688000 0 255 255
-9.575000 -15.815000 13.645000 0 255 0
-9.560000 -15.920000 20.180000 0 255 0
-9.753700 -14.617900 9.963700 0 255 0
-9.861500 -14.824000 -4.773500 0 255 255
-9.700000 -15.000000 -4.740000 0 255 255
-9.706200 -14.421900 8.310400 0 255 0
-9.702000 -14.464000 11.456000 0 255 0
-8.770000 -15.960000 9.560000 0 255 0
-8.780000 -16.090000 15.840000 0 255 0
-8.750000 -16.260000 3.200000 0 255 0
-8.740000 -15.580000 24.180000 0 255 0
-8.758400 -15.814700 7.320500 0 255 0
-8.850000 -14.590000 -3.880000 0 255 255
-8.860000 -14.590000 -4.150000 0 255 255
-8.847500 -14.562500 -4.387500 0 255 255
-8.865000 -14.735000 11.825000 0 255 0
-9.260000 -16.775000 8.830000 0 255 0
-9.280000 -16.660000 15.320000 0 255 0
-9.270000 -16.718000 12.058000 0 255 0
-9.253700 -16.514200 -0.731100 0 255 255
-9.250000 -16.690001 16.410000 0 255 0
-9.766700 -15.923300 24.306700 0 255 0
-9.763300 -16.469999 2.047500 0 255 0
-9.761400 -15.228600 10.102900 0 255 0
-9.770000 -15.320000 15.305000 0 255 0
-9.760000 -15.360000 13.110000 0 255 0
-9.815000 -15.370000 19.370001 0 255 0
-9.820000 -15.400000 22.410000 0 255 0
-9.830000 -15.235000 9.765000 0 255 0
-9.815000 -15.325000 16.115000 0 255 0
-9.821200 -15.220000 10.012500 0 255 0
-9.795000 -15.430000 23.059999 0 255 0
-8.830000 -16.030001 17.530001 0 255 0
-9.960000 -16.120001 11.266700 0 255 0
-9.975000 -15.920000 24.320000 0 255 0
-8.840000 -15.440000 -3.290000 0 255 255
-8.865000 -15.620000 9.757500 0 255 0
-8.865800 -15.409200 -3.648400 0 255 255
-9.890000 -15.510000 -4.210000 0 255 0
-9.906700 -15.960000 12.453300 0 255 0
-8.830000 -15.550000 -4.980000 0 255 255
-8.850000 -15.060000 17.906700 0 255 0
-9.660000 -15.710000 4.540000 255 0 0
-9.660000 -15.710000 3.493300 255 0 0
-9.670000 -15.770000 1.440000 255 0 0
-9.640000 -15.710000 4.860000 255 0 0
-9.650000 -15.220000 11.810000 0 255 0
-8.861300 -15.216300 -3.645400 0 255 255
-8.870000 -14.800000 22.180000 0 255 0
-9.360000 -14.870000 13.640000 0 255 0
-10.206700 -15.463300 12.650000 0 255 0
-10.215000 -15.220700 -3.943600 0 255 255
-9.290000 -15.720000 20.840000 255 0 0
-9.320000 -15.770000 24.129999 0 255 0
-9.320000 -15.520000 6.780000 255 0 0
-8.880000 -15.240000 13.060000 0 255 0
-8.930000 -15.850000 23.010000 0 255 0
-8.906000 -16.414000 7.506000 0 255 0
-8.911700 -16.475000 10.760000 0 255 0
-8.908600 -16.158600 5.468600 0 255 0
-9.750000 -15.980000 8.047500 0 255 0
-9.767500 -15.972500 10.212500 0 255 0
-9.755000 -15.980000 10.155000 0 255 0
-9.700000 -15.935000 10.415000 0 255 0
-9.700000 -16.540001 -0.480000 0 255 255
-9.146000 -15.658000 11.250000 0 255 0
-10.265000 -15.422500 -4.872500 0 0 255
-8.745000 -16.075001 10.760000 0 255 0
-8.760000 -16.123301 7.607800 0 255 0
-8.770000 -16.070000 10.790000 0 255 0
-8.760800 -16.126900 7.556200 0 255 0
-8.750000 -16.030001 1.630000 0 255 0
-8.750000 -16.082001 11.068000 0 255 0
-9.960000 -16.209999 17.000000 0 255 0
-8.790000 -15.550000 -3.290000 0 255 255
-8.855000 -15.055000 22.815001 0 255 0
-8.812500 -15.432500 12.902500 0 255 0
-9.690000 -16.350000 17.709999 0 255 0
-9.700000 -15.475000 -0.055000 255 0 0
-9.726700 -15.306700 10.056700 0 255 0
-9.115000 -14.780000 14.730000 0 255 0
-10.253300 -15.450000 12.813300 0 255 0
-9.920000 -15.926700 -5.000000 0 255 0
-9.365000 -16.334999 9.805000 0 255 0
-9.350000 -16.559999 19.700001 0 255 0
-9.366300 -16.411200 16.358700 0 255 0
-8.960000 -15.573300 11.256700 0 255 0
-8.960000 -15.572100 11.462900 0 255 0
-8.610000 -15.525000 17.680000 0 255 0
-8.593300 -15.410000 11.363300 0 255 0
-8.660000 -15.320000 11.360000 0 255 0
-8.510000 -14.915700 -4.091400 0 255 255
-8.512000 -15.174000 11.406000 0 255 0
-8.363000 -15.072000 11.467500 0 255 0
-9.807100 -16.627899 6.073600 0 255 0
-9.808600 -16.525700 -0.450000 0 255 255
-9.820000 -15.990000 15.780000 0 255 0
-9.814000 -16.577999 2.960000 0 255 0
-9.825000 -15.910000 12.360000 0 255 0
-8.918000 -14.968000 15.662000 0 255 0
-8.908600 -14.920000 12.498600 0 255 0
-8.850000 -14.930000 12.380000 0 255 0
-8.840000 -15.280000 15.740000 0 255 0
-9.155000 -16.665001 3.455000 0 255 0
-9.100000 -16.400000 24.059999 0 255 0
-9.690000 -15.620000 -0.560000 255 0 0
-9.700000 -15.680000 2.710000 255 0 0
-9.700000 -15.550000 9.210000 255 0 0
-9.930000 -16.200001 18.650000 0 255 0
-9.266700 -14.703300 11.463300 0 255 0
-9.251100 -14.572200 -4.826700 0 255 255
-9.161100 -14.472200 11.658900 0 255 0
-9.162200 -14.713300 -3.684400 0 255 255
-8.307500 -15.400000 12.915000 0 255 0
-8.610000 -15.970000 16.205000 0 255 0
-9.008700 -15.363700 11.603700 0 255 0
-8.999600 -16.069599 5.461500 0 255 0
-9.790000 -15.650000 14.950000 0 255 0
-9.820000 -15.690000 15.610000 0 255 0
-9.015000 -15.490000 -4.225000 0 255 255
-8.992500 -15.467500 -3.697500 0 255 255
-9.012500 -15.665000 9.370000 0 255 0
-9.390000 -15.800000 -2.360000 255 0 0
-9.420000 -15.840000 -2.660000 255 0 0
-9.425000 -15.970000 6.805000 0 255 0
-9.420000 -15.850000 -3.220000 255 0 0
-9.592500 -14.920000 14.355000 0 255 0
-9.601300 -14.808700 8.056300 0 255 0
-10.310000 -16.219999 -0.930000 0 255 255
-10.162000 -15.867000 7.700000 0 255 0
-9.115000 -15.235000 21.350000 0 255 0
-9.103300 -15.156700 18.200001 0 255 0
-9.110000 -15.166700 18.160000 0 255 0
-9.110000 -15.240000 19.440001 0 255 0
-9.556700 -16.106701 9.876700 0 255 0
-9.807500 -14.770000 7.962500 0 255 0
-9.830000 -14.810000 16.459999 0 255 0
-9.800000 -14.750000 13.400000 0 255 0
-9.820000 -14.710000 10.180000 0 255 0
-8.920000 -16.227501 3.072500 0 255 0
-8.900000 -16.430000 15.700000 0 255 0
-9.450000 -16.680000 -0.720000 0 255 255
-9.245000 -15.215000 18.379999 0 255 0
-9.280000 -16.660000 1.930000 0 255 0
-9.904000 -16.174000 8.004000 0 255 0
-9.916700 -16.213301 11.176700 0 255 0
-9.910000 -15.970000 20.639999 0 255 0
-9.350000 -15.490000 5.430000 255 0 0
-9.360000 -15.212700 -4.005500 0 255 0
-9.376700 -15.570000 11.696700 255 0 0
-9.380000 -15.490000 4.745000 255 0 0
-9.370000 -15.750000 23.520000 255 0 0
-9.346700 -15.616700 20.153299 255 0 0
-9.365000 -15.580000 11.261700 255 0 0
-9.360000 -15.660000 17.004999 255 0 0
-8.907500 -15.315000 -4.687500 0 255 255
-8.950000 -15.060000 21.410000 0 255 0
-8.965000 -14.910000 18.059999 0 255 0
-8.922000 -15.470000 -4.490000 0 255 255
-8.910000 -15.520000 11.596700 0 255 0
-8.961300 -14.918700 18.117500 0 255 0
-8.956700 -15.066700 21.370001 0 255 0
-8.961100 -14.971100 15.412200 0 255 0
-9.190000 -14.700000 -4.370000 0 255 255
-9.220000 -14.610000 14.940000 0 255 0
-9.215700 -14.568600 11.707100 0 255 0
-9.230000 -14.590000 12.040000 0 255 0
-9.202500 -15.072500 18.209999 0 255 0
-9.220000 -15.100000 21.340000 0 255 0
-9.870000 -14.670000 16.820000 0 255 0
-8.490000 -15.560000 20.500000 0 255 0
-8.510000 -16.285000 17.889999 0 255 0
-8.508800 -16.363701 11.611300 0 255 0
-8.490000 -16.260000 17.680000 0 255 0
-8.506700 -16.209999 17.763300 0 255 0
-8.410000 -15.365000 18.514999 0 255 0
-8.410000 -15.333300 15.170000 0 255 0
-8.400000 -15.030000 -4.440000 0 255 255
-9.780000 -15.730000 13.240000 0 255 0
-9.762500 -15.802500 7.875000 0 255 0
-9.753300 -15.260000 16.856701 0 255 0
-9.766700 -15.180000 11.700000 0 255 0
-9.963200 -14.517700 -2.630300 0 255 255
-9.665000 -15.575000 1.510000 255 0 0
-9.653300 -15.523300 4.653300 255 0 0
-9.650000 -15.620800 -1.644200 255 0 0
-9.640000 -15.760000 14.710000 0 255 0
-9.657100 -15.622400 -0.987100 255 0 0
-9.652000 -15.524000 5.306000 255 0 0
-9.668800 -15.574100 2.067100 255 0 0
-9.650900 -15.618500 -2.140600 0 255 0
-9.654000 -15.524000 4.362000 255 0 0
-9.672500 -15.569200 1.214200 255 0 0
-9.669000 -15.569000 1.753000 255 0 0
-9.658200 -15.615400 -1.492100 255 0 0
-9.647500 -15.537500 5.015000 255 0 0
-9.000000 -14.920000 23.950001 0 255 0
-8.980000 -15.530000 16.580000 0 255 0
-10.450000 -15.270000 18.580000 0 255 0
-9.210000 -15.625000 17.754999 255 0 0
-9.220000 -15.540000 11.270000 0 255 0
-10.340000 -15.110000 20.170000 0 255 0
-10.360000 -14.973300 16.803301 0 255 0
-9.710000 -15.655000 14.860000 0 255 0
-9.550000 -14.570000 -2.410000 0 255 255
-9.570000 -14.530000 13.490000 0 255 0
-10.058700 -14.766300 17.813801 0 255 0
-10.055000 -14.765000 17.570000 0 255 0
-10.080000 -14.750000 17.530001 0 255 0
-9.580000 -14.580000 20.219999 0 255 0
-9.180000 -15.950000 9.730000 0 255 0
-9.150000 -15.370000 -3.430000 0 255 255
-10.070000 -16.230000 -0.550000 0 255 255
-8.910000 -15.473300 9.813300 0 255 0
-9.500000 -15.380000 -4.430000 0 255 0
-9.503300 -15.430000 -1.190000 255 0 0
-9.511000 -15.232000 11.314000 0 255 0
-9.496000 -15.438000 -1.338000 255 0 0
-9.466000 -16.082001 14.056000 0 255 0
-9.580000 -16.160000 7.570000 0 255 0
-9.570000 -16.040001 19.620001 0 255 0
-9.570000 -15.780000 8.130000 255 0 0
-9.565000 -15.640000 18.070000 255 0 0
-9.940000 -14.760000 -3.850000 0 255 255
-9.760000 -15.580000 8.780000 0 255 0
-9.770000 -15.650000 15.830000 0 255 0
-10.211200 -15.978700 -0.725000 0 255 255
-10.230000 -16.250000 18.910000 0 255 0
-9.466700 -15.530000 12.210000 255 0 0
-9.451700 -15.560000 9.213300 255 0 0
-9.460000 -15.620000 6.350000 255 0 0
-9.470000 -15.520000 13.530000 255 0 0
-9.448600 -15.571400 9.510000 255 0 0
-9.480000 -15.490000 17.309999 0 255 0
-9.460000 -15.715000 1.020000 255 0 0
-9.480000 -15.530000 14.080000 255 0 0
-9.451400 -15.562100 10.562900 255 0 0
-9.446700 -15.620000 7.320000 255 0 0
-9.010000 -16.365000 15.710000 0 255 0
-9.030000 -16.299999 12.580000 0 255 0
