-0.710800 16.575001 12.259600 0 255 0
0.285000 16.680000 15.050000 0 255 0
-1.810000 17.315001 10.845000 0 255 0
-0.510000 16.549999 4.100000 0 255 0
-1.670000 17.120001 5.120000 0 255 255
-0.413300 16.073299 4.866700 0 255 255
-0.946700 16.933300 13.803300 255 0 0
-0.948000 16.886000 23.306000 255 0 0
-0.557700 15.828500 12.599200 0 255 0
-1.112900 16.282101 16.865801 0 255 0
-1.345000 17.070000 9.995000 0 255 0
-1.350000 16.959999 16.540001 0 255 0
-1.056700 16.790001 11.126700 0 255 0
-1.055000 16.824400 14.252200 0 255 0
-0.302500 16.139999 17.270000 0 255 0
-0.462000 15.970000 22.204000 0 255 0
-0.466200 15.829200 12.571500 0 255 0
-0.870000 16.833300 9.063300 255 0 0
-0.870000 16.872900 12.198600 255 0 0
-0.811000 16.865999 11.623000 255 0 0
-0.260000 16.379999 15.270000 0 255 0
-0.263800 16.280800 8.713500 0 255 0
-1.445000 17.045000 6.005000 0 255 255
-1.463300 17.086700 9.126700 0 255 0
0.140000 16.177999 16.073999 0 255 0
-0.805000 16.764999 5.515000 0 255 0
-0.810000 16.889999 24.459999 255 0 0
-0.500000 17.059999 25.565001 0 255 0
-0.066700 16.684999 4.760000 0 255 0
-0.915200 16.284800 12.467800 0 255 0
-0.540000 15.780000 19.270000 0 255 0
-0.556400 15.884500 12.510900 0 255 0
-0.350000 17.135000 25.389999 0 255 0
-0.545000 15.890000 4.615000 0 255 255
-0.906700 17.026699 14.066700 255 0 0
-0.900000 17.100000 10.890000 255 0 0
-0.910000 16.959999 4.430000 0 255 0
-0.925000 16.735001 20.594999 255 0 0
-0.915000 16.917500 7.560000 255 0 0
-1.115000 15.832500 5.515000 0 255 255
-0.130000 16.680000 14.890000 0 255 0
-1.620000 16.959999 15.740000 0 255 0
-0.051700 16.473301 4.203300 0 255 0
-0.106700 16.290001 4.611700 0 255 255
-1.220000 16.889999 23.299999 0 255 0
-0.409400 16.332899 12.271800 0 255 0
-0.907500 15.977500 5.452500 0 255 255
-0.816000 16.864000 15.664000 255 0 0
-0.806000 17.082001 21.959999 0 255 0
-0.830000 16.910000 4.550000 0 255 0
-0.823300 16.870800 7.702500 255 0 0
-0.850000 17.110001 12.210000 255 0 0
-0.803600 15.933600 15.420000 0 255 0
-1.090000 17.000000 15.020000 0 255 0
-0.930000 16.809999 17.260000 255 0 0
-0.905000 16.879999 14.015000 255 0 0
-0.820000 16.600000 3.960000 0 255 0
-0.800500 16.781601 16.608400 255 0 0
-0.811700 16.828300 13.364400 255 0 0
-0.690000 17.070000 26.820000 0 255 0
-0.700000 16.969999 18.870001 255 0 0
-0.700000 16.799999 6.210000 255 0 0
-0.693300 16.916700 9.310000 255 0 0
-0.702000 16.881001 12.565000 255 0 0
-0.558300 16.931999 5.558100 255 0 0
-0.555000 16.860001 15.095000 0 255 0
-0.569200 16.984200 8.820000 255 0 0
-0.570000 16.809999 11.880000 255 0 0
-0.810000 16.730000 18.230000 255 0 0
-0.812000 16.532000 5.557000 0 255 0
-0.804200 16.776699 15.053300 255 0 0
-0.803700 16.832001 11.908500 255 0 0
-0.808200 16.490000 8.705300 0 255 0
-0.840000 16.840000 4.790000 255 0 0
-0.851800 16.879999 8.060600 255 0 0
-0.852800 16.874399 7.907200 255 0 0
0.336700 16.616699 14.876700 0 255 0
0.000000 16.250000 8.960000 0 255 0
-0.010000 16.180000 12.225000 0 255 0
-0.006300 17.487499 5.465000 0 255 255
-0.300000 18.059999 5.080000 0 255 255
-1.030000 16.450001 19.480000 0 255 0
-0.110000 16.572500 22.514999 0 255 0
-0.325000 17.330000 4.700000 0 255 0
0.120000 17.530001 4.290000 0 255 255
-0.210000 16.730000 8.850000 0 255 0
-0.216000 16.624001 15.005000 0 255 0
-0.140000 16.650000 27.450001 0 255 0
-0.180000 16.833300 14.813300 0 255 0
-0.397500 16.377501 3.912500 0 255 255
-0.413300 15.823300 12.616700 0 255 0
-1.165000 17.138800 9.060000 0 255 0
-0.860000 16.830000 25.230000 255 0 0
-0.870000 16.730000 18.930000 255 0 0
-0.870000 16.860001 28.440001 0 255 0
-0.860000 16.923300 6.262200 0 255 0
-0.867100 16.982901 9.515700 255 0 0
-0.860000 16.780001 22.150000 255 0 0
-0.500000 15.920000 22.250000 0 255 0
-0.508600 15.874300 12.514300 0 255 0
-1.230000 16.719999 5.790000 0 255 255
-0.556700 17.065001 6.711700 255 0 0
-0.570000 16.959999 12.460000 255 0 0
-0.580000 16.850000 15.830000 255 0 0
-0.560000 16.785000 25.495001 0 255 0
-1.307500 16.530001 22.102501 0 255 0
-1.290000 16.440001 15.590000 0 255 0
-1.306700 16.573299 18.946699 0 255 0
-1.470000 16.000000 22.680000 0 255 0
-0.795000 16.730000 17.655001 255 0 0
-0.814300 16.787100 14.410000 255 0 0
-0.807200 16.828699 11.159400 255 0 0
-0.750000 16.510000 4.880000 0 255 0
-0.756000 16.733999 17.518000 255 0 0
-0.754700 16.790001 7.752000 255 0 0
-0.760500 16.828800 11.011200 255 0 0
-0.710000 16.860001 20.709999 255 0 0
-0.712500 16.787500 13.962500 255 0 0
-0.716900 16.834900 10.811800 255 0 0
-1.300000 17.129999 8.880000 0 255 0
-0.068000 16.030001 4.616000 0 255 255
-0.402500 17.026699 14.969200 0 255 0
-0.260000 16.959999 4.140000 0 255 0
-1.480000 16.070000 23.760000 0 255 0
-1.451400 15.971400 16.815701 0 255 0
0.230000 17.334999 5.090000 0 255 255
-0.330000 16.840000 20.740000 0 255 0
-0.708300 15.780000 4.705000 0 255 255
-0.695000 15.975000 16.965000 0 255 0
-1.766700 16.793301 6.056700 0 255 255
-1.765000 16.594999 19.120001 0 255 0
-0.980000 16.480000 19.480000 0 255 0
-0.080000 17.250000 25.700001 0 255 0
-1.240000 16.700001 18.990000 0 255 0
0.310000 17.160000 26.500000 0 255 0
-1.140000 17.139999 9.480000 0 255 0
0.236700 16.424999 19.155001 0 255 0
-0.254000 17.135000 14.814000 0 255 0
-0.025000 16.674999 4.020000 0 255 0
-0.080000 16.570000 21.040001 0 255 0
-0.070000 16.879999 14.910000 0 255 0
-0.060000 16.526699 17.809999 0 255 0
-1.560000 16.782499 14.812500 0 255 0
-1.556700 15.993300 22.663300 0 255 0
-0.504400 16.285601 12.356700 0 255 0
-0.360000 16.374001 5.022000 0 255 255
-0.357500 15.772500 16.065001 0 255 0
-0.358000 15.821300 19.306700 0 255 0
-0.800000 16.570000 28.889999 0 255 0
-0.770000 16.832001 19.458000 255 0 0
-0.770000 16.740000 25.740000 255 0 0
-0.761800 16.521400 12.304100 0 255 0
-0.755300 16.782900 16.310600 255 0 0
-0.315000 16.535000 4.210000 0 255 0
-0.315200 15.830300 12.155900 0 255 0
-0.820000 17.059999 23.000000 0 255 0
-0.820000 16.920000 6.690000 255 0 0
-0.815200 16.889099 9.961200 255 0 0
-0.690000 16.930000 13.540000 255 0 0
-0.712300 16.834999 6.809600 255 0 0
-0.480000 16.840000 12.430000 0 255 0
-0.350000 17.410000 5.590000 0 255 0
0.190000 16.480000 14.830000 0 255 0
-0.817300 16.380899 12.100900 0 255 0
-0.807500 16.425800 8.862500 0 255 0
-0.240000 15.910000 4.780000 0 255 255
0.120000 16.790001 8.620000 0 255 0
-0.066700 17.576700 17.666700 0 255 0
-1.080000 16.180000 18.090000 0 255 0
-1.070000 15.992500 5.467500 0 255 255
0.380000 17.040001 24.990000 0 255 0
-0.660000 17.809999 27.440001 0 255 0
-1.110000 16.795000 5.765000 0 255 255
-1.110000 16.930000 5.440000 0 255 255
-0.770000 15.915000 5.605000 0 255 255
-0.770000 15.940000 23.770000 0 255 0
-1.290000 16.059999 5.890000 0 255 255
-0.290000 17.040001 21.959999 0 255 0
0.210000 17.389999 19.580000 0 255 0
-0.705700 16.841400 5.558600 255 0 0
-0.700000 16.915001 12.320000 255 0 0
-0.703300 16.780001 8.806700 255 0 0
-1.380000 16.695000 15.565000 0 255 0
-0.590000 17.840000 23.270000 0 255 0
-0.255000 15.830000 16.030001 0 255 0
-0.696700 16.026699 5.020000 0 255 255
-0.710000 16.245001 18.045000 0 255 0
-0.950000 16.790001 23.330000 255 0 0
-0.980000 16.830000 13.650000 255 0 0
-1.050000 16.309999 17.500000 0 255 0
-1.300000 16.360001 21.070000 0 255 0
-0.114300 15.885700 19.302900 0 255 0
-0.710000 15.877500 18.059999 0 255 0
-0.153300 15.880000 22.496700 0 255 0
-0.163300 15.986000 16.162001 0 255 0
-0.830000 16.840000 28.120001 0 255 0
-0.814000 16.632000 15.060000 0 255 0
-1.220000 16.277500 13.763700 0 255 0
-0.770000 16.764999 8.960000 255 0 0
-0.740000 16.730000 18.730000 255 0 0
-0.765000 16.535000 5.255000 0 255 0
-0.780000 16.660000 15.440000 0 255 0
-0.762300 16.827000 12.206000 255 0 0
-0.510000 16.674999 23.360001 0 255 0
-0.017500 17.135000 19.760000 0 255 0
-0.920000 17.350000 5.290000 0 255 0
-0.820000 16.740000 18.260000 255 0 0
-0.805000 16.525000 5.610000 0 255 0
-0.807800 16.783800 15.005900 255 0 0
-0.805500 16.483601 8.855900 0 255 0
-0.808400 16.829300 11.762300 255 0 0
-0.545000 17.165001 25.450001 0 255 0
-1.461000 16.931999 16.408001 0 255 0
-0.816700 16.878300 5.868300 255 0 0
-0.380000 17.049999 19.600000 0 255 0
-0.100000 17.290001 4.700000 0 255 255
-0.111300 17.073999 17.763300 0 255 0
-1.063300 15.983300 4.456700 0 255 255
-0.046700 16.686701 17.853300 0 255 0
-0.820000 17.825001 4.645000 0 255 255
-0.920000 15.740000 17.200001 0 255 0
0.195000 16.227501 23.715000 0 255 0
-0.820000 16.930000 16.610001 255 0 0
-0.816700 16.866699 19.860001 255 0 0
-0.510000 17.120001 9.820000 0 255 0
-0.200000 16.030001 12.526700 0 255 0
-0.215000 15.822500 25.567499 0 255 0
-1.207500 16.177500 19.797501 0 255 0
0.100000 17.299999 19.840000 0 255 0
-1.412500 16.980000 15.222500 0 255 0
-1.400000 17.059999 8.840000 0 255 0
0.140000 17.295000 4.865000 0 255 255
0.350000 17.219999 4.330000 0 255 255
-0.320000 16.389999 22.469999 0 255 0
-0.250000 16.490000 17.660000 0 255 0
-0.270000 16.270000 4.620000 0 255 255
-0.006000 16.271999 23.752001 0 255 0
-1.030000 16.889999 23.490000 0 255 0
-0.190000 16.570000 17.940001 0 255 0
-1.145000 15.875000 5.465000 0 255 255
-1.220000 16.170000 19.780001 0 255 0
-1.200000 15.750000 22.879999 0 255 0
-1.225000 16.290001 13.450000 0 255 0
-0.500000 16.660000 4.290000 0 255 0
-1.155000 16.934999 5.605000 0 255 255
-0.610000 15.728000 22.608000 0 255 0
-0.820000 16.875000 19.320000 255 0 0
-0.670000 17.469999 5.360000 0 255 0
-0.920000 16.160000 4.590000 0 255 255
-1.213100 17.179199 9.056900 0 255 0
-0.680000 17.410000 5.740000 0 255 0
-1.090000 17.350000 5.470000 0 255 0
-0.360000 18.030001 5.260000 0 255 255
0.190000 17.000000 19.740000 0 255 0
-1.440000 16.950001 4.410000 0 255 255
-0.810000 15.860000 12.780000 0 255 0
-0.703300 15.970000 5.016700 0 255 255
-0.010000 17.186001 19.576000 0 255 0
-0.470000 15.984000 12.348000 0 255 0
0.190000 16.260000 18.139999 0 255 0
-0.813300 16.823299 5.206700 255 0 0
-0.830000 16.910000 24.770000 255 0 0
-0.805000 16.792500 8.367500 255 0 0
-0.615000 16.065001 19.350000 0 255 0
-0.412000 15.986000 19.414000 0 255 0
-0.620000 16.875000 13.855000 255 0 0
-0.594500 16.980499 7.560000 255 0 0
-0.620000 16.926399 10.809300 255 0 0
-0.616700 16.830000 17.100000 255 0 0
-0.912000 16.427999 5.610000 0 255 0
-0.920000 16.780001 21.275000 255 0 0
-0.920000 16.924999 11.753000 255 0 0
-0.904000 16.983000 8.611000 255 0 0
-1.300000 16.000000 5.630000 0 255 255
-1.030000 17.059999 24.930000 0 255 0
-0.110000 17.486200 5.506300 0 255 255
-0.106700 16.389999 12.070000 0 255 0
0.180000 16.459999 20.780001 0 255 0
-0.350000 17.889999 5.100000 0 255 255
-1.050000 16.400000 21.020000 0 255 0
-0.910000 16.075001 23.965000 0 255 0
-0.065000 16.522499 4.647500 0 255 0
-1.190000 16.799999 9.080000 0 255 0
-1.450000 16.016701 5.770000 0 255 255
-1.120000 16.299999 13.600000 0 255 0
-0.930000 16.700001 12.900000 0 255 0
-0.905000 16.437500 28.717501 0 255 0
0.240000 17.820000 4.960000 0 255 255
-0.040000 16.969999 22.190001 0 255 0
0.090000 16.227501 8.895000 0 255 0
0.336700 16.670000 4.510000 0 255 255
-0.780000 15.760000 15.590000 0 255 0
-0.230000 16.930000 25.280001 0 255 0
-0.210000 16.959999 22.020000 0 255 0
-0.080000 16.059999 12.030000 0 255 0
-0.563300 15.833300 19.320000 0 255 0
0.120000 16.660000 20.820000 0 255 0
0.160000 16.590000 20.900000 0 255 0
-1.010000 16.809999 25.120001 0 255 0
0.030000 16.590000 19.040001 0 255 0
-1.200000 16.584999 17.105000 0 255 0
-1.220000 16.360001 4.060000 0 255 255
-1.260000 17.799999 5.380000 0 255 255
-0.560000 16.780001 8.915000 0 255 0
-0.554100 16.624100 12.264700 0 255 0
-0.768600 16.868601 12.101400 255 0 0
-0.540000 16.510000 15.240000 0 255 0
-1.400000 17.870001 4.960000 0 255 255
-0.944000 16.893999 11.660000 255 0 0
-0.815000 16.917500 6.907500 255 0 0
-0.806500 16.880301 10.160300 255 0 0
-0.770000 15.926200 16.910000 0 255 0
0.220000 17.150000 19.980000 0 255 0
0.230000 17.049999 26.480000 0 255 0
0.380000 17.270000 19.760000 0 255 0
-0.563300 16.393299 4.970000 0 255 0
-0.547500 16.025000 19.475000 0 255 0
-0.105000 16.065001 4.300000 0 255 255
-0.970000 17.090000 23.420000 0 255 0
-0.572700 16.979300 7.412000 255 0 0
0.038000 17.336000 19.662001 0 255 0
-0.920000 16.760000 5.210000 0 255 0
-0.903300 16.830000 14.960000 255 0 0
-0.908900 16.885599 11.708900 255 0 0
-0.920000 16.434999 5.715000 0 255 0
-0.893300 16.740000 24.706699 0 255 0
-0.906700 16.981701 8.508300 255 0 0
-0.913300 16.930599 11.661100 255 0 0
-0.340000 15.920000 19.230000 0 255 0
-0.340000 16.440001 14.840000 0 255 0
-0.350000 15.780000 22.273300 0 255 0
-0.360000 15.830000 25.500000 0 255 0
-1.340000 16.520000 4.560000 0 255 255
-1.280000 16.700001 14.370000 0 255 0
-0.065000 16.184999 23.780001 0 255 0
-0.060000 16.209999 27.010000 0 255 0
-0.055000 17.487499 4.967500 0 255 255
-1.346700 16.073299 5.206700 0 255 255
-1.330000 16.799999 15.280000 0 255 0
-0.830000 17.129999 8.770000 255 0 0
-1.020000 17.920000 5.410000 0 255 255
-0.875000 16.920000 11.505000 255 0 0
-0.880000 17.010000 25.400000 0 255 0
-1.090000 16.879999 28.780001 0 255 0
-0.030000 17.070000 19.520000 0 255 0
-0.540000 17.070000 25.330000 0 255 0
-0.420000 16.930000 23.370001 0 255 0
-0.380000 16.559999 16.580000 0 255 0
-0.670000 17.469999 17.719999 0 255 0
-0.640000 17.299999 5.070000 0 255 0
-0.680000 17.639999 27.150000 0 255 0
-1.160000 17.032499 10.305000 0 255 0
-0.510000 16.510000 4.930000 0 255 0
-0.940000 16.280001 17.879999 0 255 0
-1.290000 15.910000 5.460000 0 255 255
-0.730000 17.629999 4.000000 0 255 255
-1.110000 16.650000 5.730000 0 255 255
-1.815000 16.245001 5.050000 0 255 255
-0.830000 17.160000 7.700000 255 0 0
-0.810000 16.950001 7.090000 255 0 0
-0.811800 16.872400 10.358800 255 0 0
-0.700000 17.840000 4.100000 0 255 255
-0.865500 16.882500 7.306500 255 0 0
-0.512500 16.934999 5.212500 255 0 0
-0.440000 16.540001 15.230000 0 255 0
-1.670000 16.440001 16.590000 0 255 0
-1.580000 16.360001 26.110001 0 255 0
-0.980000 16.570000 25.250000 0 255 0
-1.090000 15.760000 17.959999 0 255 0
-1.020000 17.093300 24.866699 0 255 0
-0.990000 17.040001 28.129999 0 255 0
-0.890000 16.670000 5.100000 0 255 0
-0.320000 17.442499 19.670000 0 255 0
-0.865000 16.480000 19.514999 0 255 0
-0.290000 16.320000 22.490000 0 255 0
-1.780000 16.500000 5.390000 0 255 255
-1.123300 16.136700 19.629999 0 255 0
-1.400000 16.090000 19.540001 0 255 0
-1.407000 15.976000 16.903999 0 255 0
-0.301400 17.128599 14.765700 0 255 0
-0.970000 16.719999 20.610001 0 255 0
-0.950000 16.834999 14.295000 255 0 0
-0.948000 16.972000 10.796000 255 0 0
-0.920000 16.020000 23.879999 0 255 0
-0.900000 16.580000 26.180000 0 255 0
-1.100000 16.809999 5.730000 0 255 255
-0.880000 16.730000 9.080000 0 255 0
-0.872500 16.882500 18.707500 255 0 0
-0.854400 16.826700 15.560000 255 0 0
-0.856800 16.786501 12.213900 0 255 0
-0.530000 16.160000 16.860001 0 255 0
-0.520000 16.840000 4.620000 0 255 0
-0.525000 16.985001 7.660000 255 0 0
-0.513300 16.783300 20.709999 0 255 0
0.070000 17.200001 4.800000 0 255 255
0.230000 17.020000 19.670000 0 255 0
-0.855600 16.877800 16.256701 255 0 0
-0.861200 16.835300 13.017100 255 0 0
-1.320000 16.900000 3.940000 0 255 255
-1.155000 16.594999 21.150000 0 255 0
-1.200000 15.970000 19.990000 0 255 0
-1.205000 16.014999 16.750000 0 255 0
-1.070000 17.240000 25.420000 0 255 0
-0.820000 17.330000 22.100000 0 255 0
-1.220000 16.163300 5.420000 0 255 255
-0.570000 17.090000 8.940000 255 0 0
-0.560000 16.959999 16.700001 255 0 0
-0.550000 17.029600 5.710400 255 0 0
0.042500 17.795000 4.907500 0 255 255
-0.960000 15.825000 24.059999 0 255 0
-0.450000 16.080000 23.959999 0 255 0
-0.195000 16.820000 19.645000 0 255 0
-0.510000 16.635000 23.052500 0 255 0
-0.520000 16.809999 10.430000 0 255 0
-0.525000 16.775000 26.120001 0 255 0
-0.840000 16.930000 20.809999 255 0 0
-0.430000 16.450001 22.590000 0 255 0
-0.208300 16.222401 12.156200 0 255 0
-0.200000 16.290001 8.896700 0 255 0
-1.510000 17.559999 25.200001 0 255 0
-1.530000 17.660000 6.390000 0 255 255
-1.860000 16.629999 23.629999 0 255 0
-1.830000 16.610001 14.550000 0 255 0
-1.810000 16.777100 5.147100 0 255 255
-1.010000 16.037500 5.562500 0 255 255
-0.030000 17.240000 5.560000 0 255 255
-0.440000 17.290001 5.010000 0 255 0
-0.480000 17.090000 17.660000 0 255 0
-0.760000 15.850000 23.750000 0 255 0
-0.800000 16.930000 10.300000 255 0 0
-0.820000 16.872499 13.560000 255 0 0
-0.496000 16.580000 16.770000 0 255 0
-1.210000 16.209999 4.420000 0 255 255
-0.580000 16.670000 19.450001 0 255 0
-0.566000 16.886000 6.822000 255 0 0
-0.890000 17.030001 26.090000 0 255 0
-0.915000 16.370001 4.125000 0 255 255
-0.030000 17.530001 19.610001 0 255 0
-1.550000 17.280001 6.110000 0 255 255
-0.990000 16.834999 13.250000 255 0 0
-0.057500 16.930000 4.755000 0 255 0
-0.760000 16.370001 23.030001 0 255 0
-0.960000 17.510000 5.500000 0 255 255
-1.420000 15.970000 4.930000 0 255 255
-1.610000 16.575001 5.905000 0 255 255
-1.504300 16.634300 15.428600 0 255 0
-1.666700 16.885000 14.875000 0 255 0
0.200000 16.490000 4.565000 0 255 255
-1.200000 16.020000 21.129999 0 255 0
-0.951400 16.327101 21.151400 0 255 0
-0.560000 16.790001 4.620000 0 255 0
-1.225000 16.122499 6.045000 0 255 255
-0.303300 17.070000 14.816700 0 255 0
-0.700000 17.180000 4.600000 0 255 0
-0.710000 17.635000 27.469999 0 255 0
-0.540000 16.750000 4.340000 0 255 0
-0.500000 16.930000 23.139999 0 255 0
-0.530000 16.660000 26.180000 0 255 0
-0.520000 16.830000 16.650000 0 255 0
-0.090000 16.559999 22.639999 0 255 0
0.310000 16.730000 19.219999 0 255 0
-1.890000 16.570000 5.560000 0 255 255
-0.480000 16.809999 18.910000 0 255 0
-0.480000 16.980000 28.559999 0 255 0
-1.515000 16.778299 10.355000 0 255 0
-0.440000 17.049999 14.980000 0 255 0
-0.440000 17.290001 5.450000 0 255 0
-0.705000 17.620001 5.400000 0 255 255
0.100000 16.400000 19.129999 0 255 0
-0.512500 16.990000 4.752500 0 255 0
-0.510000 16.950001 8.010000 255 0 0
-0.503300 16.736700 20.656700 0 255 0
-0.965000 16.834999 8.865000 0 255 0
-0.960000 16.882500 12.015000 255 0 0
-0.960000 17.500000 25.469999 0 255 0
0.290000 17.525000 4.800000 0 255 255
-1.445000 16.080000 4.615000 0 255 255
-1.550000 16.290001 23.580000 0 255 0
-1.546700 16.125000 13.671700 0 255 0
-0.480000 17.280001 4.530000 0 255 0
-0.700000 17.629999 5.380000 0 255 255
-0.467000 16.281000 16.051001 0 255 0
-0.530000 17.120001 6.200000 255 0 0
-0.490000 16.680000 21.250000 0 255 0
0.343300 16.846701 14.820000 0 255 0
-0.246700 16.583300 4.153300 0 255 0
-0.705000 16.990000 13.500000 255 0 0
-0.697500 16.870001 7.007500 255 0 0
-0.560000 16.790001 16.260000 0 255 0
-0.580000 16.840000 6.660000 255 0 0
-0.550000 18.040001 5.420000 0 255 255
-0.690000 16.400000 17.139999 0 255 0
-0.830000 16.450001 4.170000 0 255 0
-0.805000 16.645000 16.820000 0 255 0
-0.790000 16.320000 9.050000 0 255 0
-0.100000 15.960000 23.540001 0 255 0
0.210000 16.410000 14.760000 0 255 0
0.186700 16.376699 17.846701 0 255 0
-1.912500 17.022499 10.456700 0 255 0
-0.310000 16.410000 22.639999 0 255 0
-0.195000 16.125000 4.675000 0 255 255
-1.265000 16.075001 5.370000 0 255 255
-1.242500 15.882500 18.010000 0 255 0
-0.810000 16.160000 4.100000 0 255 255
-0.811000 16.323000 17.093000 0 255 0
-0.465000 17.184999 21.870001 0 255 0
-0.465000 17.333300 5.565000 0 255 0
-0.820000 16.860001 5.240000 255 0 0
-1.665000 16.684999 16.502501 0 255 0
-0.104300 17.127100 17.511400 0 255 0
-0.030000 17.170000 25.280001 0 255 0
-0.020000 17.219999 22.010000 0 255 0
-0.250000 17.410000 28.459999 0 255 0
-0.466700 17.180000 22.003300 0 255 0
-1.152900 17.222900 8.918600 0 255 0
-1.858000 17.176001 10.714000 0 255 0
-0.740000 16.379999 3.930000 0 255 255
-1.262000 16.524000 5.854000 0 255 255
-1.260000 17.629999 25.670000 0 255 0
-0.110000 16.030001 23.799999 0 255 0
-0.713300 16.793301 6.863300 255 0 0
-0.702200 16.923300 10.255600 255 0 0
-0.702100 16.866400 13.403600 0 255 0
-0.518000 16.290001 17.006001 0 255 0
-0.490000 16.490000 4.340000 0 255 0
0.090000 16.139999 23.809999 0 255 0
-1.010000 16.575001 21.115000 0 255 0
-0.246700 16.926701 19.610001 0 255 0
-0.360000 16.049999 22.440001 0 255 0
0.045000 16.629999 4.125000 0 255 0
0.135000 16.559999 17.875000 0 255 0
0.130000 16.428499 8.856200 0 255 0
-0.060000 17.277500 22.055000 0 255 0
-0.190000 15.965000 4.770000 0 255 255
-0.580000 16.889999 18.830000 255 0 0
-0.558000 17.076000 6.964000 255 0 0
-0.580000 16.780001 24.950001 0 255 0
-0.570000 17.000000 12.330000 255 0 0
-0.410900 16.330299 12.310600 0 255 0
-0.640000 17.110001 10.550000 255 0 0
-0.650000 17.096701 7.420000 255 0 0
-0.460000 16.750000 23.320000 0 255 0
-0.452500 16.825001 4.367500 0 255 0
-0.790000 16.480000 28.530001 0 255 0
-0.465800 16.684601 12.155400 0 255 0
0.090000 16.200001 12.340000 0 255 0
-1.610000 16.459999 26.090000 0 255 0
-1.606700 16.636700 16.570000 0 255 0
-0.354500 15.823600 12.194500 0 255 0
-1.560000 16.584999 13.708500 0 255 0
-0.310000 17.139999 14.710000 0 255 0
-0.290000 17.690001 5.220000 0 255 255
-0.670000 17.133301 8.556700 255 0 0
-0.855000 16.665001 26.152500 255 0 0
-0.880000 16.590000 19.650000 0 255 0
-0.307100 16.530600 16.655899 0 255 0
-0.780000 16.830000 26.450001 255 0 0
-0.850000 16.370001 5.000000 0 255 255
-0.840000 16.719999 27.160000 255 0 0
-0.875000 16.912500 14.102500 255 0 0
0.220000 16.395000 23.764999 0 255 0
0.170000 16.500000 8.720000 0 255 0
-0.056000 16.666000 21.955999 0 255 0
-0.050000 16.522499 12.217500 0 255 0
-1.406700 16.040001 4.660000 0 255 255
-1.930000 16.690001 5.400000 0 255 255
-1.580000 16.420000 16.530001 0 255 0
-0.197500 16.625000 8.565000 0 255 0
0.347000 16.676001 15.063000 0 255 0
-1.660000 16.283300 27.163300 0 255 0
-0.860000 16.650000 4.100000 0 255 0
-1.107100 16.330000 16.856100 0 255 0
-0.860000 16.959999 16.260000 255 0 0
-0.873300 16.920000 13.103300 255 0 0
-0.450000 16.920000 25.520000 0 255 0
-1.010000 16.860001 11.770000 0 255 0
-1.020000 16.730000 21.205000 0 255 0
-0.005000 17.235001 19.760000 0 255 0
-1.015000 16.230000 5.530000 0 255 255
0.145000 17.090000 19.910000 0 255 0
0.025000 17.520000 4.375000 0 255 255
-0.920000 16.036699 5.310000 0 255 255
-1.480000 16.450001 4.890000 0 255 255
-0.203300 16.080000 4.170000 0 255 255
0.133300 16.286699 4.550000 0 255 255
-0.480000 17.840000 23.520000 0 255 0
-0.453300 16.543301 4.450000 0 255 0
-0.460000 16.324200 17.112499 0 255 0
-0.110000 17.160000 14.740000 0 255 0
-0.760000 16.850000 24.910000 255 0 0
-0.750000 16.570000 8.630000 0 255 0
-0.765000 16.695000 27.965000 0 255 0
-1.760000 16.963301 16.503300 0 255 0
-1.170000 16.879999 4.420000 0 255 255
0.200000 17.330000 19.850000 0 255 0
-0.700000 17.389999 4.560000 0 255 0
-0.720000 17.820000 27.403299 0 255 0
-0.520000 15.980000 12.593300 0 255 0
-1.270000 16.219999 5.410000 0 255 255
-0.100000 16.230000 12.013300 0 255 0
-0.102300 16.280800 8.856200 0 255 0
-0.360000 16.879999 26.150000 0 255 0
0.100000 17.230000 5.105000 0 255 255
-0.910000 16.476700 19.606701 0 255 0
-1.360000 16.215000 6.245000 0 255 255
-1.811900 17.079399 10.414400 0 255 0
-1.695000 16.629999 13.740000 0 255 0
-0.213700 16.568800 4.120000 0 255 0
-0.720000 15.720000 23.870001 0 255 0
-0.220000 15.960000 23.790001 0 255 0
-0.570000 17.180000 24.830000 0 255 0
-1.223300 15.943300 19.713301 0 255 0
-1.450000 16.549999 5.580000 0 255 255
-1.450000 16.700001 15.060000 0 255 0
-0.450000 16.910000 5.350000 0 255 0
-0.463300 16.683300 15.143300 0 255 0
-1.115000 16.135000 5.520000 0 255 255
0.100000 16.459999 4.630000 0 255 0
-0.700000 16.610001 28.500000 0 255 0
-0.100000 16.980000 22.020000 0 255 0
-0.110000 16.260000 23.100000 0 255 0
-0.480000 16.049999 23.580000 0 255 0
-1.220000 16.639999 4.300000 0 255 255
-0.720000 16.730000 20.200001 255 0 0
-0.690000 17.049999 13.560000 255 0 0
-0.708400 16.882299 10.208400 0 255 0
-1.260000 16.620001 21.980000 0 255 0
0.270000 16.639999 19.230000 0 255 0
-0.465000 16.737499 19.457500 0 255 0
-0.702000 17.181999 22.044001 0 255 0
-0.960000 16.340000 28.790001 0 255 0
-0.913300 16.083300 5.205000 0 255 255
-0.512900 16.634300 26.758600 0 255 0
-1.210000 15.772500 16.857500 0 255 0
-1.210000 15.826700 13.623300 0 255 0
-1.206700 16.828300 23.461700 0 255 0
-0.025000 16.680000 8.460000 0 255 0
0.310000 16.969999 25.660000 0 255 0
0.042900 17.175699 19.760000 0 255 0
-0.990000 16.870001 5.370000 0 255 0
-1.250000 16.090000 5.390000 0 255 255
-0.870000 17.809999 5.460000 0 255 255
-0.007500 16.485001 4.652500 0 255 0
-1.616700 16.290001 4.610000 0 255 255
-1.362900 16.522900 4.370000 0 255 255
-0.290000 17.520000 4.940000 0 255 0
-0.416700 16.930000 15.056700 0 255 0
-1.815000 17.222500 10.848800 0 255 0
-0.410000 16.299999 4.090000 0 255 255
-0.405000 16.487499 16.753799 0 255 0
-0.970000 16.580000 13.260000 0 255 0
-1.006900 15.828500 13.563100 0 255 0
-0.860000 16.876699 16.616699 255 0 0
-0.856100 16.836700 13.465600 255 0 0
0.085000 16.725000 8.875000 0 255 0
-1.295000 16.225000 5.495000 0 255 255
0.185000 16.980000 24.895000 0 255 0
0.190000 17.285299 5.118800 0 255 255
-0.110000 16.270000 22.530001 0 255 0
-1.700000 17.270000 10.210000 0 255 0
-0.100000 17.129999 4.110000 0 255 255
-1.040000 16.250000 19.580000 0 255 0
-0.573600 16.980900 7.920000 255 0 0
-0.566700 16.923300 4.676700 0 255 0
-0.580000 16.780001 20.559999 255 0 0
-0.217000 17.131001 14.858000 0 255 0
-1.305600 17.125601 9.868900 0 255 0
-0.990000 17.049999 5.620000 0 255 0
-1.000000 16.940001 12.120000 255 0 0
-1.020000 16.725000 25.165001 0 255 0
-0.746700 16.733299 12.510000 255 0 0
-0.751200 16.845301 6.008200 255 0 0
-0.720000 15.890000 5.080000 0 255 255
-0.720000 16.209999 21.260000 0 255 0
-0.210000 17.021999 17.716000 0 255 0
-0.406700 16.670000 21.906700 0 255 0
-0.398700 17.167500 14.950000 0 255 0
0.138800 17.219999 19.708700 0 255 0
-1.140000 17.459999 4.860000 0 255 0
-0.940000 17.139999 4.940000 0 255 0
-0.475000 15.830000 4.650000 0 255 255
0.310000 16.975000 4.530000 0 255 255
-0.160000 17.035000 22.014999 0 255 0
-0.570000 16.840000 4.130000 0 255 0
-0.580000 16.639999 17.150000 0 255 0
-0.566700 16.891701 7.268300 255 0 0
-0.470000 16.790001 3.930000 0 255 0
-0.930000 16.549999 19.600000 0 255 0
0.160000 16.540001 4.360000 0 255 255
-1.170000 16.230000 5.760000 0 255 255
-0.310000 17.219999 17.629999 0 255 0
-1.110000 16.440001 4.460000 0 255 255
-1.120000 16.600000 20.740000 0 255 0
-0.510000 16.940001 25.590000 0 255 0
-0.516700 17.020000 4.863300 255 0 0
-0.760000 16.520000 25.230000 0 255 0
-1.515000 16.695000 10.200000 0 255 0
-1.505900 16.777100 16.505301 0 255 0
-0.490000 16.809999 17.620001 0 255 0
-1.260000 17.290001 25.770000 0 255 0
-0.554000 15.824000 17.011999 0 255 0
-1.740000 17.299999 5.130000 0 255 255
-1.750000 17.020000 14.890000 0 255 0
-0.110000 16.385000 4.625000 0 255 255
-0.090000 16.209999 27.100000 0 255 0
0.349300 16.471300 14.915300 0 255 0
-0.580000 17.540001 5.330000 0 255 255
-0.810000 16.309999 8.600000 0 255 0
-0.800000 16.549999 21.280001 0 255 0
-1.365000 17.084999 5.455000 0 255 255
-1.361700 16.836700 15.366700 0 255 0
-1.350000 16.950001 9.080000 0 255 0
-1.208900 16.931400 10.213600 0 255 0
-0.860000 17.020000 6.220000 255 0 0
-0.852000 16.790001 15.710000 255 0 0
-0.860000 17.090000 9.370000 255 0 0
-0.880000 16.719999 12.565000 0 255 0
-0.455300 15.828200 12.012900 0 255 0
-0.755000 16.822500 17.007500 255 0 0
-0.760000 16.740000 23.502501 255 0 0
-0.763300 16.786699 13.750000 255 0 0
-0.745000 16.469999 4.865000 0 255 0
-0.767500 16.790001 11.013700 255 0 0
-0.763200 16.826799 14.160000 255 0 0
-0.690000 16.900000 20.469999 255 0 0
-0.710000 16.750000 4.570000 0 255 0
-0.709500 16.833200 11.057600 255 0 0
-0.705700 16.781401 14.318600 255 0 0
-0.520600 16.982500 5.503700 255 0 0
-0.530000 16.680000 11.840000 0 255 0
-0.505500 16.634501 15.014500 0 255 0
-0.380000 16.424999 15.255000 0 255 0
-1.558300 17.076700 16.359200 0 255 0
-0.865000 16.219999 28.665001 0 255 0
-1.005700 16.187099 17.061399 0 255 0
-0.570000 17.080000 9.950000 255 0 0
-0.565600 17.031900 6.714400 255 0 0
-0.905000 16.225000 17.809999 0 255 0
-1.406700 16.028900 6.212200 0 255 255
-0.020000 16.650000 8.530000 0 255 0
-0.014300 16.475700 17.955700 0 255 0
-1.000000 16.010000 12.760000 0 255 0
-0.880000 17.020000 14.020000 255 0 0
-0.850000 16.809999 27.080000 255 0 0
-0.880000 16.959999 10.880000 255 0 0
-0.864400 16.920000 7.707500 255 0 0
-0.870000 16.750000 20.760000 255 0 0
-0.960000 16.459999 5.480000 0 255 255
-0.970000 16.980000 24.825001 0 255 0
-0.775000 16.475000 15.060000 0 255 0
-0.750000 16.570000 8.580000 0 255 0
-0.770000 16.330000 5.180000 0 255 255
-0.775000 16.815001 24.745001 255 0 0
-0.770000 16.766701 21.610001 255 0 0
-0.860000 17.059999 7.650000 255 0 0
-0.845000 16.865000 20.715000 255 0 0
-0.850000 16.792500 14.205000 255 0 0
-0.855000 17.320000 23.299999 0 255 0
-0.115000 17.020000 22.014999 0 255 0
-0.540000 16.740000 15.480000 0 255 0
-0.558100 16.976299 5.961300 255 0 0
-1.350000 16.100000 22.469999 0 255 0
-1.380000 16.230000 6.150000 0 255 255
-0.090000 16.340000 22.309999 0 255 0
0.130000 16.459999 4.350000 0 255 255
-0.900000 16.883301 7.096700 255 0 0
-0.900000 16.830000 10.345000 255 0 0
-0.910000 16.879999 16.799999 255 0 0
-0.890000 16.780001 10.490000 255 0 0
-0.861700 16.830799 14.106700 255 0 0
-0.860000 16.870001 17.360001 255 0 0
-0.853300 16.773300 10.850000 255 0 0
-0.840000 16.740000 8.050000 255 0 0
-0.858000 16.832001 14.562000 255 0 0
-0.850000 16.770000 11.190000 255 0 0
-0.805700 16.480000 5.608600 0 255 0
-0.805000 16.725000 15.111700 255 0 0
-0.809600 16.839600 8.610400 255 0 0
-0.811000 16.796000 11.755000 255 0 0
-0.818600 16.480000 5.347100 0 255 0
-0.810000 16.838600 8.860000 255 0 0
-0.810000 16.785000 12.107500 255 0 0
-0.364400 15.829400 12.108700 0 255 0
-0.706000 16.790001 7.810000 255 0 0
-0.690000 16.950001 10.900000 255 0 0
-0.717500 16.830000 4.567500 0 255 0
-0.705200 16.869600 14.155700 255 0 0
-0.417100 16.474300 8.658600 0 255 0
-0.414500 16.379101 15.157300 0 255 0
-0.530000 16.570000 12.220000 0 255 0
-0.523300 16.230000 22.100000 0 255 0
-1.710000 16.275000 5.025000 0 255 255
-1.920000 17.139999 10.260000 0 255 0
-0.230000 16.629999 21.799999 0 255 0
-1.040000 16.270000 12.600000 0 255 0
0.025000 16.525000 4.645000 0 255 0
-0.160000 17.025700 22.051399 0 255 0
-1.110000 16.635700 13.222900 0 255 0
-1.120000 16.690001 22.955000 0 255 0
-1.255000 17.684999 5.470000 0 255 255
-1.555000 17.375000 4.460000 0 255 255
-1.310000 16.764999 14.345000 0 255 0
-1.315000 16.469999 21.094999 0 255 0
-1.312000 16.646000 11.312000 0 255 0
-0.830000 16.830000 22.889999 255 0 0
-0.805000 16.760000 26.040001 255 0 0
-0.810000 16.549999 16.959999 0 255 0
-0.816000 16.337999 3.910000 0 255 255
-1.630000 16.440001 16.325001 0 255 0
-1.010000 16.120001 5.553300 0 255 255
-0.980000 16.559999 16.790001 0 255 0
-1.303300 16.330000 15.230000 0 255 0
-0.440000 17.180000 19.510000 0 255 0
-0.460000 16.786699 17.656700 0 255 0
-0.440000 16.480000 23.389999 0 255 0
-0.860000 17.080000 3.870000 0 255 0
-0.870000 16.875999 16.510000 255 0 0
-0.862100 16.836399 13.357100 255 0 0
-0.705000 16.959999 10.155000 255 0 0
-0.690000 17.040001 15.450000 255 0 0
-0.700000 16.877899 12.312100 255 0 0
-0.310000 16.480000 4.270000 0 255 0
-0.308000 15.780000 12.205000 0 255 0
-0.702500 16.767500 22.855000 255 0 0
-0.715000 16.834999 19.711700 255 0 0
-0.700000 16.700001 16.360001 255 0 0
-0.710000 16.730000 13.205000 255 0 0
-0.745000 16.795000 10.460000 255 0 0
-0.761100 16.827200 13.707200 255 0 0
-0.750000 16.700001 17.139999 255 0 0
-0.780000 16.490000 4.910000 0 255 0
-0.750000 16.745001 20.415001 255 0 0
-0.755000 16.790001 10.857500 255 0 0
-0.760000 16.826300 14.107000 255 0 0
-0.696700 16.816700 18.396700 255 0 0
-0.705000 16.735001 12.090000 0 255 0
-0.710000 16.610001 5.380000 0 255 0
-0.715000 16.775000 21.555000 255 0 0
-0.710000 16.660000 15.280000 0 255 0
-0.756000 16.837999 19.312000 255 0 0
-0.760900 16.782301 16.066401 255 0 0
-0.552000 16.282000 16.052000 0 255 0
-0.001400 17.365700 19.674299 0 255 0
-0.300000 16.709999 22.629999 0 255 0
-1.063300 17.243299 9.116700 0 255 0
-0.800000 16.860001 4.730000 0 255 0
-0.715000 16.190001 8.930000 0 255 0
-0.700000 16.510000 22.150000 0 255 0
-0.150000 16.375000 4.680000 0 255 255
-1.040000 15.910000 5.080000 0 255 255
0.310000 17.360001 4.510000 0 255 255
-1.960000 17.242500 10.615000 0 255 0
-0.090000 16.170000 23.840000 0 255 0
-1.040000 16.920000 13.150000 0 255 0
0.280000 16.490000 4.605000 0 255 255
-0.862000 16.486000 12.262000 0 255 0
-0.860000 16.920000 14.760000 255 0 0
-0.400000 17.424999 5.565000 0 255 0
-1.270000 17.200001 9.480000 0 255 0
-1.260000 16.633301 25.316700 0 255 0
-1.280000 16.180000 13.310000 0 255 0
-1.280000 15.920000 22.799999 0 255 0
-0.230000 16.680000 22.580000 0 255 0
-0.850000 15.990000 23.000000 0 255 0
-0.813300 16.793301 19.463301 255 0 0
-0.795000 16.725000 22.605000 255 0 0
-0.810000 16.670000 25.750000 255 0 0
-0.804200 16.826700 16.311701 255 0 0
-0.806300 16.493799 12.308700 0 255 0
-0.260000 16.770000 18.160000 0 255 0
-0.262500 16.629999 8.670000 0 255 0
-0.247500 16.687500 12.017500 0 255 0
-0.254000 16.742001 15.148000 0 255 0
-1.063300 17.240000 4.013300 0 255 0
-0.845000 15.760000 15.525000 0 255 0
-1.465000 16.728001 16.552000 0 255 0
-0.860000 16.915001 19.170000 255 0 0
-0.520000 15.890000 12.315000 0 255 0
-0.280000 16.000000 16.030001 0 255 0
-0.266700 16.030001 19.250000 0 255 0
-0.160000 16.590000 14.620000 0 255 0
-0.960000 17.139999 5.650000 0 255 0
-0.710000 16.572500 5.367500 0 255 0
-0.700000 16.889999 25.150000 255 0 0
-0.718000 16.723000 8.867000 255 0 0
-0.705000 16.782499 18.397499 255 0 0
-0.714000 16.822001 15.158000 255 0 0
-0.720000 16.940001 21.900000 0 255 0
-0.910000 15.935000 17.920000 0 255 0
-0.770000 16.820000 26.620001 255 0 0
-0.760000 16.760000 23.363300 255 0 0
-0.663300 15.886700 18.006701 0 255 0
-0.603600 16.629101 15.006400 0 255 0
-0.245700 16.975700 19.610001 0 255 0
-0.750000 17.120001 11.705000 255 0 0
-0.240000 16.920000 20.900000 0 255 0
-0.220000 17.010000 4.280000 0 255 0
-1.490000 16.190001 5.550000 0 255 255
-1.511400 16.433201 15.456400 0 255 0
-1.360000 16.682400 16.865200 0 255 0
0.190000 16.490000 18.020000 0 255 0
0.170000 16.629999 8.630000 0 255 0
-0.840000 17.670000 27.330000 0 255 0
-0.840000 17.719999 4.620000 0 255 255
-0.510000 17.526699 23.200001 0 255 0
-0.530000 17.610001 4.050000 0 255 255
-0.105000 16.277500 12.014400 0 255 0
-0.580000 16.629999 27.969999 0 255 0
-0.571800 16.931801 8.607300 0 255 0
-0.555000 16.969999 11.750000 255 0 0
-1.290000 17.809999 5.350000 0 255 255
-0.057500 17.387501 17.757500 0 255 0
-1.220000 15.910000 22.580000 0 255 0
-0.556700 15.883300 23.776699 0 255 0
0.300000 16.620001 21.040001 0 255 0
0.370000 16.514999 17.855000 0 255 0
-0.860000 17.709999 5.070000 0 255 255
-0.730000 16.969999 13.710000 255 0 0
-0.730000 17.080000 19.059999 255 0 0
-0.720000 16.870001 7.210000 255 0 0
-1.760000 17.174999 19.402500 0 255 0
-0.220000 16.120001 19.250000 0 255 0
-1.720000 16.389999 5.490000 0 255 255
-0.180000 16.620001 12.020000 0 255 0
-0.145000 16.684999 15.245000 0 255 0
-0.162700 16.782700 8.712700 0 255 0
-0.690000 17.049999 15.520000 255 0 0
-0.690000 16.910000 9.020000 255 0 0
-0.695000 16.785000 5.715000 255 0 0
-0.705000 16.875799 12.260000 0 255 0
-0.740000 16.680000 15.660000 0 255 0
-0.780000 16.799999 9.140000 255 0 0
-0.745000 16.735001 18.905001 255 0 0
-0.756300 16.827400 12.411600 255 0 0
-0.718000 16.822001 18.806000 255 0 0
-0.730000 16.740000 12.530000 255 0 0
-0.407300 15.779700 12.160700 0 255 0
-0.940000 16.920000 7.300000 255 0 0
-0.964000 16.969999 10.472000 255 0 0
-0.980000 16.850000 13.880000 255 0 0
-0.252000 16.584000 8.660000 0 255 0
-0.256700 16.684999 15.148300 0 255 0
-0.160000 15.882000 19.298000 0 255 0
-0.158000 15.832000 16.170000 0 255 0
-1.250000 17.340000 9.240000 0 255 0
-1.270000 17.299999 6.090000 0 255 255
-1.296700 17.016701 28.660000 0 255 0
-0.990000 16.370001 8.920000 0 255 0
-1.010000 16.434500 5.853600 0 255 255
-1.060000 16.680000 21.129999 0 255 0
-0.960000 16.110001 18.030001 0 255 0
-0.960000 16.195000 21.170000 0 255 0
-0.160000 16.782499 22.067499 0 255 0
-1.450000 16.450001 16.740000 0 255 0
-0.110000 16.559999 14.610000 0 255 0
-0.100000 16.531200 17.863701 0 255 0
-0.990000 17.040001 14.970000 0 255 0
0.045000 16.367500 17.805000 0 255 0
-0.504300 16.337099 17.105700 0 255 0
-0.298300 17.330000 25.563299 0 255 0
0.340000 17.530001 4.740000 0 255 255
-0.740000 17.110001 10.710000 255 0 0
-0.740000 17.330000 23.350000 0 255 0
-1.860000 17.049999 4.690000 0 255 255
-1.545000 17.270000 8.860000 0 255 0
-1.156000 15.844000 5.474000 0 255 255
-1.030000 16.120001 19.844999 0 255 0
-0.800000 16.809999 25.450001 255 0 0
-0.790000 17.410000 5.490000 0 255 0
-0.970000 17.010000 14.970000 0 255 0
-0.970000 16.490000 5.550000 0 255 0
-0.950000 16.320000 8.816700 0 255 0
-0.760000 16.459999 4.950000 0 255 0
-0.757700 16.832701 14.063300 255 0 0
-0.767500 16.799999 10.905000 255 0 0
-0.810000 16.730000 14.205000 255 0 0
-0.808100 16.836500 7.913800 255 0 0
-0.804000 16.791000 11.064000 255 0 0
-0.913300 17.023300 8.046700 255 0 0
-0.910000 16.826700 21.113300 255 0 0
-0.900000 16.785000 11.450000 255 0 0
-0.890000 16.820000 21.379999 255 0 0
-0.901100 17.033300 8.703300 255 0 0
-0.915000 16.790001 11.610000 255 0 0
-0.105000 16.070999 12.304000 0 255 0
-0.766700 16.795000 11.556700 255 0 0
-0.760000 16.730000 21.313299 255 0 0
-0.758900 16.822201 14.807800 255 0 0
-0.770000 16.350000 5.080000 0 255 255
-0.745000 16.660000 28.010000 0 255 0
-0.775000 16.584999 8.675000 0 255 0
-0.770000 16.820000 24.870001 255 0 0
-0.780000 16.760000 21.719999 255 0 0
-0.745000 16.465000 14.955000 0 255 0
0.220000 16.170000 14.880000 0 255 0
-0.870000 17.030001 10.690000 255 0 0
-0.862000 16.972000 7.370000 255 0 0
-0.864300 16.830000 23.364300 0 255 0
-0.850000 16.775000 20.010000 255 0 0
-1.520000 16.410000 5.780000 0 255 255
-0.370000 15.980000 19.260000 0 255 0
-1.303300 17.443300 25.180000 0 255 0
-1.560000 17.190001 4.530000 0 255 255
-1.610000 16.021700 22.615000 0 255 0
-0.820000 16.730000 11.000000 255 0 0
-0.820000 16.844999 4.710000 0 255 0
-0.800000 16.795000 7.845000 255 0 0
-0.430000 16.535000 21.855000 0 255 0
-0.406300 16.282499 12.363700 0 255 0
-1.330000 16.480000 5.790000 0 255 255
-1.320000 16.549999 15.540000 0 255 0
-0.560000 16.825001 5.300000 255 0 0
-0.570000 16.787500 15.205000 0 255 0
-0.565600 16.731100 12.060000 0 255 0
-0.574300 16.874300 8.460000 255 0 0
-1.159100 17.186399 9.565500 0 255 0
0.185000 16.790001 21.915001 0 255 0
-1.002500 17.232500 25.350000 0 255 0
-0.747500 17.825001 27.320000 0 255 0
-0.110000 17.230000 22.070000 0 255 0
-1.162200 15.934400 17.010599 0 255 0
-1.170000 16.870001 28.129999 0 255 0
0.030000 16.750000 4.300000 0 255 0
0.040000 16.875000 19.670000 0 255 0
0.150000 17.225000 19.660000 0 255 0
-0.930000 16.780001 4.850000 0 255 0
-0.904000 16.840000 14.502000 255 0 0
-0.900000 16.879499 11.360500 255 0 0
-0.910000 16.760000 23.160000 255 0 0
-0.907500 16.923700 13.263700 255 0 0
-0.899300 16.985001 10.105000 255 0 0
0.000000 16.486700 4.606700 0 255 0
-1.365000 16.132500 22.362499 0 255 0
-1.830000 16.530001 14.480000 0 255 0
-0.820000 16.910000 10.340000 255 0 0
-0.806700 16.876699 13.513300 255 0 0
-0.743300 16.770000 26.030001 255 0 0
-1.515000 17.135000 16.407499 0 255 0
-0.580000 17.760000 23.420000 0 255 0
-0.540000 17.100000 4.820000 255 0 0
-0.570000 16.969999 11.160000 255 0 0
-0.569200 16.934601 8.002300 255 0 0
0.220000 16.610001 8.750000 0 255 0
0.080000 16.780001 19.665001 0 255 0
-0.167500 17.081301 14.818800 0 255 0
-0.720000 17.320000 26.820000 0 255 0
-0.700000 16.959999 9.450000 255 0 0
-0.700000 17.025000 12.595000 255 0 0
-0.712400 16.886400 9.559100 255 0 0
-0.970000 16.730000 16.889999 0 255 0
-0.940000 16.809999 10.410000 255 0 0
-0.460000 16.110001 12.190000 0 255 0
-0.410000 15.826200 12.152300 0 255 0
-0.950000 16.780001 13.550000 0 255 0
-1.660000 16.343300 27.118299 0 255 0
-0.405600 16.527800 8.764400 0 255 0
-0.412700 16.432699 15.061800 0 255 0
-0.720000 16.783300 19.056700 255 0 0
-0.701400 16.824301 15.905700 255 0 0
-0.730000 16.830000 22.350000 255 0 0
-0.730000 16.760000 25.620001 255 0 0
-0.706000 16.736000 16.068001 255 0 0
-1.305000 15.980000 5.905000 0 255 255
-0.410000 17.000000 25.290001 0 255 0
-0.410000 17.030001 22.059999 0 255 0
-0.773300 16.786699 20.253300 255 0 0
-0.905000 16.920000 11.354000 255 0 0
-0.897500 16.972500 8.207500 0 255 0
-0.920000 16.760000 20.850000 255 0 0
-0.113300 16.823299 21.963301 0 255 0
-0.365000 16.535000 23.320000 0 255 0
-1.480000 16.100000 21.070000 0 255 0
-1.470000 16.209999 21.330000 0 255 0
-1.195000 16.330000 15.105000 0 255 0
-1.720000 16.969999 4.265000 0 255 255
-0.657500 17.030001 11.416200 255 0 0
-0.665000 17.072500 13.402500 255 0 0
0.250000 16.510000 4.340000 0 255 255
-0.260000 15.900000 19.170000 0 255 0
-0.260000 15.910000 22.420000 0 255 0
-0.700000 17.020000 14.670000 255 0 0
-0.720000 16.799999 4.760000 255 0 0
-0.706100 16.876101 11.509700 255 0 0
-0.920000 17.350000 26.389999 0 255 0
-0.900000 16.860001 16.004999 255 0 0
-0.060000 17.090000 21.959999 0 255 0
-0.050000 17.117500 22.062500 0 255 0
-1.655000 16.887501 14.905000 0 255 0
-0.850000 16.410000 28.450001 0 255 0
0.020000 16.740000 4.200000 0 255 0
-0.480000 16.820000 18.745001 0 255 0
-0.154000 17.384001 5.506000 0 255 255
-1.263300 16.623301 4.146700 0 255 255
-1.160000 16.520000 3.920000 0 255 255
-0.810000 15.760000 22.719999 0 255 0
0.390000 16.850000 4.340000 0 255 255
-0.990000 16.850000 10.320000 255 0 0
-0.565000 17.122499 6.152500 0 255 0
-0.530000 16.969999 7.305000 255 0 0
-0.205000 15.915000 4.757500 0 255 255
-0.763100 15.926900 16.963100 0 255 0
-0.790000 15.970000 5.720000 0 255 255
-0.960000 16.590000 19.600000 0 255 0
-0.856700 16.076700 23.850000 0 255 0
-0.620000 16.879999 16.975000 255 0 0
-0.591700 17.035000 7.153300 255 0 0
-0.617200 16.976801 10.461600 255 0 0
-0.610000 16.922001 13.704000 255 0 0
-0.762200 15.885600 16.946699 0 255 0
-0.210000 16.520000 22.459999 0 255 0
-1.575000 16.340000 27.014999 0 255 0
-0.266200 16.926201 22.068800 0 255 0
-1.040000 17.230000 5.230000 0 255 0
-0.716700 16.786699 19.166700 255 0 0
-0.716000 16.818001 16.006001 255 0 0
-0.440000 16.535000 4.075000 0 255 0
-0.475000 16.094999 23.695000 0 255 0
-0.870000 17.000000 4.480000 0 255 0
-0.870000 17.070000 10.770000 255 0 0
-0.870000 16.889999 23.820000 255 0 0
-0.870000 16.850000 20.650000 255 0 0
-0.846000 16.784000 17.504000 255 0 0
-0.870000 17.013300 7.610000 255 0 0
0.390000 16.629999 19.225000 0 255 0
-0.670000 16.775999 4.602000 0 255 0
-0.656900 16.927700 14.112300 255 0 0
-0.665200 16.882999 10.964800 255 0 0
-0.662800 16.829201 7.755600 255 0 0
-0.560000 16.840000 4.365000 0 255 0
-0.572500 16.889999 7.612500 255 0 0
0.234000 16.587999 4.359000 0 255 255
0.230000 16.420000 23.790001 0 255 0
-0.730000 17.100000 24.950001 0 255 0
-0.714000 16.796000 4.364000 0 255 0
-0.706600 16.875900 11.109700 255 0 0
-0.600000 16.080000 19.320000 0 255 0
-0.880000 17.360001 23.020000 0 255 0
-0.840000 16.860001 17.860001 255 0 0
-0.856700 16.823299 14.610000 255 0 0
-0.850000 16.790001 11.566700 255 0 0
-0.990000 16.809999 11.970000 0 255 0
-0.910000 17.020000 11.400000 255 0 0
-0.910000 16.889999 20.790001 255 0 0
-0.920000 16.790001 14.510000 255 0 0
-0.258300 17.180000 21.912500 0 255 0
-0.250000 17.063299 15.156700 0 255 0
-0.266700 16.483299 22.553301 0 255 0
-0.893300 17.076700 11.206700 255 0 0
-0.896000 16.926001 8.054000 255 0 0
-0.914400 16.730000 21.106701 0 255 0
-0.900000 16.540001 21.112000 0 255 0
-0.895000 16.230000 21.059999 0 255 0
-1.607500 16.135000 23.657499 0 255 0
0.338700 16.586700 14.922700 0 255 0
0.320000 16.459999 27.590000 0 255 0
0.341400 16.685699 14.960700 0 255 0
-1.870000 17.160000 10.480000 0 255 0
-1.510000 16.469999 4.170000 0 255 255
0.320000 16.600000 4.260000 0 255 255
0.420000 16.660000 15.090000 0 255 0
-0.320000 15.960000 23.500000 0 255 0
-1.490000 16.330000 15.320000 0 255 0
-1.630000 16.500000 15.350000 0 255 0
-1.605000 16.680000 28.405001 0 255 0
-1.160000 17.889999 4.310000 0 255 255
-1.000000 17.969999 5.560000 0 255 255
-0.840000 16.840000 16.690001 255 0 0
-0.865000 16.798300 13.458300 255 0 0
-0.506700 17.549999 23.260000 0 255 0
-0.630000 17.889999 4.410000 0 255 255
0.140000 17.650000 4.460000 0 255 255
0.130000 16.219999 17.895000 0 255 0
-0.815000 16.285000 4.115000 0 255 255
-0.796700 16.816700 19.856701 255 0 0
-1.173300 17.730000 25.116699 0 255 0
-0.560000 17.100000 8.560000 255 0 0
-0.548800 17.030600 5.313500 255 0 0
-0.550000 16.740000 23.320000 0 255 0
-0.540000 16.980000 13.890000 0 255 0
-0.560000 16.940001 10.655000 255 0 0
0.160000 17.135000 4.120000 0 255 255
-0.410000 17.635000 23.264999 0 255 0
-1.616700 16.088301 23.611700 0 255 0
-0.800000 16.840000 17.870001 255 0 0
-0.812000 16.782700 21.110701 255 0 0
-0.940000 16.190001 5.640000 0 255 255
0.170000 16.440001 19.010000 0 255 0
-1.110000 17.129999 23.559999 0 255 0
-0.830000 16.920000 13.550000 255 0 0
-0.830000 16.860001 16.709999 255 0 0
-1.140000 16.760000 13.740000 0 255 0
-1.160000 16.809999 16.990000 0 255 0
-1.143300 16.936701 10.516700 0 255 0
0.070000 17.290001 4.310000 0 255 255
-1.176700 16.340000 13.453300 0 255 0
-0.760000 17.665001 23.360001 0 255 0
-0.263300 16.889999 4.770000 0 255 0
-0.260000 16.410000 26.900000 0 255 0
-0.268000 16.288000 17.018000 0 255 0
0.120000 17.549999 4.940000 0 255 255
-0.995000 16.285000 4.510000 0 255 255
-0.156700 16.533300 3.996700 0 255 0
-0.200000 17.260000 4.030000 0 255 0
-0.510000 16.875999 4.350000 0 255 0
0.240000 16.549999 4.470000 0 255 255
-0.260000 16.276699 8.666700 0 255 0
-0.910000 16.260000 4.975000 0 255 255
-0.910000 16.071699 18.018299 0 255 0
-1.330000 16.080000 22.440001 0 255 0
-0.810000 17.049999 26.240000 0 255 0
-0.812200 16.826700 13.211100 255 0 0
-0.803100 16.782499 16.360600 255 0 0
-0.330000 16.315001 4.645000 0 255 255
-0.315000 16.487499 20.952499 0 255 0
-0.300000 16.540001 17.713301 0 255 0
0.170000 16.533300 8.803300 0 255 0
0.198300 16.375000 19.120001 0 255 0
0.141700 16.080000 19.316700 0 255 0
-1.140000 16.230000 4.100000 0 255 255
0.060000 16.400000 4.790000 0 255 255
-0.255700 16.120001 19.242901 0 255 0
-0.157500 15.982500 12.250000 0 255 0
-0.463300 16.330000 8.566700 0 255 0
-0.216700 16.173300 4.463300 0 255 255
-1.080000 16.670000 18.969999 0 255 0
-0.410000 16.570000 21.200001 0 255 0
-0.560000 17.530001 4.750000 0 255 0
0.344300 16.421400 4.554300 0 255 255
-1.118200 16.485901 13.307100 0 255 0
-1.800000 17.000000 16.450001 0 255 0
-0.557500 16.825001 4.057500 0 255 0
-0.563300 16.879999 7.310000 255 0 0
0.230000 17.270000 4.180000 0 255 255
-1.020000 16.209999 26.420000 0 255 0
0.110000 16.480000 21.090000 0 255 0
0.088600 16.522900 17.871401 0 255 0
0.084200 16.282499 8.865800 0 255 0
-0.900000 16.850000 10.230000 255 0 0
-0.896700 16.886700 7.063300 255 0 0
-0.750000 16.719999 24.290001 255 0 0
-0.740000 16.850000 17.790001 255 0 0
-0.760000 16.790001 14.554300 255 0 0
-1.170000 16.799999 9.090000 0 255 0
0.180000 16.520000 19.209999 0 255 0
-0.112500 16.665001 14.967500 0 255 0
-1.200000 17.037500 5.912500 0 255 255
-0.890000 16.879999 16.170000 255 0 0
-0.890000 17.010000 6.670000 255 0 0
-0.506700 15.783300 4.656700 0 255 255
-1.013300 16.389999 4.206700 0 255 255
-1.170000 16.180000 5.780000 0 255 255
-0.261400 16.287100 8.605700 0 255 0
-0.251700 16.381701 12.156700 0 255 0
-0.260000 16.340000 8.565000 0 255 0
-0.266700 16.383301 22.650000 0 255 0
0.036700 16.121700 22.401699 0 255 0
0.040000 16.090000 19.160000 0 255 0
-0.220000 16.290001 19.290001 0 255 0
-0.190000 16.250000 22.580000 0 255 0
-0.220000 17.350000 4.560000 0 255 0
-0.850000 16.315001 17.754999 0 255 0
0.240000 17.090000 4.140000 0 255 255
-0.720000 16.820000 18.150000 255 0 0
-0.720000 16.930000 24.520000 255 0 0
-0.705000 16.629999 5.495000 0 255 0
-0.720000 16.680000 15.130000 0 255 0
-0.722000 16.576000 8.766000 0 255 0
