-0.270000 8.940000 14.930000 0 255 0
0.270000 8.870000 14.000000 0 255 0
-1.652700 9.324700 1.899300 0 255 255
-0.700000 9.410000 2.740000 255 0 0
-0.710000 9.731100 22.549999 0 255 0
-0.280000 8.700000 20.170000 0 255 0
-0.277700 9.233000 3.062300 255 0 0
-0.265000 9.286700 6.311700 255 0 0
-0.150000 8.800000 20.129999 0 255 0
0.240000 8.900000 16.799999 0 255 0
-0.050000 9.300000 27.940001 0 255 0
0.394300 8.492900 1.808600 0 255 255
0.400000 9.490000 1.820000 0 255 0
-0.370000 9.260000 14.380000 255 0 0
-0.370000 9.020000 10.740000 255 0 0
-0.359300 8.972100 7.610000 255 0 0
-0.250000 8.910000 24.480000 0 255 0
-0.260000 8.880000 21.190001 0 255 0
-0.244000 8.582000 1.644000 0 255 0
-0.264700 8.772000 14.707800 0 255 0
-0.505000 8.945000 2.620000 255 0 0
-0.510000 8.750000 15.650000 0 255 0
-0.450000 9.660000 16.459999 0 255 0
0.545000 8.610000 24.660000 0 255 0
0.520000 8.580000 21.430000 0 255 0
-1.300000 9.080000 17.850000 0 255 0
-0.873300 10.136700 12.356700 0 255 0
-0.830000 9.440000 27.940001 0 255 0
-0.875000 8.977500 1.377500 0 255 0
-0.053300 9.926700 23.353300 0 255 0
-0.806700 9.026700 1.453300 0 255 0
-1.270000 9.240000 16.870001 0 255 0
-0.045000 9.780000 1.755000 0 255 0
0.060000 9.740000 24.030001 0 255 0
0.020000 9.790000 14.255000 0 255 0
0.025000 9.837500 17.510000 0 255 0
0.120000 9.030000 27.379999 0 255 0
-0.720000 9.370000 19.420000 0 255 0
-0.700400 9.229800 3.609600 0 255 0
-0.701300 9.177100 6.762600 255 0 0
0.575000 9.185000 1.725000 0 255 0
-0.470000 8.925000 22.299999 255 0 0
-0.470000 8.990000 25.450001 255 0 0
-0.440000 8.840000 16.020000 255 0 0
-0.452700 8.880900 19.163601 255 0 0
-0.610000 9.695000 11.380000 0 255 0
-0.605000 9.585000 17.525000 0 255 0
-0.730000 9.970000 25.770000 0 255 0
-0.706700 9.716700 1.866700 0 255 0
-1.014000 9.930000 12.606000 0 255 0
-1.272500 8.838800 1.397500 0 255 0
-0.904300 9.590000 1.858600 0 255 0
-0.718300 10.413300 2.005600 0 255 255
0.295000 8.688300 21.351700 0 255 0
0.310000 8.635000 24.620001 0 255 0
-1.167100 8.830000 21.204300 0 255 0
-0.643300 9.170000 14.263300 255 0 0
-0.657100 9.033900 3.260100 0 255 0
-0.654500 9.127000 11.210500 255 0 0
-0.668800 9.076200 7.962600 255 0 0
-0.195000 8.032500 21.352501 0 255 0
-1.090000 9.473300 13.566700 0 255 0
-0.250000 7.818300 16.008301 0 255 0
-0.310000 9.270000 12.610000 255 0 0
-0.293100 9.234600 3.161900 0 255 0
-0.300000 8.740000 21.730000 0 255 0
-0.302000 9.312000 9.460000 255 0 0
-0.310000 9.180000 6.320000 255 0 0
-0.820000 9.140000 13.966700 0 255 0
-1.090000 9.260000 11.340000 0 255 0
-1.120000 9.416000 14.957000 0 255 0
0.538600 9.235700 13.615500 0 255 0
-0.055000 10.126700 1.760000 0 255 255
0.295000 8.925000 1.555000 0 255 0
-0.790000 8.790000 22.910000 0 255 0
-1.350600 8.678100 14.218100 0 255 0
-1.010000 8.680000 24.889999 0 255 0
-0.020000 8.470000 1.500000 0 255 255
0.736700 8.930000 14.006700 0 255 0
-0.355000 8.345000 1.530000 0 255 0
-1.630000 8.820000 14.500000 0 255 0
-1.600000 8.790000 17.780001 0 255 0
-1.720000 8.910000 14.960000 0 255 0
0.550000 9.060000 1.590000 0 255 255
-0.620000 9.530000 17.639999 0 255 0
-0.670000 9.326700 15.670000 0 255 0
-0.676000 9.112000 2.605000 0 255 0
-0.653500 9.231300 8.912800 255 0 0
-0.671600 9.181300 5.663400 255 0 0
-0.340000 8.660000 1.490000 0 255 0
-0.362000 8.890000 14.152000 255 0 0
-0.360000 8.928800 17.317499 255 0 0
-0.940000 7.890000 18.530001 0 255 0
-0.665800 9.073500 1.962700 0 255 0
-0.650000 9.290000 14.630000 0 255 0
-0.674300 9.128000 5.208200 255 0 0
-0.670300 9.176600 8.264300 255 0 0
0.185700 9.280000 1.702900 0 255 0
-0.690000 9.000000 2.600000 255 0 0
-0.694000 9.078000 10.158000 255 0 0
-0.695400 9.126900 7.009600 255 0 0
-0.713400 9.230000 13.309800 0 255 0
-0.730000 9.200000 16.469999 0 255 0
-0.050000 9.070000 16.690001 0 255 0
0.190000 9.680000 22.040001 0 255 0
-0.950000 8.660000 26.100000 0 255 0
0.037100 9.180000 1.561400 0 255 0
-0.200000 7.980000 2.180000 0 255 255
-0.807500 9.020000 21.052500 0 255 0
-0.013300 8.070000 2.260000 0 255 255
0.002900 8.278600 14.902900 0 255 0
-0.312100 8.932600 12.715300 255 0 0
-1.030000 9.590000 21.139999 0 255 0
-1.000000 9.860000 2.030000 0 255 0
-0.260000 9.379000 18.603001 0 255 0
-1.300000 8.820000 25.459999 0 255 0
-0.620000 9.585000 17.566700 0 255 0
-0.660000 9.810000 1.920000 0 255 0
-0.615000 9.835000 1.915000 0 255 0
-0.598900 9.680300 11.410800 0 255 0
0.636300 8.979500 17.261600 0 255 0
-1.590000 9.380000 23.190001 0 255 0
-1.610000 9.385000 22.662500 0 255 0
-1.554400 9.178900 14.405600 0 255 0
0.193300 8.533300 20.323299 0 255 0
0.170000 8.570000 17.150000 0 255 0
0.490000 8.670000 11.960000 0 255 0
-0.697400 9.180800 4.608200 255 0 0
0.130000 9.560000 21.430000 0 255 0
0.410000 8.610000 24.150000 0 255 0
-0.160000 8.036700 18.766701 0 255 0
-0.656700 9.070000 17.956699 255 0 0
-0.640000 8.950000 9.360000 255 0 0
-0.657000 9.031000 15.648000 255 0 0
-0.650800 8.987500 12.418300 0 255 0
-0.410000 8.900000 24.260000 255 0 0
-0.400000 8.937100 21.007099 255 0 0
-1.170000 9.210000 22.570000 0 255 0
-0.560000 9.700000 25.059999 0 255 0
-1.150000 9.610000 13.740000 0 255 0
0.092000 9.725000 1.608000 0 255 0
0.090700 9.877300 17.414000 0 255 0
0.088200 9.930900 14.267300 0 255 0
-1.430000 9.600000 14.120000 0 255 0
-0.970000 10.036700 1.813300 0 255 255
-0.490000 9.500000 16.459999 0 255 0
0.650000 8.500000 14.080000 0 255 0
-1.600000 9.330000 23.070000 0 255 0
-1.610000 9.240000 24.110001 0 255 0
-1.610500 8.978500 14.323000 0 255 0
-1.360000 8.360000 10.550000 0 255 0
-0.700000 9.680000 27.620001 0 255 0
-0.710000 9.730000 24.480000 0 255 0
-0.724500 9.279700 2.311000 255 0 0
-0.540000 7.920000 11.870000 0 255 0
-1.300000 9.320000 11.290000 0 255 0
-1.307500 9.277500 1.668700 0 255 0
-0.610000 10.080000 1.970000 0 255 0
-0.614300 9.933400 11.554500 0 255 0
-0.265000 8.990000 14.820000 255 0 0
-0.255000 9.740000 12.210000 0 255 0
-0.103300 9.160000 1.466700 0 255 0
-1.204400 9.178900 17.809999 0 255 0
-0.906700 9.123300 16.656700 0 255 0
-1.555300 9.693500 14.307100 0 255 0
-0.356700 9.090000 13.453300 255 0 0
-0.362500 9.132500 16.707500 255 0 0
-0.364000 8.976000 19.770000 255 0 0
0.245000 8.685000 24.545000 0 255 0
0.310000 8.450000 22.870001 0 255 0
-0.460400 8.524600 1.313900 0 255 0
0.340000 9.670000 16.850000 0 255 0
-0.410000 10.316300 1.996300 0 255 255
0.680000 8.896700 19.706699 0 255 0
-0.400000 8.950000 19.410000 255 0 0
0.110000 8.960000 1.250000 0 255 0
-1.670000 9.400000 17.209999 0 255 0
0.220000 8.680000 28.760000 0 255 0
-1.614000 8.628000 14.350000 0 255 0
-0.756200 8.985600 1.445600 0 255 0
-0.740000 9.380000 25.959999 0 255 0
-1.160000 8.885600 15.117800 0 255 0
-0.753300 9.116700 22.969999 0 255 0
-0.070000 10.170000 17.600000 0 255 0
-0.690000 9.960000 11.500000 0 255 0
-0.730000 9.940000 1.970000 0 255 0
-0.230000 9.260000 3.960000 255 0 0
-0.220000 9.180000 10.240000 255 0 0
-0.755000 8.990000 25.905001 0 255 0
-0.745000 8.725000 22.410000 0 255 0
-1.610800 9.436700 12.512500 0 255 0
-1.625000 9.230000 11.206300 0 255 0
-1.617100 9.182900 14.457600 0 255 0
-1.650000 9.010000 2.010000 0 255 0
-1.065000 8.400000 22.645000 0 255 0
-1.465000 9.480000 17.799999 0 255 0
-1.380000 8.390000 10.110000 0 255 0
-1.380000 8.160000 23.170000 0 255 0
-0.690000 9.273300 6.150000 255 0 0
-0.705000 9.325000 2.910000 255 0 0
-0.564400 9.224400 14.108900 255 0 0
-0.580000 9.190000 23.830000 0 255 0
-0.560400 9.333500 7.607300 255 0 0
-0.480000 9.260000 15.060000 255 0 0
-0.440000 9.250000 11.900000 255 0 0
-0.470000 9.080000 27.719999 0 255 0
-0.460000 9.460000 2.395000 255 0 0
-0.310000 9.133300 21.510000 0 255 0
-0.316000 8.980000 18.160000 255 0 0
-0.304000 9.032000 15.006000 255 0 0
-0.257500 8.880000 21.012501 0 255 0
-0.260000 8.932500 24.260000 0 255 0
0.485000 8.677500 15.870000 0 255 0
-1.300000 8.870000 26.730000 0 255 0
-0.380000 9.490000 15.690000 0 255 0
-0.345000 10.095000 2.240000 0 255 0
-0.015700 9.437100 21.208599 0 255 0
-1.704000 8.932000 1.992000 0 255 255
-1.510800 9.526200 17.561501 0 255 0
-1.514700 9.430800 11.420600 0 255 0
-1.066800 9.230500 1.713200 0 255 0
-0.514000 8.842000 14.268000 255 0 0
-0.520000 8.910000 20.754999 255 0 0
-0.500500 8.890500 11.112100 0 255 0
-0.452200 9.280000 11.917800 255 0 0
-0.190000 8.960000 26.030001 0 255 0
-0.806800 10.280000 1.912600 0 255 255
-0.430000 8.410000 17.730000 0 255 0
0.140000 9.543300 20.423300 0 255 0
0.132500 9.219200 1.610000 0 255 0
0.230000 8.450000 26.820000 0 255 0
-0.673700 9.420000 15.763800 0 255 0
-0.612500 10.277500 12.490000 0 255 0
-0.650000 9.210000 3.110000 255 0 0
-0.655200 9.276500 6.210000 255 0 0
-0.310000 9.080000 16.045000 255 0 0
-0.302500 9.135000 12.915600 255 0 0
-0.308300 8.981700 9.557800 255 0 0
-0.304900 9.027800 6.408700 255 0 0
-1.340000 8.500000 19.639999 0 255 0
-0.600000 9.510000 24.730000 0 255 0
-0.145000 9.825000 19.410000 0 255 0
-0.640000 9.020000 22.430000 255 0 0
-0.640000 9.090000 27.190001 0 255 0
-0.654000 8.978000 19.261999 255 0 0
-0.656000 8.938000 16.110001 255 0 0
-0.714000 10.030000 1.950000 0 255 0
0.230000 8.630000 28.200001 0 255 0
-0.770000 9.720000 1.715000 0 255 0
-0.760000 9.988000 1.902000 0 255 0
-1.073300 10.031700 14.918300 0 255 0
-1.000000 9.336700 18.593300 0 255 0
-1.306700 9.836700 21.366699 0 255 0
-0.550000 8.980000 21.120001 255 0 0
-0.575000 8.927500 17.872499 255 0 0
-0.570000 8.890000 27.629999 255 0 0
-0.570000 9.035000 11.715000 255 0 0
-0.315000 9.311700 7.006700 255 0 0
-0.290000 9.195000 3.965000 0 255 0
-0.314500 9.269100 10.260000 255 0 0
-0.303300 9.180000 10.556700 255 0 0
-0.295600 9.234400 7.308300 255 0 0
-0.294200 9.070400 4.214600 255 0 0
-1.046700 10.033300 16.173300 0 255 0
0.241500 8.427400 13.600400 0 255 0
-1.215000 8.870000 27.555000 0 255 0
-0.058700 9.734000 1.654700 0 255 0
-1.490000 9.080000 15.340000 0 255 0
-0.255000 8.187500 14.125000 0 255 0
-0.280000 8.950000 10.110000 255 0 0
-0.290000 8.920000 16.969999 0 255 0
-0.310000 8.790000 13.830000 255 0 0
-0.306700 8.876700 20.116699 0 255 0
-1.000000 8.960000 21.150000 0 255 0
-1.005500 8.926400 24.407301 0 255 0
-1.490000 8.500000 13.760000 0 255 0
-1.000000 9.370000 1.550000 0 255 0
-0.349200 9.285000 9.455800 255 0 0
-0.355000 9.175000 15.965000 255 0 0
-0.367600 8.994100 2.907100 0 255 0
-0.347500 9.012500 6.062500 255 0 0
-0.740000 8.910000 20.170000 0 255 0
-0.743300 9.023300 13.670000 255 0 0
-0.696700 10.033300 11.573300 0 255 0
0.146700 8.974200 1.405000 0 255 0
0.290000 8.910000 1.515000 0 255 0
0.630000 9.290000 15.940000 0 255 0
-0.380000 8.830000 21.480000 0 255 0
-0.356700 8.928700 14.962700 0 255 0
-0.366200 8.890000 11.709700 255 0 0
-0.140000 8.390000 14.040000 0 255 0
-0.530000 9.050000 6.380000 255 0 0
-0.515000 8.850000 18.615000 255 0 0
-0.500000 8.960000 21.660000 255 0 0
-0.507800 8.875000 15.353300 255 0 0
-1.190000 8.110000 22.809999 0 255 0
-1.610000 9.280000 23.879999 0 255 0
-1.618000 9.376000 17.559999 0 255 0
-1.410000 9.670000 1.650000 0 255 255
-0.540000 9.240000 18.770000 255 0 0
-1.516200 8.866300 14.908800 0 255 0
-0.150000 9.190000 14.754000 0 255 0
-1.062500 9.627500 19.510000 0 255 0
-0.470000 8.920000 20.389999 255 0 0
-0.459100 8.837300 13.900000 255 0 0
-0.456700 8.878300 17.057199 255 0 0
-0.960000 9.475000 19.395000 0 255 0
-0.257100 9.429000 18.557100 0 255 0
-1.212500 8.832500 21.252501 0 255 0
-0.507300 8.219700 17.707300 0 255 0
-1.616000 9.298000 16.955999 0 255 0
-0.470000 9.360000 8.470000 255 0 0
-0.480000 9.150000 18.340000 255 0 0
-0.450000 9.346700 5.316700 255 0 0
-0.440000 9.170000 21.510000 0 255 0
-1.265600 8.635600 15.202200 0 255 0
-0.590000 8.890000 27.730000 255 0 0
-0.600000 9.100000 16.260000 255 0 0
-0.620000 8.950000 24.570000 255 0 0
-0.610000 9.250000 6.380000 255 0 0
-0.624700 9.181300 9.948700 255 0 0
-0.617600 9.130000 13.108200 255 0 0
-0.605000 8.975000 21.405001 255 0 0
-0.160000 9.260000 5.150000 255 0 0
-0.750000 9.020000 24.190001 0 255 0
-0.770000 8.990000 21.040001 0 255 0
-0.452900 8.897100 5.760000 255 0 0
-0.458100 8.928600 8.909300 255 0 0
-0.307500 7.935000 25.107500 0 255 0
-0.210600 8.780600 1.406200 0 255 0
-0.330000 7.950000 28.379999 0 255 0
-0.070000 10.210000 12.490000 0 255 0
-0.660000 8.690000 18.459999 0 255 0
-0.580000 9.180000 13.720000 255 0 0
-0.570000 9.035000 16.844999 255 0 0
-1.190000 8.230000 23.350000 0 255 0
-0.120000 9.380000 1.580000 0 255 0
-0.660000 10.076700 17.013300 0 255 0
-0.756700 10.175600 1.904400 0 255 0
-0.741700 10.131700 11.661700 0 255 0
0.394000 8.924000 17.108000 0 255 0
-1.496000 9.374000 11.176000 0 255 0
-1.500000 9.475000 17.700001 0 255 0
-0.150000 8.243300 21.219999 0 255 0
-0.010000 9.524000 20.308001 0 255 0
-0.655400 9.413100 2.562300 255 0 0
-0.066400 8.972700 18.463600 0 255 0
0.110000 10.080000 14.745000 0 255 0
-1.600000 8.570000 14.120000 0 255 0
-1.466700 9.036700 1.506700 0 255 0
-1.461900 9.178300 11.306700 0 255 0
-1.300000 9.390000 15.240000 0 255 0
-1.580000 9.540000 18.840000 0 255 0
-1.566700 9.623300 12.363300 0 255 0
-1.359000 8.179300 10.049300 0 255 0
-1.209100 9.271500 11.067000 0 255 0
-1.153300 9.728900 15.152200 0 255 0
-1.160900 10.031400 14.957300 0 255 0
-0.630000 9.090000 16.520000 255 0 0
-0.606700 9.036700 19.763300 255 0 0
-0.600000 8.970000 24.260000 0 255 0
-0.625000 9.190000 10.016700 255 0 0
-0.630000 9.250000 7.120000 255 0 0
-0.625000 9.300000 3.860000 255 0 0
-0.623800 9.127500 13.255000 255 0 0
-1.256200 8.830300 17.664801 0 255 0
-0.450000 8.970000 23.950001 255 0 0
-0.458700 9.018700 2.456300 255 0 0
-0.452500 8.915000 20.812500 255 0 0
-0.467500 8.845000 14.320000 255 0 0
-0.458600 8.877100 17.454300 255 0 0
-0.755600 7.921200 16.954000 0 255 0
-0.155000 8.021700 18.903299 0 255 0
-0.975000 8.620000 14.845000 0 255 0
-0.920000 8.450000 14.850000 0 255 0
-0.910000 8.930000 21.025000 0 255 0
-1.465000 9.635000 14.161300 0 255 0
-0.400000 9.300000 3.500000 255 0 0
-1.540000 8.320000 14.010000 0 255 0
-0.322000 9.218000 13.268000 255 0 0
-0.320000 9.170000 16.389999 255 0 0
-0.321700 8.991700 3.760000 255 0 0
-0.305000 9.130000 7.112500 255 0 0
-0.304400 9.068900 10.268900 255 0 0
-0.220000 8.290000 27.540001 0 255 0
0.086000 8.084000 2.210000 0 255 255
-0.350000 9.090000 3.595000 255 0 0
-0.351400 8.978600 10.110000 255 0 0
0.150000 9.800000 20.400000 0 255 0
0.005000 8.810000 21.225000 0 255 0
0.000000 8.770000 24.469999 0 255 0
-0.090000 8.020000 21.540001 0 255 0
-0.790000 9.520000 19.360001 0 255 0
-0.790000 9.840000 26.110001 0 255 0
-1.420000 8.837100 11.458600 0 255 0
-1.380000 9.790000 12.580000 0 255 0
-1.373300 9.530000 21.953300 0 255 0
-1.480000 8.370000 13.940000 0 255 0
-1.461100 8.332100 10.603700 0 255 0
-1.490000 9.570000 11.340000 0 255 0
-1.560000 9.500000 17.700001 0 255 0
-1.560000 9.565000 11.415000 0 255 0
-0.662500 9.182500 12.412500 255 0 0
-0.650800 9.038500 2.107500 0 255 0
-0.661200 9.131200 9.061900 255 0 0
-0.660000 9.210000 15.570000 255 0 0
-0.665900 9.076600 5.909700 255 0 0
-0.650000 9.163300 15.006700 255 0 0
-0.647300 9.129500 11.659500 255 0 0
-0.645000 8.998300 2.768300 255 0 0
-0.663300 9.082000 8.507700 255 0 0
-0.654000 9.033700 5.907100 255 0 0
-0.050000 9.900000 18.530001 0 255 0
-0.412100 8.889500 10.513700 255 0 0
-0.411500 8.829500 13.859000 255 0 0
-0.410700 8.936700 7.358400 255 0 0
-0.330000 9.080000 17.150000 255 0 0
-0.316200 9.733800 1.764600 0 255 0
-0.312500 9.131700 14.008300 0 255 0
-0.307600 8.973300 10.861400 255 0 0
-0.301000 9.022100 7.709700 255 0 0
-0.370000 9.340000 19.230000 0 255 0
-0.345000 9.030000 13.052500 255 0 0
-0.340000 9.060000 3.415000 255 0 0
-0.354500 8.968600 9.910000 255 0 0
-1.126700 9.716700 1.566700 0 255 0
-1.102900 9.933200 14.209400 0 255 0
-0.104100 8.977100 11.847100 0 255 0
0.098200 9.140900 13.455500 0 255 0
-1.505000 9.430000 12.065000 0 255 0
-0.890000 9.130000 11.830000 0 255 0
-0.361100 8.883300 14.257800 255 0 0
-0.372000 8.938000 17.410000 255 0 0
-0.164000 8.838000 21.072001 0 255 0
-0.176700 8.883300 24.306700 0 255 0
-0.413300 9.543300 16.596701 0 255 0
-1.120000 9.860000 14.280000 0 255 0
-1.105000 9.681700 1.613300 0 255 0
-1.190000 8.280000 13.980000 0 255 0
0.790500 9.131600 13.810000 0 255 0
-0.590000 8.230000 17.690001 0 255 0
-0.630000 8.460000 1.490000 0 255 255
-0.558600 10.228600 1.908600 0 255 0
-0.080000 8.710000 22.340000 0 255 0
-0.050000 8.300000 19.450001 0 255 0
-1.160000 7.980000 21.764999 0 255 0
-0.740000 9.600000 17.680000 0 255 0
0.220000 9.970000 17.719999 0 255 0
-0.250000 8.950000 16.070000 0 255 0
-0.275000 8.890000 12.820000 255 0 0
-1.065900 9.432800 13.606200 0 255 0
-1.230000 8.350000 10.440000 0 255 0
-0.105700 8.787300 1.403800 0 255 0
-1.070000 9.668000 1.760000 0 255 0
-1.067500 9.872500 14.827500 0 255 0
-1.180000 8.200000 21.790001 0 255 0
-1.260000 8.780000 26.840000 0 255 0
-1.040000 8.350000 28.670000 0 255 0
0.340000 8.736000 12.058000 0 255 0
-0.510000 9.885000 12.248300 0 255 0
-0.730000 8.850000 14.590000 0 255 0
-0.710000 8.930000 20.980000 255 0 0
0.742100 8.835800 13.913200 0 255 0
-0.290000 8.950000 16.690001 255 0 0
0.260000 8.730000 28.620001 0 255 0
-0.400000 9.020000 16.725000 255 0 0
-0.400000 8.970000 19.860001 255 0 0
0.410000 8.510000 2.210000 0 255 255
-0.130000 10.040000 12.540000 0 255 0
-0.110000 9.777500 15.968300 0 255 0
-1.076700 9.376700 18.600000 0 255 0
-1.225000 9.290000 16.680000 0 255 0
-1.256700 9.286700 1.500000 0 255 0
-0.697000 9.267000 4.205000 255 0 0
-1.155000 8.822500 1.555000 0 255 0
-1.222500 9.195000 15.212500 0 255 0
-1.209000 9.786800 1.756300 0 255 255
-1.500000 9.610000 11.420000 0 255 0
-1.502600 9.375800 1.607400 0 255 0
-0.650000 9.230000 11.770000 255 0 0
-0.650000 9.486700 27.406700 0 255 0
-0.665400 9.174300 8.607100 255 0 0
-0.674800 9.124100 5.257500 255 0 0
-0.666400 9.070300 2.110300 0 255 0
-0.670000 9.300000 18.530001 0 255 0
-0.650000 9.182500 12.347500 255 0 0
-0.650000 9.210000 15.600000 255 0 0
-0.662400 9.131200 9.110000 255 0 0
-0.664100 9.075500 5.861000 255 0 0
-0.653000 9.042300 2.161300 255 0 0
-1.513700 8.876300 14.310000 0 255 0
-0.700000 8.835000 21.459999 0 255 0
-0.700000 9.260000 9.430000 255 0 0
-0.697000 9.376000 15.723000 0 255 0
-0.712200 9.179800 3.058700 255 0 0
-0.363700 8.145000 1.748800 0 255 255
-0.560000 9.080000 11.980000 255 0 0
-0.570000 8.990000 17.700001 255 0 0
-0.550000 8.860000 24.215000 255 0 0
-0.570000 9.150000 2.200000 255 0 0
-0.563100 8.919200 14.460800 255 0 0
-0.545000 8.820000 20.959999 0 255 0
-0.447500 9.312500 11.657500 255 0 0
-0.402500 9.135000 19.222500 255 0 0
-0.400300 9.394000 2.757700 255 0 0
-0.430000 8.130000 11.610000 0 255 0
-0.416700 8.020000 17.889999 0 255 0
-0.340000 8.390000 19.360001 0 255 0
-0.265500 9.170000 9.808600 255 0 0
-0.274100 9.085900 3.254500 255 0 0
-0.261700 9.223300 13.056700 255 0 0
-0.261900 9.130000 6.511200 255 0 0
-0.658600 9.137100 16.152901 255 0 0
-0.656500 9.078200 13.012400 0 255 0
-0.651500 9.027000 11.009500 255 0 0
-0.648800 8.989400 7.861200 255 0 0
-1.302500 8.182500 18.865000 0 255 0
0.280000 10.000000 14.830000 0 255 0
0.300000 9.940000 17.950001 0 255 0
0.290000 9.695000 21.570000 0 255 0
-0.275000 9.190000 12.715000 255 0 0
-0.260300 9.083000 5.956800 255 0 0
-0.257000 9.130700 9.210300 255 0 0
-0.630000 9.065000 3.900000 255 0 0
-0.607300 8.925300 14.516700 255 0 0
-0.623300 9.017000 7.158900 255 0 0
-0.606700 8.893300 17.760000 255 0 0
-0.603000 8.980500 11.256200 255 0 0
-1.220000 8.090000 21.410000 0 255 0
-0.923300 8.726700 18.463301 0 255 0
-1.550000 9.088000 15.264000 0 255 0
-1.162200 9.925600 1.658900 0 255 255
-0.090000 8.740000 21.049999 0 255 0
-1.060000 9.090000 14.150000 0 255 0
-0.020000 8.660000 28.040001 0 255 0
-0.760000 8.370000 1.840000 0 255 255
-0.560000 8.970000 17.740000 255 0 0
-0.580000 9.060000 11.800000 255 0 0
-0.550000 8.850000 20.910000 0 255 0
-0.561700 8.922800 14.605600 255 0 0
-0.580000 8.870000 24.040001 255 0 0
-0.450000 8.960000 21.090000 255 0 0
-0.470000 8.830000 11.560000 255 0 0
-0.470000 9.085000 2.155000 255 0 0
-0.462100 8.883200 14.805800 255 0 0
0.100000 9.010000 19.209999 0 255 0
0.090000 8.876700 15.843300 0 255 0
-0.910000 8.220000 21.576700 0 255 0
-0.390000 8.790000 28.059999 0 255 0
-0.410000 8.928900 18.318899 255 0 0
-0.425000 8.890000 21.555000 0 255 0
-1.205000 9.120000 11.015000 0 255 0
-0.013300 9.693300 14.960000 0 255 0
-1.020000 9.350000 15.100000 0 255 0
-0.003300 8.070000 19.653299 0 255 0
-1.400000 9.200000 17.855000 0 255 0
0.495000 8.940000 17.190001 0 255 0
0.490000 8.766700 14.076700 0 255 0
0.089800 8.379400 2.207000 0 255 255
-1.158100 9.836900 14.957500 0 255 0
0.150000 8.925000 16.695000 0 255 0
0.570000 9.030000 19.639999 0 255 0
0.246100 9.325000 1.866700 0 255 0
-0.340000 9.100000 12.610000 255 0 0
-0.351300 9.133700 15.763700 255 0 0
-0.360000 9.020000 22.254999 255 0 0
-0.355000 8.990000 19.120001 255 0 0
0.244600 8.879200 18.657700 0 255 0
-0.013300 9.883300 16.023300 0 255 0
-0.760000 8.890000 12.100000 0 255 0
-0.750000 9.215000 21.510000 0 255 0
-0.110000 8.130000 14.240000 0 255 0
-0.120000 8.320000 1.600000 0 255 255
-1.470000 8.610000 13.790000 0 255 0
-0.712000 8.728000 20.212000 0 255 0
-1.406700 9.771700 12.593300 0 255 0
-1.196700 8.830000 19.353300 0 255 0
-0.511300 8.961200 7.397500 255 0 0
-0.512300 8.926500 10.560200 0 255 0
-0.754800 8.777100 14.713600 0 255 0
0.080000 10.177500 17.549999 0 255 0
0.139100 8.930900 16.646400 0 255 0
0.010000 10.010000 19.700001 0 255 0
0.050000 8.380000 28.709999 0 255 0
-0.460000 8.743300 25.893299 0 255 0
-0.466000 8.920000 12.852000 255 0 0
-0.453700 8.897400 9.811100 0 255 0
-0.140000 9.040000 26.049999 0 255 0
0.295000 8.790000 16.844999 0 255 0
-0.001700 10.180000 17.405001 0 255 0
-1.359100 9.778200 12.460000 0 255 0
-0.460000 9.230000 12.940000 255 0 0
-0.470000 9.050000 25.590000 0 255 0
0.492000 9.776000 16.909000 0 255 0
-0.540000 9.020000 10.110000 255 0 0
-0.570000 8.990000 19.520000 255 0 0
-0.570000 8.810000 22.760000 0 255 0
-0.555000 8.890000 26.000000 255 0 0
-0.563000 8.919000 16.257999 255 0 0
-0.570000 8.930000 17.170000 255 0 0
-0.570000 9.000000 20.430000 255 0 0
0.030000 9.410000 26.719999 0 255 0
-0.910000 8.640000 26.090000 0 255 0
-0.850000 9.650000 17.709999 0 255 0
-0.660000 9.393300 17.503300 0 255 0
-0.667300 9.234000 7.710500 255 0 0
-0.675800 9.176800 4.455200 255 0 0
0.070000 9.960000 1.570000 0 255 0
-1.110000 10.060000 12.600000 0 255 0
-0.440000 8.930000 22.850000 255 0 0
-0.460000 8.865000 19.795000 255 0 0
-0.454000 8.844000 16.562000 255 0 0
-1.000000 9.050000 23.680000 0 255 0
-0.811100 8.478900 20.273300 0 255 0
-0.950000 9.020000 17.510000 0 255 0
-0.790000 9.440000 21.299999 0 255 0
-0.820000 9.176700 11.916700 0 255 0
-1.480000 9.390000 18.020000 0 255 0
-1.456700 9.286700 11.503300 0 255 0
-0.980000 9.620000 14.800000 0 255 0
-0.966700 9.834400 1.764400 0 255 0
-1.115000 8.790000 19.309999 0 255 0
-0.930000 9.380000 14.720000 0 255 0
-0.916700 9.490000 21.193300 0 255 0
-0.306700 8.876700 10.803300 255 0 0
-0.323300 8.946700 7.658300 255 0 0
-0.916700 8.393300 22.549999 0 255 0
-1.050000 8.675000 1.350000 0 255 255
-1.300800 9.220000 1.654600 0 255 0
-1.315000 9.195000 1.700000 0 255 0
-0.450000 8.920000 21.059999 255 0 0
-0.452500 8.887500 18.002501 255 0 0
-0.454000 8.842000 14.756000 255 0 0
-0.460000 9.017200 2.109600 0 255 0
-0.468200 10.089100 1.617300 0 255 0
-1.760000 9.085000 14.850000 0 255 0
-1.310000 9.260000 1.440000 0 255 0
-1.307100 9.327900 11.115600 0 255 0
-0.530000 9.360000 24.430000 0 255 0
-0.260000 9.035000 15.495000 255 0 0
-0.267800 8.980600 12.255000 255 0 0
-0.256700 9.066700 15.173300 255 0 0
-0.265700 8.985700 8.852900 255 0 0
-0.262900 9.035000 12.117900 255 0 0
-0.250000 8.226000 14.206000 0 255 0
-1.520000 8.743300 15.293300 0 255 0
-0.625000 9.030000 21.709999 255 0 0
-0.600000 9.080000 18.570000 255 0 0
-0.615700 9.181400 12.057100 255 0 0
-0.618500 9.291500 5.913100 255 0 0
-0.621000 9.226000 9.061000 255 0 0
-0.624000 9.130000 15.228000 255 0 0
-0.416700 9.173300 16.620001 255 0 0
-0.411800 9.290000 10.315500 255 0 0
-0.408300 9.233300 13.450000 255 0 0
-0.411100 9.343700 7.160000 255 0 0
-0.430000 8.630000 27.290001 0 255 0
-0.413300 8.728300 21.007500 0 255 0
-0.406600 8.971000 3.561000 255 0 0
-0.180000 9.330000 8.800000 255 0 0
-0.360700 9.235300 12.359300 255 0 0
-0.360000 9.334500 5.864800 255 0 0
-0.380000 8.685000 14.060000 0 255 0
-0.654000 9.177300 13.811300 255 0 0
-0.652400 9.127200 10.463100 255 0 0
-0.666700 9.078500 7.309100 255 0 0
-0.653100 9.034600 3.910700 0 255 0
-1.130000 8.850000 17.760000 0 255 0
-1.110000 8.490000 26.120001 0 255 0
-0.390000 8.020000 2.650000 0 255 255
-0.330000 8.420000 1.440000 0 255 0
-0.299400 9.233900 7.060000 255 0 0
-0.298300 9.075200 3.661700 0 255 0
-0.293300 9.180000 10.212200 255 0 0
-1.460000 9.480000 12.180000 0 255 0
-1.460000 9.570000 18.680000 0 255 0
-1.352300 9.185400 12.317700 0 255 0
-1.460000 9.216700 14.273300 0 255 0
-1.445700 9.038600 1.597100 0 255 0
-0.730000 9.350000 19.420000 0 255 0
-0.698000 9.078000 10.000000 255 0 0
-0.699700 9.131700 6.763900 255 0 0
-0.660000 9.165000 17.055000 255 0 0
-0.660000 9.310000 26.639999 0 255 0
-0.658800 9.078100 10.762500 255 0 0
-0.656700 9.136700 14.018900 255 0 0
-0.646000 8.995000 3.609000 255 0 0
-0.657100 9.031100 6.860800 255 0 0
-0.596700 8.843300 16.463301 255 0 0
-0.603300 8.876700 13.310000 255 0 0
-0.602700 8.938200 10.160900 255 0 0
-0.620000 9.075000 1.858800 0 255 0
-0.627000 9.018300 5.010900 255 0 0
-0.612000 8.980500 7.010700 255 0 0
-0.070000 9.372500 18.552500 0 255 0
-1.361300 8.232500 10.361300 0 255 0
-1.370000 8.420000 10.410000 0 255 0
-1.359400 9.377100 15.058800 0 255 0
-0.290000 9.120000 11.690000 255 0 0
-0.316700 9.060000 14.853300 255 0 0
-0.299700 9.022100 5.206800 255 0 0
-0.308400 8.979700 8.360000 255 0 0
-0.560000 8.820000 15.440000 255 0 0
-0.562000 8.888000 18.704000 255 0 0
-0.566400 8.967300 12.410000 255 0 0
-0.557000 8.939500 9.157900 255 0 0
-1.550000 8.636000 14.400000 0 255 0
-1.390000 9.580000 13.910000 0 255 0
-1.430000 9.410000 23.340000 0 255 0
-1.408800 9.625700 11.111400 0 255 0
-1.305000 9.526700 1.703300 0 255 0
-1.311800 9.381800 11.120000 0 255 0
0.078800 8.880000 16.855000 0 255 0
-0.275800 9.329200 1.652500 0 255 0
-0.240000 8.910000 27.760000 0 255 0
-1.460000 9.190000 24.070000 0 255 0
-1.206700 8.680400 15.262500 0 255 0
-1.120000 7.920000 14.190000 0 255 0
0.088400 8.827800 15.799400 0 255 0
-1.558000 9.084000 15.216000 0 255 0
0.010000 9.510000 21.850000 0 255 0
-0.640000 8.890000 15.870000 255 0 0
-0.645000 8.915000 19.000000 255 0 0
-0.670000 8.980000 22.357500 255 0 0
-0.480000 9.410000 4.200000 255 0 0
-0.462500 9.235000 16.463800 255 0 0
-0.965000 8.265000 20.504999 0 255 0
-1.040000 9.160000 23.730000 0 255 0
-1.058600 9.630000 1.568600 0 255 0
-1.055000 9.840000 14.200000 0 255 0
-0.960000 8.820000 27.990000 0 255 0
-0.170000 9.860000 19.480000 0 255 0
-1.064000 9.282000 1.628000 0 255 0
-1.011600 9.137900 12.012300 0 255 0
-0.670000 9.350000 2.070000 0 255 0
-0.590000 7.970000 18.100000 0 255 0
-0.601300 8.079300 11.556000 0 255 0
0.235700 9.730700 1.654300 0 255 0
0.240000 9.265000 1.722500 0 255 0
0.095200 8.837600 13.959700 0 255 0
-0.550000 9.210000 19.990000 255 0 0
-1.006700 9.486700 19.400000 0 255 0
-0.366700 10.213300 1.990000 0 255 255
-0.450000 8.960000 20.370001 255 0 0
-0.463300 8.836700 10.723300 255 0 0
-0.455000 8.925000 17.200001 255 0 0
-0.453300 8.875200 13.855200 255 0 0
-0.620000 8.290000 16.790001 0 255 0
-0.460000 8.340000 26.690001 0 255 0
-0.460000 8.790000 16.240000 255 0 0
-0.462000 8.964100 3.609300 0 255 0
0.170000 9.930000 14.970000 0 255 0
0.350000 9.100000 18.504999 0 255 0
-0.540000 8.720000 24.340000 0 255 0
-0.550000 8.850000 17.820000 255 0 0
-0.550000 9.020000 5.580000 255 0 0
-0.560000 8.885000 20.945000 255 0 0
-0.565000 8.965000 14.470000 255 0 0
-0.557100 8.933800 11.311900 255 0 0
0.040000 9.290000 28.660000 0 255 0
-0.411000 8.832000 18.406000 255 0 0
-0.408600 8.915000 11.905700 255 0 0
-0.413200 8.883200 15.161100 255 0 0
-0.110000 8.174000 19.454000 0 255 0
-1.662100 8.580100 10.263800 0 255 0
-0.255000 7.986700 1.956700 0 255 255
0.183300 10.040000 14.806700 0 255 0
-0.203300 9.576000 14.007300 0 255 0
-0.207500 8.217500 1.502500 0 255 255
0.410000 9.020000 18.430000 0 255 0
-0.970000 8.780000 26.620001 0 255 0
0.270000 9.650000 20.230000 0 255 0
0.280000 9.700000 17.080000 0 255 0
0.540000 9.135000 17.655001 0 255 0
-1.295000 8.575000 1.555000 0 255 255
-0.250000 8.840000 27.780001 0 255 0
-0.271800 9.276100 4.909600 255 0 0
-0.262100 9.225400 1.660400 0 255 0
-0.240000 8.750000 21.610001 0 255 0
0.020000 9.670000 20.389999 0 255 0
-0.480000 8.010000 28.379999 0 255 0
-0.540000 9.100000 12.050000 255 0 0
-0.580000 8.960000 17.600000 255 0 0
-0.570000 8.860000 23.889999 255 0 0
-0.567500 8.920000 14.361200 255 0 0
-0.290000 9.420000 28.370001 0 255 0
-0.404300 8.926400 16.860701 255 0 0
-0.410000 8.880000 20.025000 255 0 0
0.145000 9.671300 17.668699 0 255 0
-0.215000 9.870000 1.570000 0 255 0
-1.605000 9.382500 23.092501 0 255 0
-1.263300 8.786700 17.743299 0 255 0
-1.320000 9.685000 17.650000 0 255 0
-0.810000 9.140000 7.380000 255 0 0
-0.950000 9.350000 21.690001 0 255 0
-0.107500 9.527500 18.549999 0 255 0
0.060000 9.020000 27.480000 0 255 0
0.390000 8.450000 28.440001 0 255 0
-1.265000 8.085000 14.150000 0 255 0
0.230000 8.793300 13.973300 0 255 0
-0.255000 10.190000 12.380000 0 255 0
-1.260000 8.225000 9.850000 0 255 0
-0.220000 8.770000 20.340000 0 255 0
0.680000 9.330000 17.200001 0 255 0
-1.055000 8.190000 21.642500 0 255 0
-1.150000 9.470000 1.590000 0 255 0
-0.670000 9.300000 27.450001 0 255 0
-0.652000 9.120000 17.959999 255 0 0
-0.670000 9.190000 21.100000 0 255 0
-0.659200 9.076700 14.820000 255 0 0
-0.649200 9.036900 12.418500 255 0 0
-0.651300 8.986300 9.258700 255 0 0
-0.558300 9.500000 1.811700 0 255 0
-0.552500 9.361300 7.562500 255 0 0
-0.570000 9.345600 4.411100 255 0 0
-0.567100 9.241400 10.912900 255 0 0
-1.000000 9.310000 21.570000 0 255 0
-0.570000 9.190000 16.809999 255 0 0
-0.550000 9.100000 23.330000 255 0 0
-0.570000 8.940000 25.510000 255 0 0
-0.568200 9.382400 4.157900 255 0 0
-0.566500 9.280000 10.662400 255 0 0
-1.194300 8.881400 1.604300 0 255 0
-0.310000 8.524800 14.001600 0 255 0
-1.558600 9.335700 11.178600 0 255 0
-0.862300 9.627700 1.962300 0 255 0
-0.450000 8.740000 28.230000 0 255 0
-0.470000 8.923300 15.553300 255 0 0
-0.459100 8.888000 12.310000 255 0 0
-1.259300 8.731400 15.014300 0 255 0
-1.267100 8.931400 1.558600 0 255 0
-1.271000 8.930000 1.621000 0 255 0
-1.266300 8.726800 15.061100 0 255 0
-1.340000 9.770000 1.800000 0 255 255
0.695000 9.045000 17.400000 0 255 0
-0.702000 9.484000 24.398001 0 255 0
-0.699200 9.183500 5.610800 255 0 0
-0.723600 9.229000 2.362400 0 255 0
-0.345000 9.290000 5.210000 255 0 0
-0.350000 9.210000 14.960000 255 0 0
-0.373300 9.322000 8.455300 255 0 0
-0.355000 9.190000 11.720000 255 0 0
-0.362500 9.035000 2.315200 255 0 0
-0.352000 8.372000 1.512000 0 255 0
-0.260000 8.270400 14.151300 0 255 0
-0.465000 9.020000 5.260000 255 0 0
-0.460000 8.870000 21.049999 255 0 0
-0.470000 8.825000 17.910000 255 0 0
-0.910300 10.180300 12.366500 0 255 0
-0.700900 9.631800 1.550900 0 255 0
-0.740000 8.860000 21.690001 255 0 0
-0.780000 8.950000 24.969999 0 255 0
-0.700000 8.950000 24.840000 0 255 0
-0.730000 9.000000 3.170000 255 0 0
-0.698500 9.130500 6.468000 255 0 0
-0.700000 9.090000 9.705000 255 0 0
-0.509200 8.984700 1.559200 0 255 0
-0.517500 8.730000 17.454201 0 255 0
-0.510500 8.930900 4.808800 255 0 0
-0.155600 8.334400 19.414400 0 255 0
-0.352500 9.262500 12.360000 255 0 0
-0.350000 9.130000 2.460000 255 0 0
-0.342500 9.017500 8.760000 255 0 0
-0.354500 8.971100 5.605200 0 255 0
-0.650000 9.166700 12.263300 255 0 0
-0.651500 9.036700 2.055600 0 255 0
-0.662300 9.131400 9.212700 255 0 0
-0.665400 9.078400 5.958900 255 0 0
-1.360000 9.210000 14.370000 0 255 0
-1.361400 9.432900 1.697100 0 255 0
-1.380000 9.360000 11.080000 0 255 0
-1.365000 9.240000 14.320000 0 255 0
-1.358300 9.426700 1.664200 0 255 0
-1.305800 9.378300 14.959700 0 255 0
0.330000 9.570000 21.770000 0 255 0
0.360000 9.526700 18.593300 0 255 0
0.380000 8.722500 15.907500 0 255 0
-0.654400 9.124400 11.965600 255 0 0
-0.653300 9.175000 15.105000 255 0 0
-0.652800 9.032200 5.609000 0 255 0
-0.658600 9.078300 8.811900 255 0 0
-0.630000 8.850000 18.820000 255 0 0
-0.623300 9.076700 2.906700 255 0 0
-0.607000 8.939000 12.313000 255 0 0
-0.607300 8.887300 15.561800 255 0 0
-0.622200 9.015700 6.157500 255 0 0
-0.607300 8.981800 9.059400 255 0 0
-1.360000 8.850000 17.860001 0 255 0
-1.340000 8.800000 27.580000 0 255 0
-1.355000 9.180000 1.470000 0 255 0
-1.358600 8.931800 11.364100 0 255 0
-0.600000 9.360000 5.010000 255 0 0
-0.610000 9.050000 27.309999 0 255 0
-0.605000 9.190000 17.645000 255 0 0
-0.620000 9.070000 24.180000 255 0 0
-0.615000 9.125000 20.809999 255 0 0
-0.600900 9.316400 8.168200 255 0 0
-0.622900 9.225900 14.651200 255 0 0
-1.360500 9.825900 14.958200 0 255 0
-1.255600 8.770700 13.561200 0 255 0
-0.522500 8.970000 10.010000 255 0 0
-0.512100 8.922100 13.156400 255 0 0
-0.850000 8.910000 19.209999 0 255 0
-0.848800 8.978200 19.260000 0 255 0
-0.855000 8.735000 25.875000 0 255 0
-0.840000 9.060000 22.450001 0 255 0
-0.840000 9.015000 19.295000 0 255 0
0.495000 8.960000 17.160000 0 255 0
-1.520000 9.490000 22.760000 0 255 0
-0.280000 8.945000 6.010000 255 0 0
-0.247500 8.395000 21.674999 0 255 0
-0.254300 8.528600 21.657101 0 255 0
-0.225000 9.230000 11.765000 255 0 0
-0.220000 9.185000 11.815000 255 0 0
-0.210000 9.010000 21.120001 0 255 0
-0.210000 9.270000 5.330000 255 0 0
0.294300 8.981400 25.555700 0 255 0
-0.190000 7.910000 18.830000 0 255 0
-0.640000 9.010000 24.379999 255 0 0
-0.650000 8.890000 14.623300 255 0 0
-0.658900 8.684400 1.556700 0 255 0
-0.650000 8.980000 21.115000 255 0 0
-0.640000 8.930000 17.850000 255 0 0
0.689000 8.881000 16.848000 0 255 0
-1.480000 9.590000 15.155000 0 255 0
-0.170000 8.670000 20.180000 0 255 0
-0.168000 8.778000 13.396000 0 255 0
-0.780000 9.970000 1.650000 0 255 0
-0.655000 9.890000 17.129999 0 255 0
-0.345000 9.085000 16.567499 255 0 0
-0.370000 8.980000 23.040001 255 0 0
-0.360000 9.150000 19.809999 255 0 0
-1.560000 9.300000 12.600000 0 255 0
-1.564000 9.588000 18.764000 0 255 0
-1.417100 9.535000 12.415700 0 255 0
-1.450000 9.475000 21.912500 0 255 0
-0.650000 8.881200 13.966300 255 0 0
-0.661400 8.980000 20.265699 255 0 0
-0.648300 8.938300 17.106701 255 0 0
-1.543300 9.040000 15.263300 0 255 0
-0.530000 8.640000 26.510000 0 255 0
-0.525000 8.910000 20.344999 255 0 0
-0.506700 8.838300 13.853300 255 0 0
-0.508900 8.891900 10.707400 255 0 0
-0.350000 10.135000 17.209999 0 255 0
-0.890000 8.960000 13.390000 0 255 0
-0.455000 8.732500 1.442500 0 255 0
0.220000 9.910000 21.520000 0 255 0
0.240000 10.076000 17.506001 0 255 0
0.520000 9.590000 1.730000 0 255 0
0.192500 9.777500 1.669200 0 255 0
-0.590000 9.260000 16.030001 255 0 0
-0.620000 9.480000 2.940000 255 0 0
-0.610000 9.190000 22.780001 0 255 0
-0.610800 9.230800 19.153799 255 0 0
-0.600000 8.980000 25.650000 255 0 0
-0.590000 8.910000 28.920000 0 255 0
-0.660000 10.350000 1.990000 0 255 255
-0.600000 9.010000 21.549999 255 0 0
-0.626000 9.234000 8.508000 255 0 0
-0.621400 9.288600 5.260000 255 0 0
-0.622000 9.179000 11.805000 255 0 0
-0.622500 9.135000 15.072500 255 0 0
-0.630000 9.080000 18.295000 255 0 0
-0.058000 10.138000 1.817000 0 255 255
-0.966700 8.596700 1.343300 0 255 255
-0.117000 8.030000 14.260000 0 255 0
-0.960000 8.375000 21.840000 0 255 0
-0.290000 9.020000 21.080000 0 255 0
-0.403300 9.213300 16.203300 255 0 0
-0.418600 9.270000 13.157100 255 0 0
-0.425000 9.175000 19.465000 255 0 0
-0.416300 9.321200 9.904400 255 0 0
-0.407500 9.012500 3.155000 255 0 0
-0.400500 8.969500 6.409000 0 255 0
-1.268000 8.537000 15.073000 0 255 0
-0.390000 9.025000 20.010000 255 0 0
-0.410000 8.980000 23.165001 255 0 0
-1.630000 8.450000 14.810000 0 255 0
0.050000 8.910000 25.459999 0 255 0
-0.002500 8.022500 2.402500 0 255 255
-0.960400 8.982400 17.502800 0 255 0
-1.080000 8.700000 24.830000 0 255 0
-0.218300 9.281700 11.801700 0 255 0
0.296700 8.880000 25.013300 0 255 0
-0.330000 10.180000 1.990000 0 255 255
-0.465000 9.975000 25.195000 0 255 0
0.430000 8.710000 28.469999 0 255 0
-0.180000 8.990000 4.310000 255 0 0
-0.850000 9.830000 1.730000 0 255 0
0.086400 8.333200 2.258600 0 255 255
-0.815000 9.485000 2.140000 0 255 0
-0.390000 9.250000 5.000000 255 0 0
-0.430000 8.930000 22.889999 255 0 0
-0.915000 9.932500 12.427500 0 255 0
-0.030000 9.320000 1.950000 0 255 0
-0.250000 8.028900 2.450000 0 255 255
-0.640000 7.920000 23.080000 0 255 0
-0.900000 9.140000 16.510000 0 255 0
-0.920000 9.210000 23.000000 0 255 0
-0.646700 8.976700 17.610001 255 0 0
-0.654000 9.026000 20.856001 255 0 0
-0.647100 8.932900 14.570000 255 0 0
0.430000 8.900000 25.799999 0 255 0
-1.451700 9.271700 1.560000 0 255 0
-1.450000 9.422500 11.118800 0 255 0
-0.340000 9.240000 6.320000 255 0 0
-0.366700 8.893300 23.553301 0 255 0
-0.418800 8.075000 11.708800 0 255 0
-0.390000 9.240000 21.480000 0 255 0
-0.430000 9.130000 2.100000 0 255 0
-0.580000 8.880000 5.720000 255 0 0
-0.416700 9.983300 16.806700 0 255 0
-0.080000 8.720000 13.480000 0 255 0
-1.100000 9.830000 21.580000 0 255 0
-1.110000 9.726300 15.007500 0 255 0
-0.350000 9.060000 3.860000 255 0 0
-0.353000 8.967800 10.160400 255 0 0
-1.316000 8.336000 10.310000 0 255 0
-0.275000 9.230000 13.955000 255 0 0
-0.250000 9.325000 20.260000 0 255 0
-0.262700 9.176700 10.712300 255 0 0
-0.272000 9.081600 3.959800 255 0 0
-0.270000 8.670000 28.440001 0 255 0
-0.264200 9.126900 7.209500 255 0 0
0.180000 9.073300 19.360001 0 255 0
0.175000 8.975000 26.110001 0 255 0
-0.690000 8.970000 8.710000 255 0 0
-0.690000 9.130000 10.520000 255 0 0
-0.702500 9.040000 5.562500 255 0 0
-0.690000 9.080000 13.650000 255 0 0
-0.713800 9.190000 20.159201 0 255 0
-0.790000 9.030000 23.660000 0 255 0
-0.867500 9.177500 23.002501 0 255 0
-0.870000 9.420000 13.500000 0 255 0
-0.850000 9.660000 17.350000 0 255 0
-0.854000 9.642000 14.102000 0 255 0
-0.416700 8.900000 5.003300 255 0 0
-0.424500 8.276400 17.657301 0 255 0
-1.020000 9.333000 1.707000 0 255 0
-0.906800 8.671900 1.321600 0 255 0
-0.550000 9.976700 1.596700 0 255 0
-1.090000 9.650000 15.050000 0 255 0
-0.880000 8.850000 21.070000 0 255 0
-0.856000 8.716000 14.770000 0 255 0
-0.420000 9.360000 8.590000 255 0 0
-0.416300 9.463800 2.101200 0 255 0
-1.070000 8.850000 17.629999 0 255 0
-0.190000 8.680000 14.680000 0 255 0
-0.850000 9.880000 12.230000 0 255 0
-0.250000 9.210000 13.230000 255 0 0
-0.258700 9.167500 10.055600 255 0 0
-0.263200 9.130100 7.058100 255 0 0
-0.273900 9.083300 3.909100 255 0 0
-0.325000 9.165000 15.310000 255 0 0
-0.314000 9.224000 12.155000 255 0 0
-0.300000 9.300000 21.600000 0 255 0
-0.303300 9.140000 5.806700 255 0 0
-0.298900 9.077800 8.963300 255 0 0
-0.580000 8.930000 20.139999 255 0 0
-0.550000 9.060000 15.870000 255 0 0
-0.747500 9.181300 2.908700 0 255 0
-0.421100 8.891100 8.547800 255 0 0
-0.400000 8.850000 11.800000 255 0 0
-0.413600 8.929300 5.310400 255 0 0
-0.690000 9.180000 13.190000 255 0 0
-0.695000 9.285000 19.360001 0 255 0
-0.705500 9.134300 3.458300 0 255 0
-0.699000 9.077700 6.710300 0 255 0
-0.301700 9.127800 13.207000 255 0 0
-0.310000 9.078000 16.362000 255 0 0
-0.308000 8.977500 10.060700 255 0 0
-0.304000 9.024900 6.910900 255 0 0
-0.240000 9.170000 13.920000 255 0 0
-0.270000 9.281700 20.203300 0 255 0
-0.275800 9.040000 4.110800 255 0 0
-0.258800 9.127400 10.408500 255 0 0
-0.267800 9.082000 7.157200 255 0 0
-0.648600 9.165700 13.508600 255 0 0
-0.655100 9.124600 10.357700 255 0 0
-0.652600 9.033200 4.008500 255 0 0
-0.665700 9.076700 7.207000 255 0 0
-0.261200 9.179400 10.663800 255 0 0
-0.265900 9.080100 4.108800 255 0 0
-0.255000 9.340000 20.309999 0 255 0
-0.262500 9.130200 7.259300 255 0 0
-0.660000 9.160000 16.770000 255 0 0
-0.654300 9.120700 13.507100 255 0 0
-0.653900 9.082000 10.256600 255 0 0
-0.642900 8.994200 4.113900 255 0 0
-0.653600 9.029600 7.360300 255 0 0
0.020000 8.510000 2.130000 0 255 255
-0.605000 8.715000 23.719999 0 255 0
-0.624400 9.016400 4.109600 255 0 0
-0.596700 8.886700 14.411700 255 0 0
-0.602500 8.941300 11.057500 255 0 0
-0.609700 8.975900 7.910000 0 255 0
0.006700 10.100000 1.870000 0 255 255
-0.470000 8.570000 26.020000 0 255 0
-0.560000 8.870000 20.152000 255 0 0
-0.560000 9.035000 3.160000 255 0 0
-0.570000 8.966700 13.660000 255 0 0
-0.556000 8.838000 17.006001 255 0 0
-0.554500 8.935500 10.506600 255 0 0
-0.580000 8.800000 26.639999 0 255 0
-0.570000 8.960000 14.020000 255 0 0
-0.570000 8.850000 17.070000 255 0 0
-0.567500 9.020000 2.811200 255 0 0
-0.560500 8.925500 10.756500 255 0 0
0.235000 8.825000 17.065001 0 255 0
0.095500 8.083600 2.009100 0 255 255
-0.353500 8.530000 14.000000 0 255 0
-0.230000 9.180000 3.800000 255 0 0
-0.225000 9.065000 9.965000 255 0 0
-0.225000 9.130000 6.950000 255 0 0
-0.011100 8.881800 11.864300 0 255 0
-1.370000 9.120000 23.990000 0 255 0
-0.610000 8.326700 16.705000 0 255 0
-0.650000 8.840000 12.520000 255 0 0
-0.650000 8.935000 19.059999 255 0 0
-1.357600 9.282800 11.258600 0 255 0
-0.343300 9.483300 15.810000 0 255 0
-0.417500 8.882500 18.002501 255 0 0
-0.398700 8.928800 14.855000 255 0 0
-0.605000 7.830000 17.799999 0 255 0
0.670000 8.860000 18.900000 0 255 0
-1.760000 9.050000 14.910000 0 255 0
-0.110600 8.488100 14.770000 0 255 0
-1.303300 8.123300 14.093300 0 255 0
-0.260000 7.940000 14.290000 0 255 0
0.234000 8.772000 21.216000 0 255 0
0.090000 8.088300 2.261700 0 255 255
0.088900 8.277000 14.908300 0 255 0
0.141500 8.631500 17.013100 0 255 0
-0.540000 9.410000 11.250000 0 255 0
0.020000 8.930000 14.000000 0 255 0
-0.180000 9.000000 10.360000 255 0 0
-0.510000 8.174000 17.756001 0 255 0
0.244400 8.637800 1.565600 0 255 255
-0.420000 8.430000 18.594999 0 255 0
-1.370000 9.550000 18.879999 0 255 0
-1.366700 9.623300 12.513300 0 255 0
-1.480000 9.440000 12.210000 0 255 0
-1.460000 9.472500 15.110000 0 255 0
-1.560000 9.470000 11.210000 0 255 0
-0.863800 9.042500 13.955000 0 255 0
-1.261700 9.523300 18.666700 0 255 0
-0.750000 9.060000 18.920000 255 0 0
0.283300 8.376700 1.853300 0 255 255
-0.270900 9.221800 8.802700 255 0 0
-0.256600 9.177300 5.657500 255 0 0
-0.278200 9.129100 2.650000 255 0 0
0.684400 9.438900 15.661100 0 255 0
-0.010000 9.340000 24.430000 0 255 0
-0.010000 9.386700 21.250000 0 255 0
-0.010000 9.010000 16.520000 0 255 0
0.600000 8.910000 16.879999 0 255 0
-0.090000 9.580000 20.280001 0 255 0
-0.156700 9.980000 17.120001 0 255 0
-1.330000 8.220000 14.120000 0 255 0
0.000000 8.020000 21.430000 0 255 0
-0.304000 8.925000 1.475000 0 255 0
-0.255000 9.437500 18.507500 0 255 0
-1.360000 9.084000 15.072000 0 255 0
0.070000 9.560000 26.850000 0 255 0
0.094300 9.180000 1.567100 0 255 0
-0.511100 8.035600 11.757800 0 255 0
-1.050000 8.770000 27.510000 0 255 0
0.340000 9.790000 16.760000 0 255 0
-0.613000 10.038000 17.108999 0 255 0
-1.080000 9.295000 20.254999 0 255 0
-0.170000 9.490000 15.910000 0 255 0
-1.550000 8.420000 14.090000 0 255 0
-0.420000 8.930000 24.139999 255 0 0
-0.390000 8.570000 21.180000 0 255 0
-0.296700 9.523300 18.526699 0 255 0
0.360000 9.100000 26.110001 0 255 0
0.160000 9.780000 17.559999 0 255 0
0.090000 8.290000 1.900000 0 255 255
-0.320000 9.823300 1.690000 0 255 0
-0.350000 9.180000 1.856700 0 255 0
-0.345000 8.935000 24.805000 0 255 0
-0.550000 9.030000 15.370000 255 0 0
-0.555000 8.915000 20.725000 255 0 0
-0.560000 8.810000 27.200001 255 0 0
-0.565000 9.200000 12.020000 255 0 0
-0.440000 8.200000 28.740000 0 255 0
-0.460000 8.120000 25.600000 0 255 0
-0.570000 9.220000 16.350000 255 0 0
-0.551400 9.317100 10.051400 255 0 0
-0.905000 8.477000 20.346001 0 255 0
-1.525000 8.735000 27.775000 0 255 0
-0.040000 10.020000 23.440001 0 255 0
-0.213300 9.866700 1.600000 0 255 0
-1.560000 9.227300 15.198200 0 255 0
-1.202000 8.032000 21.662001 0 255 0
-1.603300 9.385000 17.753300 0 255 0
-1.595000 9.450000 12.375000 0 255 0
-0.320000 9.920000 18.740000 0 255 0
-0.350000 9.930000 18.620001 0 255 0
-0.990000 9.440000 1.540000 0 255 0
-1.030000 9.270000 11.040000 0 255 0
-1.015000 9.415000 1.645000 0 255 0
-0.691000 9.274500 3.906500 255 0 0
-0.676000 9.228000 3.570000 255 0 0
-0.655200 9.274200 6.555500 255 0 0
-1.580000 9.420000 22.790001 0 255 0
-1.153300 9.126700 23.860001 0 255 0
-1.090000 8.440000 28.290001 0 255 0
0.070000 10.020000 12.410000 0 255 0
-0.040000 9.910000 16.180000 0 255 0
-0.410000 8.180000 26.120001 0 255 0
-0.420000 8.896700 6.170000 255 0 0
-0.422400 8.836500 9.407600 255 0 0
0.305000 9.790000 21.930000 0 255 0
0.350000 8.665000 24.620001 0 255 0
0.337300 8.642700 21.351801 0 255 0
0.598000 8.488000 13.812000 0 255 0
0.693300 9.083300 17.260000 0 255 0
0.480000 8.570000 21.680000 0 255 0
0.450000 8.840000 28.370001 0 255 0
0.040000 8.542500 1.765000 0 255 255
-1.162500 8.836200 1.615000 0 255 0
-1.418000 9.414000 17.796000 0 255 0
-1.006300 9.330000 20.253099 0 255 0
-0.606700 9.076700 2.706700 255 0 0
-0.605000 8.795000 22.330000 0 255 0
-0.610000 8.850000 19.020000 255 0 0
-0.602300 8.936900 12.510000 255 0 0
-0.606200 8.886300 15.766200 255 0 0
-0.621800 9.018200 5.958200 255 0 0
-0.605900 8.981300 9.261900 255 0 0
-0.795000 9.515000 2.150000 0 255 0
0.380000 9.780000 16.745001 0 255 0
-0.270000 9.065000 13.910000 255 0 0
-0.280000 8.985000 7.410000 255 0 0
-0.265100 9.031100 10.561600 255 0 0
-0.304300 9.233900 8.060000 255 0 0
-0.302700 9.183600 11.208200 255 0 0
-0.317500 9.136000 1.912300 0 255 0
-0.298600 9.074300 5.062900 255 0 0
0.287600 8.418600 13.602400 0 255 0
-0.320800 9.273300 8.913300 255 0 0
-0.316000 9.317000 5.760000 255 0 0
-0.316700 8.733300 19.230000 0 255 0
-0.300000 9.179200 2.409400 0 255 0
-0.490000 8.800000 26.469999 0 255 0
-0.510000 8.850000 10.065000 255 0 0
-0.520000 8.960000 13.420000 255 0 0
-0.512500 8.922500 16.559999 255 0 0
-0.505700 8.882900 6.910000 255 0 0
-0.530000 8.930000 16.680000 255 0 0
-0.505000 8.885000 7.215000 255 0 0
0.000000 9.180000 1.697500 0 255 0
-0.110000 9.290000 21.070000 0 255 0
-0.106000 9.180000 14.756000 0 255 0
-0.109300 8.935300 11.818600 0 255 0
-0.270000 9.150000 2.270000 255 0 0
-0.257300 9.179800 5.261500 255 0 0
-0.271200 9.224700 8.405900 255 0 0
-0.262100 9.280200 11.762100 255 0 0
0.047500 9.575000 21.302500 0 255 0
-1.565000 8.979000 15.211000 0 255 0
-0.920000 8.900000 25.340000 0 255 0
0.190000 10.036400 14.710000 0 255 0
-1.230000 9.360000 1.480000 0 255 0
-0.880000 9.350000 18.650000 0 255 0
0.145200 9.383500 14.857100 0 255 0
-0.740000 8.870000 15.790000 255 0 0
-0.762500 8.981000 9.508800 0 255 0
0.145000 8.345000 23.370001 0 255 0
-0.458000 9.732000 1.658000 0 255 0
-0.130000 9.010000 4.160000 255 0 0
-0.600000 8.860000 26.510000 255 0 0
-0.600000 8.940000 23.379999 255 0 0
-0.610000 9.220000 4.375000 255 0 0
-0.622500 9.077500 14.260000 255 0 0
-0.612500 8.985000 20.200001 255 0 0
-0.625000 9.045000 17.410000 255 0 0
-0.618800 9.130000 11.104700 255 0 0
-1.547100 8.977100 11.451400 0 255 0
-0.761800 9.877300 17.156401 0 255 0
-1.670000 9.050000 15.250000 0 255 0
0.340000 9.742500 17.754999 0 255 0
0.353000 9.870000 1.750500 0 255 0
-0.070000 8.820000 24.330000 0 255 0
-0.050000 8.485700 1.360000 0 255 0
-0.818300 10.028300 1.875000 0 255 0
-0.850000 9.210000 3.210000 255 0 0
-0.465000 7.835000 18.110001 0 255 0
-0.460000 8.120000 11.575000 0 255 0
-0.755600 9.731300 17.655001 0 255 0
-1.140000 8.680000 28.799999 0 255 0
-1.420000 8.460000 26.270000 0 255 0
-0.740000 8.740000 1.530000 0 255 0
0.260000 8.560000 28.730000 0 255 0
-0.306000 9.192000 9.194000 255 0 0
-0.320000 9.273300 15.713300 0 255 0
-0.292200 9.234400 6.058900 255 0 0
-0.303500 9.074200 3.060400 255 0 0
-1.280000 8.370000 10.340000 0 255 0
-0.960000 9.160000 14.040000 0 255 0
-0.162000 7.820000 18.506001 0 255 0
-0.210000 9.240000 4.460000 255 0 0
-0.220000 9.160000 7.810000 255 0 0
-0.230000 9.110000 10.980000 255 0 0
-0.815300 10.230600 1.866500 0 255 255
-0.848000 8.786000 18.459999 0 255 0
