15.595000 3.385000 20.172501 0 255 0
15.830000 2.820000 20.500000 0 255 0
14.587500 2.127500 20.745001 0 255 0
14.600000 2.180000 17.510000 0 255 0
16.090000 2.634400 -0.500000 0 255 255
16.205000 1.985000 17.965000 0 255 0
15.886700 2.636700 16.446699 0 255 0
16.040701 3.232000 -0.546000 0 255 255
14.590000 3.615000 -0.730000 0 255 0
14.494500 3.129100 18.605499 0 255 0
15.790000 2.170000 14.660000 0 255 0
15.770000 2.130000 17.809999 0 255 0
16.337500 2.232500 17.809999 0 255 0
15.800000 2.168000 -1.238000 0 255 0
15.540000 3.500000 -0.230000 0 255 255
16.045000 2.825000 -0.690000 0 255 255
14.884000 3.280000 20.709999 0 255 0
15.840000 2.028000 20.063999 0 255 0
15.202500 2.780000 -0.937500 0 255 0
15.196300 2.736300 2.406800 255 0 0
15.185000 2.500000 -0.732500 255 0 0
15.180600 2.763900 2.806700 255 0 0
15.183300 2.740800 5.857500 255 0 0
15.176700 2.693300 9.096700 255 0 0
14.888500 3.833100 0.006200 0 255 0
15.345000 2.680000 9.265000 255 0 0
15.370000 2.525000 12.515000 255 0 0
16.070000 2.130000 24.110001 0 255 0
15.234300 2.675000 1.403600 255 0 0
15.242500 2.720000 4.558300 255 0 0
15.700000 3.395000 1.230000 0 255 255
15.488700 2.733700 11.607000 0 255 0
14.600000 3.520000 15.825000 0 255 0
14.602500 2.243800 -0.793800 0 255 0
15.750000 2.933300 -0.610000 0 255 0
15.980000 3.240000 -0.400000 0 255 255
15.270000 2.580000 1.470000 255 0 0
15.290000 2.710000 6.940000 255 0 0
15.290000 2.678600 10.211400 255 0 0
15.440000 2.440000 13.280000 255 0 0
15.210000 2.690000 8.000000 255 0 0
15.200900 2.740900 4.762700 0 255 0
15.173800 2.770000 1.518700 255 0 0
14.470000 3.190000 -0.930000 0 255 0
15.340000 2.350000 18.799999 0 255 0
15.335000 2.050000 0.010000 0 255 0
15.326700 2.266700 15.573300 0 255 0
15.404300 3.242900 0.015700 0 255 0
14.884000 2.182000 -0.948000 0 255 0
14.590000 3.481400 -0.384300 0 255 0
14.623300 1.546700 23.013300 0 255 0
14.580000 3.630000 -0.510000 0 255 0
14.380000 3.282500 13.300000 0 255 0
14.836200 3.840000 0.255000 0 255 0
15.690000 3.260000 0.360000 0 255 255
15.680000 2.920000 23.230000 0 255 0
15.690000 1.730000 24.340000 0 255 0
16.120001 2.950000 17.500000 0 255 0
15.746700 3.333300 17.663300 0 255 0
14.293800 2.075900 -0.943200 0 255 255
15.360000 2.550000 5.270000 255 0 0
15.324000 2.576000 8.504000 255 0 0
14.380000 3.290000 -1.050000 0 255 0
14.273300 3.473300 0.043300 0 255 255
14.820000 2.390000 17.379999 0 255 0
15.220000 2.220000 20.480000 0 255 0
15.236700 2.193300 17.200001 0 255 0
14.905000 3.525000 -0.480000 0 255 0
15.196700 3.273300 -0.186700 0 255 0
15.775000 2.385000 20.010000 0 255 0
14.690000 1.510000 22.070000 0 255 0
14.352500 3.427500 -0.552500 0 255 0
15.900000 2.520000 -0.600000 0 255 0
15.270000 2.170000 15.740000 0 255 0
15.435500 3.226400 -0.133600 0 255 0
15.840000 2.735000 16.440001 0 255 0
16.320000 2.360000 21.290001 0 255 0
14.540000 2.080000 19.219999 0 255 0
14.488800 3.294700 -0.537600 0 255 0
15.535000 2.620000 23.250000 0 255 0
15.770000 3.050000 -0.600000 0 255 0
14.732000 3.471000 -0.492000 0 255 0
15.696000 2.434000 16.448000 0 255 0
14.542500 3.182500 18.507500 0 255 0
14.690000 2.088300 17.705000 0 255 0
15.320000 2.440000 19.670000 255 0 0
14.735000 3.022500 18.465000 0 255 0
16.007999 2.288000 -0.844000 0 255 0
15.850000 1.740000 21.510000 0 255 0
15.495000 3.730000 -0.605000 0 255 255
14.820000 3.615000 -0.925000 0 255 0
15.954000 2.824000 11.650000 0 255 0
15.087500 2.720000 13.557500 255 0 0
15.090000 2.840000 20.040001 0 255 0
14.440000 3.235000 18.612499 0 255 0
14.935000 3.290000 16.105000 0 255 0
15.170000 2.960000 16.219999 0 255 0
15.174300 2.761400 3.154300 255 0 0
15.206700 2.466700 -1.183300 0 255 0
15.170000 2.820000 0.010000 0 255 0
15.178900 2.738900 6.314400 255 0 0
15.190000 2.700000 9.475000 255 0 0
14.960000 3.500000 -0.410000 0 255 0
14.798000 3.132000 15.770000 0 255 0
14.770000 3.040000 22.059999 0 255 0
15.976700 2.230000 16.696699 0 255 0
15.980000 3.000000 23.570000 0 255 0
15.560000 2.550000 14.850000 0 255 0
15.484000 3.324000 15.810000 0 255 0
15.500000 3.480000 -0.720000 0 255 0
14.940000 3.120000 21.230000 0 255 0
14.257500 2.732500 -0.832500 0 255 0
15.670000 3.470000 20.219999 0 255 0
15.910000 2.820000 20.510000 0 255 0
15.900000 2.880000 17.260000 0 255 0
15.475000 3.730000 -0.500000 0 255 255
14.630000 1.710000 20.389999 0 255 0
14.737100 3.727900 -0.137900 0 255 0
14.590000 1.575000 23.495001 0 255 0
15.291100 3.483300 -0.332200 0 255 0
14.442000 3.674000 -0.494000 0 255 255
15.790000 3.283300 -0.946700 0 255 255
14.190000 2.026700 -1.236700 0 255 255
15.650000 2.790000 17.260000 0 255 0
16.290001 2.330000 16.120001 0 255 0
15.237200 2.576900 0.760300 255 0 0
15.252000 2.625000 3.906000 255 0 0
15.247700 2.472300 7.060800 255 0 0
16.350000 2.380000 21.264999 0 255 0
14.493300 3.676700 -0.543300 0 255 255
14.838600 3.520000 15.957100 0 255 0
15.431700 3.577100 0.165800 0 255 255
15.436000 3.234000 15.874000 0 255 0
14.743300 1.636700 -1.036700 0 255 0
14.975000 3.245000 15.725000 0 255 0
14.970000 3.460000 -0.670000 0 255 0
14.840000 2.160000 23.320000 0 255 0
14.860000 2.631500 0.460800 255 0 0
15.720000 2.910000 -0.250000 0 255 0
14.820000 3.620000 16.070000 0 255 0
15.430000 3.660000 0.480000 0 255 255
16.136000 2.284000 -0.782000 0 255 0
15.840000 3.029300 -0.785000 0 255 255
15.500000 1.940000 15.910000 0 255 0
16.040001 1.920000 21.620001 0 255 0
14.510000 2.460000 15.310000 0 255 0
15.230000 1.435000 17.070000 0 255 0
15.250000 2.460000 14.570000 255 0 0
15.250000 2.530000 17.700001 255 0 0
15.635000 2.480000 20.115000 0 255 0
16.245001 1.950000 12.830000 0 255 0
15.900000 1.850000 18.020000 0 255 0
15.888300 1.921700 -1.141700 0 255 0
14.936500 3.784800 0.764300 0 255 0
15.189200 2.736700 1.111700 255 0 0
15.880000 1.460000 20.580000 0 255 0
15.520000 2.770000 19.889999 0 255 0
15.380000 2.780000 21.400000 0 255 0
15.380000 2.750000 24.639999 0 255 0
15.090000 2.770000 7.570000 255 0 0
15.097500 2.722500 10.710000 255 0 0
14.600000 3.776700 -0.540000 0 255 255
15.880000 1.580000 23.430000 0 255 0
14.853600 2.530400 -0.390400 255 0 0
14.534000 3.486000 13.108000 0 255 0
14.440000 3.017500 18.455000 0 255 0
14.390000 3.132500 -0.497500 0 255 0
14.660000 3.430000 20.490000 0 255 0
14.648800 2.265900 -0.844700 0 255 0
15.683300 1.683300 -1.136700 0 255 0
15.880000 2.230000 23.910000 0 255 0
15.585000 2.310000 24.309999 0 255 0
16.148001 2.578000 21.062000 0 255 0
15.350000 1.740000 -1.253300 0 255 0
15.338200 1.979100 15.648200 0 255 0
15.560000 3.130000 19.980000 0 255 0
14.833900 2.526300 -0.688200 255 0 0
14.760000 3.110000 18.480000 0 255 0
15.200000 3.080000 16.150000 0 255 0
15.360000 2.520000 17.590000 255 0 0
15.337500 2.447500 11.070000 255 0 0
15.350000 2.650000 24.120001 0 255 0
15.336700 2.470000 14.466700 255 0 0
15.500000 2.470000 14.870000 0 255 0
15.710000 1.710000 23.629999 0 255 0
14.450000 1.840000 20.379999 0 255 0
15.842500 2.720000 20.605000 0 255 0
15.910000 2.640000 20.600000 0 255 0
16.040001 1.585000 13.400000 0 255 0
14.139200 2.240800 -0.782500 0 255 255
15.490000 3.283300 20.320000 0 255 0
15.500000 2.900000 -0.680000 0 255 0
15.992900 2.828600 20.660000 0 255 0
16.045000 3.180000 -0.385000 0 255 255
15.180000 2.525000 12.415000 255 0 0
15.186000 2.474000 15.658000 255 0 0
15.877100 2.185700 -1.194300 0 255 0
15.748000 3.330000 17.556000 0 255 0
16.270000 2.770000 22.469999 0 255 0
16.277500 2.672500 15.952500 0 255 0
14.825900 2.580900 -0.588400 255 0 0
14.853300 2.636700 2.666700 255 0 0
14.860000 2.560000 4.160000 255 0 0
14.740000 2.810000 19.760000 0 255 0
14.900000 2.580000 -0.790000 0 255 0
14.900000 2.710000 2.360000 255 0 0
14.910000 2.220000 21.340000 0 255 0
14.890000 2.680000 5.520000 255 0 0
15.220000 3.365000 -0.120000 0 255 0
15.130000 2.810000 1.910000 255 0 0
14.810000 2.230000 21.250000 0 255 0
14.785000 2.565000 -0.887500 0 255 0
14.186900 2.978100 -0.939400 0 255 0
14.640000 1.730000 -1.305000 0 255 255
14.831300 2.745000 -0.886200 0 255 0
14.850000 2.340000 24.400000 0 255 0
14.840000 2.600000 2.440000 255 0 0
14.860000 2.693300 3.906700 255 0 0
16.260000 2.200000 17.660000 0 255 0
14.204300 1.978600 -0.957100 0 255 255
16.000000 1.780000 13.380000 0 255 0
15.790000 1.710000 13.450000 0 255 0
15.790000 2.440000 20.004999 0 255 0
15.360000 3.500000 0.305000 0 255 0
15.236800 2.576800 0.462400 255 0 0
15.249100 2.635500 3.607700 255 0 0
15.249100 2.475500 6.961800 255 0 0
16.129999 1.620000 13.460000 0 255 0
15.236000 3.186000 16.011000 0 255 0
16.136700 2.938300 -0.691700 0 255 255
15.400000 2.580000 16.389999 0 255 0
15.370000 2.690000 9.660000 0 255 0
15.400000 2.490000 22.719999 0 255 0
15.355000 2.630000 12.805000 255 0 0
15.395000 2.635000 12.805000 255 0 0
15.339000 2.579000 9.660000 255 0 0
14.940000 2.350000 21.000000 0 255 0
14.952000 1.978000 -1.082000 0 255 0
15.120000 3.080000 20.700001 0 255 0
15.135000 2.376400 -1.043600 0 255 0
15.120000 2.480000 5.240000 255 0 0
15.141500 2.430400 2.011300 255 0 0
15.202500 2.522500 0.862500 255 0 0
15.195500 2.468500 4.004500 255 0 0
15.200000 2.740000 13.900000 255 0 0
14.250000 2.030000 23.700001 0 255 0
14.945000 3.815000 0.415000 0 255 0
15.257200 2.629800 1.806500 255 0 0
15.243200 2.482100 5.157900 0 255 0
14.520000 1.670000 20.790001 0 255 0
16.100000 2.350000 -0.420000 0 255 0
15.182000 1.282000 17.607000 0 255 0
15.100000 1.820000 -1.020000 0 255 0
15.840000 2.920000 23.379999 0 255 0
15.645000 3.280000 -0.045000 0 255 255
15.920000 2.690000 16.520000 0 255 0
14.640000 2.234000 17.705999 0 255 0
14.320000 3.360000 13.400000 0 255 0
14.870000 3.310000 23.480000 0 255 0
14.840000 2.590000 4.190000 255 0 0
14.860000 2.740000 0.980000 255 0 0
14.960000 2.430000 17.129999 0 255 0
15.030000 2.670000 17.709999 0 255 0
15.700000 1.720000 23.950001 0 255 0
15.670000 1.560000 20.830000 0 255 0
14.450000 2.646700 -0.983300 0 255 0
15.484000 2.472000 17.604000 0 255 0
15.510000 2.760000 11.640000 0 255 0
15.490000 2.738000 14.816000 0 255 0
15.205000 2.697500 0.262500 255 0 0
14.137500 3.192500 0.005000 0 255 0
15.138300 3.586700 -0.593300 0 255 0
15.220000 2.720000 0.780000 255 0 0
15.550000 1.640000 19.420000 0 255 0
14.780000 3.195000 20.520000 0 255 0
15.327500 2.120000 -0.140000 0 255 0
15.330000 2.393300 15.573300 255 0 0
14.950000 3.223300 15.730000 0 255 0
15.682000 3.392000 0.628000 0 255 255
15.230000 2.160000 16.790001 0 255 0
15.343300 2.470000 13.143300 0 255 0
14.740000 1.840000 24.250000 0 255 0
15.600000 3.250000 -0.360000 0 255 0
15.650000 3.680000 -0.370000 0 255 255
14.678600 3.531800 -0.289500 0 255 0
15.956700 2.873300 -0.550000 0 255 255
15.790000 1.700000 23.490000 0 255 0
15.910000 2.660000 15.940000 0 255 0
15.885000 2.541700 12.795000 0 255 0
15.695000 3.431200 -0.647500 0 255 255
14.620000 1.780000 20.150000 0 255 0
16.100000 2.500000 21.570000 0 255 0
15.870000 2.320000 16.610001 0 255 0
14.490000 3.520000 -0.730000 0 255 0
15.153300 3.593300 0.146700 0 255 0
15.390000 3.740000 -0.245000 0 255 255
15.390000 3.478000 15.760000 0 255 0
15.230000 2.760000 7.730000 255 0 0
15.235000 2.631700 -1.000000 0 255 0
15.256000 2.522000 5.498000 255 0 0
15.238800 2.677500 14.216300 255 0 0
15.231300 2.484100 2.361700 0 255 0
14.844000 2.525800 -0.591000 255 0 0
16.153299 2.480000 -0.726700 0 255 0
15.800000 1.570000 13.440000 0 255 0
14.533800 2.980800 -0.444600 0 255 0
16.049999 1.880000 21.590000 0 255 0
16.030001 3.110000 -0.450000 0 255 255
14.632000 2.594000 17.666000 0 255 0
15.230000 3.227500 15.872500 0 255 0
14.890000 2.760000 -1.120000 0 255 0
15.055000 2.965000 11.445000 0 255 0
15.896700 2.038300 -0.985000 0 255 0
14.920000 1.810000 -1.480000 0 255 0
15.840000 2.075000 20.145000 0 255 0
14.390000 2.970000 18.660000 0 255 0
14.560000 3.100000 -0.200000 0 255 0
15.470000 2.780000 23.200001 0 255 0
14.090000 2.130000 -0.870000 0 255 255
16.191700 2.480000 -0.505000 0 255 255
14.990000 2.330000 2.870000 0 255 0
15.760000 3.260000 21.520000 0 255 0
16.290001 2.090000 23.299999 0 255 0
15.241500 2.669200 1.160000 255 0 0
15.236300 2.725000 4.401300 255 0 0
14.641500 1.576600 -0.843200 0 255 255
14.940000 2.460000 20.430000 0 255 0
16.020000 2.560000 20.549999 0 255 0
14.930000 2.250000 17.850000 0 255 0
14.950000 2.275000 21.110001 0 255 0
14.360000 2.660000 17.740000 0 255 0
15.470000 1.610000 20.760000 0 255 0
14.441700 1.933300 19.298300 0 255 0
13.842500 2.870000 -0.933700 0 255 255
16.330000 2.220000 21.330000 0 255 0
16.150000 2.230000 22.920000 0 255 0
15.220000 2.460000 10.870000 255 0 0
15.256000 2.588000 4.561000 255 0 0
15.675000 3.215000 24.030001 0 255 0
15.693100 3.581300 0.356900 0 255 255
14.878200 3.688800 -0.096500 0 255 0
14.600000 1.570000 22.990000 0 255 0
14.393500 3.343500 -0.535300 0 255 0
15.270000 3.440000 20.330000 0 255 0
15.440000 1.810000 20.320000 0 255 0
15.730000 2.980000 -0.550000 0 255 0
15.083300 2.963300 -0.983300 0 255 0
15.280000 2.700000 8.815000 255 0 0
15.280000 2.730000 5.550000 0 255 0
15.436700 2.486700 15.106700 255 0 0
15.271800 2.581800 2.854500 255 0 0
15.285000 2.772500 15.122500 0 255 0
14.385000 2.330000 -0.880000 0 255 0
15.045500 3.784500 -0.539100 0 255 0
15.730000 1.830000 16.090000 0 255 0
16.090000 3.100000 -0.510000 0 255 255
14.351700 3.080000 -0.580000 0 255 0
15.550000 2.600000 14.880000 0 255 0
15.540000 2.240000 18.080000 0 255 0
15.546700 2.316700 24.350000 0 255 0
16.186899 2.434600 -0.736200 0 255 0
14.860000 3.435000 -0.695000 0 255 0
15.395000 3.475000 15.870000 0 255 0
15.400000 1.680000 22.020000 0 255 0
14.853700 2.440000 -0.893800 0 255 0
14.860000 2.010000 24.389999 0 255 0
14.850000 2.660000 2.200000 255 0 0
14.905000 3.135000 15.725000 0 255 0
14.910000 2.774300 -0.202900 255 0 0
15.150000 3.790000 0.650000 0 255 0
15.610000 2.400000 -0.610000 0 255 0
14.575400 1.577700 -0.802300 0 255 255
14.493300 2.926700 18.520000 0 255 0
15.092400 3.375900 -0.688200 0 255 0
14.790000 2.840000 -0.795000 0 255 0
15.431400 3.532900 -0.195700 0 255 0
16.090000 3.025000 20.825001 0 255 0
15.820000 2.550000 16.510000 0 255 0
15.990000 3.150000 -0.360000 0 255 255
16.084999 3.225000 -0.725000 0 255 255
15.953300 2.430000 -0.703300 0 255 0
14.742500 1.795000 -0.960000 0 255 0
16.040001 1.870000 21.700001 0 255 0
16.035000 3.130000 -0.345000 0 255 255
15.570000 2.560000 20.459999 0 255 0
16.200001 1.995000 12.760000 0 255 0
14.330000 3.438000 -0.586000 0 255 0
16.049999 3.090000 -0.420000 0 255 255
15.695000 1.520000 21.475000 0 255 0
15.840000 2.750000 -0.550000 0 255 0
14.360000 3.000000 18.750000 0 255 0
15.400000 1.640000 17.730000 0 255 0
15.750000 1.510000 23.330000 0 255 0
15.640000 2.870000 -0.460000 0 255 0
15.502000 2.482000 19.212000 0 255 0
14.283900 1.827900 -0.895700 0 255 255
14.791700 3.833300 0.105800 0 255 255
14.670000 1.920000 20.639999 0 255 0
14.842900 3.827100 -0.382900 0 255 0
14.990000 2.540000 24.639999 0 255 0
15.650000 1.520000 20.690001 0 255 0
14.695000 1.915000 20.700001 0 255 0
16.120001 2.480000 -1.040000 0 255 0
16.150000 2.745000 15.265000 0 255 0
15.495000 2.625000 16.145000 0 255 0
15.950000 1.710000 13.440000 0 255 0
14.290000 2.474000 -0.934000 0 255 0
14.760000 2.520000 17.230000 0 255 0
15.643300 2.323300 -1.136700 0 255 0
15.633300 2.546700 11.510000 0 255 0
15.220000 2.710000 0.270000 255 0 0
14.520000 3.080000 21.150000 0 255 0
15.380000 1.640000 23.570000 0 255 0
15.420000 2.080000 18.740000 0 255 0
15.546700 2.523300 17.150000 0 255 0
15.810000 3.480000 17.370001 0 255 0
14.446700 2.123300 -0.903300 0 255 0
14.260000 3.000000 20.030001 0 255 0
14.376700 2.636700 0.403300 0 255 0
14.780000 2.240000 23.320000 0 255 0
15.930000 3.260000 -0.560000 0 255 255
16.049999 2.425800 -0.640800 0 255 0
14.786700 3.773300 -0.380000 0 255 0
15.742000 2.532000 12.846000 0 255 0
14.393300 1.983300 -1.103300 0 255 255
14.630000 1.670000 23.469999 0 255 0
15.720000 1.850000 12.340000 0 255 0
16.423300 2.533300 15.210000 0 255 0
16.090000 2.840000 15.915000 0 255 0
14.310000 3.120000 -0.460000 0 255 0
16.136700 1.723300 20.773300 0 255 0
15.386300 3.624200 0.206700 0 255 0
16.240000 2.690000 19.639999 0 255 0
15.710000 2.470000 17.309999 0 255 0
15.700000 1.800000 24.040001 0 255 0
15.490000 1.750000 19.170000 0 255 0
14.787700 3.436200 -0.393800 0 255 0
14.244300 3.125700 -0.933900 0 255 0
14.540500 3.630500 -0.290900 0 255 0
15.390000 2.640000 12.410000 0 255 0
15.330000 2.650000 12.430000 255 0 0
15.335000 2.581700 9.260000 255 0 0
15.350000 2.745000 19.969999 0 255 0
15.380000 2.500000 23.100000 0 255 0
15.442000 2.036000 14.744000 0 255 0
16.206699 2.350000 -0.753300 0 255 0
16.230000 2.765000 15.365000 0 255 0
16.184999 2.530000 -0.730000 0 255 255
14.210000 2.320000 17.645000 0 255 0
14.335700 3.370700 -0.496400 0 255 0
14.743300 3.230000 -0.450000 0 255 0
14.950000 2.950000 18.504999 0 255 0
15.600000 3.610000 -0.200000 0 255 255
15.585000 3.040000 11.275000 0 255 0
15.610000 3.235000 24.305000 0 255 0
15.070000 1.600000 -1.110000 0 255 0
15.790000 2.930000 11.630000 0 255 0
15.938800 2.925000 -0.435000 0 255 255
14.470000 2.330000 -0.820000 0 255 0
14.392500 2.492500 -1.000000 0 255 0
14.742900 2.280000 -0.844300 0 255 0
15.635000 2.785000 -0.675000 0 255 0
14.930000 3.766700 -0.046700 0 255 0
15.560000 2.520000 15.670000 0 255 0
15.536200 2.632300 -0.885400 0 255 0
15.240000 3.850000 -0.650000 0 255 0
15.060000 3.640000 0.270000 0 255 0
15.245000 3.438300 -0.300000 0 255 0
15.745000 3.165000 17.360001 0 255 0
14.420000 1.700000 19.650000 0 255 0
15.560000 2.480000 14.450000 0 255 0
15.545000 2.570000 20.975000 0 255 0
15.532500 3.575000 -0.257500 0 255 255
14.689200 3.429200 -0.436700 0 255 0
14.450000 2.780000 18.709999 0 255 0
14.420000 2.540000 15.210000 0 255 0
15.570000 1.480000 23.530001 0 255 0
14.786300 1.685000 -1.140000 0 255 0
16.025000 2.630000 16.355000 0 255 0
15.640000 1.440000 23.650000 0 255 0
15.650000 1.400000 20.520000 0 255 0
15.626200 2.030800 12.223100 0 255 0
14.285700 1.742900 -0.797100 0 255 255
15.296700 2.620000 17.410000 255 0 0
14.590000 1.750000 20.799999 0 255 0
15.880000 1.580000 21.520000 0 255 0
15.560000 2.770000 23.879999 0 255 0
14.930000 3.200000 18.290001 0 255 0
15.330000 2.550000 20.090000 255 0 0
15.346000 2.430000 13.360000 255 0 0
15.492700 3.427300 0.210300 0 255 0
14.604500 3.432700 18.506399 0 255 0
15.154000 3.692000 0.344000 0 255 0
14.482000 2.592000 -0.994000 0 255 0
15.130000 2.770000 0.640000 255 0 0
15.560000 2.690000 14.650000 0 255 0
14.890000 2.900000 -0.660000 0 255 0
14.960000 2.780000 5.670000 255 0 0
14.790000 2.250000 21.990000 0 255 0
14.770000 2.600000 -0.050000 0 255 0
14.540000 3.293000 -0.536000 0 255 0
14.306000 2.015000 -0.894000 0 255 255
15.650000 1.570000 23.525000 0 255 0
16.190001 2.360000 17.719999 0 255 0
16.330000 2.180000 15.770000 0 255 0
15.340000 1.700000 17.230000 0 255 0
14.240300 3.371600 -0.486800 0 255 0
15.930000 2.320000 24.100000 0 255 0
15.992500 2.887500 -0.232500 0 255 255
15.740000 2.773300 24.146700 0 255 0
15.448300 1.815000 -1.296700 0 255 0
13.847500 2.881500 -0.841500 0 255 255
14.310000 2.940000 -0.750000 0 255 0
14.990000 3.185000 18.205000 0 255 0
15.850000 2.360000 19.930000 0 255 0
16.129999 2.770000 -1.150000 0 255 255
16.285000 2.570000 18.764999 0 255 0
15.160000 3.470000 0.060000 0 255 0
16.230000 2.850000 15.260000 0 255 0
14.150000 2.970000 17.610001 0 255 0
15.810000 2.460000 15.930000 0 255 0
15.127500 1.625000 -1.292500 0 255 0
15.500000 2.920000 -0.370000 0 255 0
16.123301 2.780000 20.716700 0 255 0
16.129999 2.840000 23.969999 0 255 0
15.630000 1.585000 22.212500 0 255 0
16.170000 1.760000 13.390000 0 255 0
15.038300 1.632200 -1.296100 0 255 0
14.590000 2.830000 -0.195000 0 255 0
14.190800 3.473100 -0.193800 0 255 255
15.805000 3.435000 17.475000 0 255 0
14.400000 1.830000 19.340000 0 255 0
14.450000 1.735000 20.010000 0 255 0
14.775000 2.930000 17.360001 0 255 0
14.786000 3.036000 -0.632000 0 255 0
14.890000 3.781000 -0.341000 0 255 0
15.933300 2.273300 -0.923300 0 255 0
15.630000 1.890000 -1.200000 0 255 0
14.970000 2.560000 24.650000 0 255 0
15.185000 2.080000 24.415001 0 255 0
15.185000 2.130000 21.270000 0 255 0
15.170000 2.250000 14.770000 0 255 0
14.389000 1.775000 19.507999 0 255 0
15.550000 2.600000 14.930000 0 255 0
15.540000 2.315000 24.309999 0 255 0
15.795400 3.466900 1.117700 0 255 255
15.850000 2.943300 -0.840000 0 255 0
14.820000 2.380000 -0.820000 0 255 0
14.845000 2.125000 21.200001 0 255 0
15.575000 3.200000 0.490000 0 255 0
15.610000 2.940000 16.370001 0 255 0
15.650000 2.525000 17.209999 0 255 0
16.004999 2.335000 -0.750000 0 255 0
15.785200 1.826100 -1.199000 0 255 0
15.499100 2.088200 -1.239100 0 255 0
14.700000 2.870000 19.799999 0 255 0
14.970000 3.016700 -0.973300 0 255 0
14.470000 2.810000 18.150000 0 255 0
14.500000 2.530000 -0.995000 0 255 0
14.489700 1.779700 20.006201 0 255 0
16.059999 1.830000 16.990000 0 255 0
14.925000 2.045000 -1.287500 0 255 0
15.820000 3.350000 1.260000 0 255 255
14.910000 3.160000 17.330000 0 255 0
14.880000 3.330000 20.559999 0 255 0
14.525000 1.865000 20.065001 0 255 0
14.446700 3.333300 -0.490000 0 255 0
14.310000 2.430000 20.790001 0 255 0
15.634000 3.240000 0.403000 0 255 255
15.650000 2.935700 20.014299 0 255 0
16.080000 2.650000 20.820000 0 255 0
15.690000 2.985000 20.139999 0 255 0
15.660000 2.570000 15.570000 0 255 0
15.650000 3.325000 -0.142500 0 255 255
15.895000 3.340000 21.415001 0 255 0
14.544300 3.550000 0.001400 0 255 0
14.392500 2.927500 -0.750000 0 255 0
14.840000 2.620000 1.450000 255 0 0
15.134200 2.779500 1.710200 0 255 0
15.875000 3.030000 16.420000 0 255 0
14.550000 2.370000 17.580000 0 255 0
15.787500 2.190000 -0.605000 0 255 0
14.580000 1.560000 20.219999 0 255 0
14.735600 3.686900 -0.200600 0 255 0
15.600000 2.910000 -0.420000 0 255 0
14.388200 3.485500 -0.378200 0 255 0
14.290000 1.930000 20.608900 0 255 0
15.650000 2.530000 17.150000 0 255 0
14.680000 3.042000 -0.806000 0 255 0
15.685000 3.175000 -0.920000 0 255 0
14.431700 3.438300 -0.933300 0 255 0
15.950000 2.580000 16.139999 0 255 0
15.170000 1.560000 15.740000 0 255 0
14.181400 2.825700 -0.904300 0 255 0
15.545000 2.427900 -1.031400 0 255 0
14.290000 2.310000 15.610000 0 255 0
14.456700 3.713300 -0.700000 0 255 255
15.160000 2.580000 24.010000 0 255 0
15.940000 2.315000 -0.495000 0 255 0
14.530000 2.280000 15.380000 0 255 0
14.936700 2.781000 -0.238500 255 0 0
16.046700 3.080000 17.366699 0 255 0
15.698300 1.585000 23.514999 0 255 0
14.930000 2.970000 15.720000 0 255 0
15.990000 2.776700 -0.970000 0 255 0
14.650000 3.130000 20.190001 0 255 0
15.580000 3.280000 20.250000 0 255 0
15.580500 3.574300 0.458100 0 255 255
14.840000 3.367500 16.062500 0 255 0
15.635000 2.720000 14.775000 0 255 0
15.643600 2.679100 11.600900 0 255 0
15.840000 1.520000 13.180000 0 255 0
15.720000 2.350000 -0.450000 0 255 0
16.180000 2.730000 -0.220000 0 255 255
15.635000 2.037500 -1.237500 0 255 0
14.435000 2.625000 -1.070000 0 255 0
15.050000 2.940000 8.750000 0 255 0
14.287800 1.931700 -1.037800 0 255 255
14.833300 2.243300 18.350000 0 255 0
14.830000 2.140000 -0.810000 0 255 0
14.830000 3.320000 23.730000 0 255 0
14.956700 3.543300 -0.443300 0 255 0
15.320000 1.700000 24.420000 0 255 0
14.880000 3.380000 20.580000 0 255 0
15.343300 3.666700 -0.043300 0 255 0
15.580000 2.845000 20.190001 0 255 0
15.743300 2.676700 16.400000 0 255 0
15.340000 3.340000 20.205000 0 255 0
15.390000 1.920000 20.200001 0 255 0
15.910000 3.120000 -0.260000 0 255 255
14.530000 3.510000 13.310000 0 255 0
14.695000 2.795000 18.575001 0 255 0
14.556700 3.583300 -0.530000 0 255 0
14.350000 1.710000 19.980000 0 255 0
15.253700 2.578800 4.013800 255 0 0
15.338300 2.688300 12.556700 255 0 0
15.380000 2.570000 12.560000 255 0 0
15.340000 2.625700 10.270000 255 0 0
14.783300 2.183300 -0.790000 0 255 0
14.788300 3.488300 15.820000 0 255 0
14.280000 3.071100 -0.788900 0 255 0
15.746700 1.883300 -1.203300 0 255 0
14.955000 1.670000 24.344999 0 255 0
14.891700 2.987500 -0.597500 0 255 0
15.287000 3.829000 -0.034000 0 255 255
15.000000 1.720000 23.080000 0 255 0
15.685300 3.180600 -0.240600 0 255 0
15.740000 3.450000 0.565000 0 255 255
14.470000 3.050000 18.730000 0 255 0
15.740000 1.790000 13.470000 0 255 0
15.720000 1.860000 19.760000 0 255 0
14.652000 2.778000 -0.654000 0 255 0
15.993900 2.880700 -0.540400 0 255 255
16.160000 2.810000 16.070000 0 255 0
15.210000 1.930000 15.570000 0 255 0
15.375000 2.425000 12.530000 255 0 0
15.490000 1.400000 20.660000 0 255 0
15.333300 2.430000 12.169200 255 0 0
16.100000 2.290000 22.900000 0 255 0
15.887500 2.677500 20.700001 0 255 0
14.740000 2.430000 17.420000 0 255 0
15.270000 2.600000 19.170000 255 0 0
15.290000 2.620000 15.920000 255 0 0
15.295000 2.515000 9.420000 255 0 0
15.428000 2.716000 9.426000 0 255 0
15.280000 2.740000 21.280001 0 255 0
15.430000 1.840000 19.980000 0 255 0
15.710000 1.540000 21.760000 0 255 0
15.740000 2.785000 -0.425000 0 255 0
14.860000 2.760000 -0.596700 255 0 0
14.549000 3.478000 -0.600000 0 255 0
15.320000 2.560000 6.260000 255 0 0
15.343300 2.673300 13.420000 255 0 0
15.381500 2.637700 9.418500 0 255 0
15.342400 2.633500 9.417100 255 0 0
15.780000 1.842000 -1.088000 0 255 0
15.997500 2.040000 -1.095000 0 255 0
15.760000 2.610000 16.520000 0 255 0
15.555000 3.635000 0.100000 0 255 255
15.490000 3.285400 0.000000 0 255 0
15.995000 3.237500 -0.455000 0 255 255
14.900000 2.940000 -0.600000 0 255 0
16.294500 2.684500 15.260000 0 255 0
16.010000 2.820000 -0.690000 0 255 255
16.209999 2.800000 16.219999 0 255 0
15.280000 2.450000 6.970000 255 0 0
15.275000 2.400000 10.200000 255 0 0
15.500000 2.150000 19.570000 0 255 0
14.976700 3.693300 -0.536700 0 255 0
15.741400 3.285700 -0.480000 0 255 255
15.800000 2.750000 17.410000 0 255 0
15.770000 2.180000 23.950001 0 255 0
15.546400 3.129600 -0.242000 0 255 0
14.780000 2.790000 18.510000 0 255 0
14.736700 3.573300 -0.393300 0 255 0
14.910000 2.770000 2.200000 255 0 0
14.890000 2.820000 -1.050000 0 255 0
15.635000 3.625000 -0.330000 0 255 255
14.200000 2.510000 -0.770000 0 255 255
14.656700 3.723300 0.043300 0 255 0
15.750000 3.410000 1.080000 0 255 255
14.290900 3.273600 -0.781800 0 255 0
14.435000 1.775000 19.250000 0 255 0
14.843300 2.750000 21.093300 0 255 0
14.900000 2.450000 -0.560000 255 0 0
14.910000 2.550000 5.980000 255 0 0
15.720000 2.610000 21.990000 0 255 0
15.740000 3.100000 -0.055000 0 255 0
15.387500 3.385000 -0.072500 0 255 0
15.140000 1.310000 17.450001 0 255 0
14.740000 3.150000 -0.990000 0 255 0
15.520000 1.620000 22.049999 0 255 0
15.280000 2.735000 7.505000 255 0 0
15.295000 2.682500 10.657500 255 0 0
15.450000 2.465000 17.165001 0 255 0
15.285000 2.577500 7.312500 255 0 0
15.275000 2.624000 4.171000 255 0 0
15.296700 2.776700 17.160000 0 255 0
14.140000 2.030500 -1.085600 0 255 255
15.546000 2.720000 23.204000 0 255 0
15.425000 3.485000 -0.305000 0 255 0
14.400000 1.950000 20.770000 0 255 0
15.895000 2.340000 18.205000 0 255 0
15.880000 2.490000 21.440001 0 255 0
14.280000 2.270000 17.490000 0 255 0
14.444400 3.522200 -0.534400 0 255 0
14.285000 2.240000 20.745001 0 255 0
14.210000 3.315000 13.510000 0 255 0
15.136000 2.832000 -0.446000 255 0 0
16.230000 2.260000 21.430000 0 255 0
14.890000 2.270000 21.520000 0 255 0
14.775000 3.440000 -0.095000 0 255 0
14.310000 2.800000 17.490000 0 255 0
14.670000 2.960000 18.170000 0 255 0
14.685000 3.100000 -0.970000 0 255 0
14.690000 2.937500 21.307501 0 255 0
14.440000 1.780000 20.670000 0 255 0
14.786400 3.674500 -0.503600 0 255 0
14.838500 3.730000 -0.289200 0 255 0
16.183300 2.230000 17.916700 0 255 0
14.832500 3.530000 -0.247500 0 255 0
15.270000 2.550000 3.600000 255 0 0
15.440000 2.600000 17.530001 0 255 0
15.310000 2.610000 10.100000 255 0 0
15.280000 2.482500 6.862500 255 0 0
16.142000 2.490000 17.261999 0 255 0
14.584000 1.574000 19.959999 0 255 0
14.995000 3.483300 15.715000 0 255 0
14.983300 3.533300 -0.953300 0 255 0
15.350000 3.420000 -0.537500 0 255 0
15.135000 2.760000 6.850000 255 0 0
15.139200 2.747700 3.605400 255 0 0
14.901200 3.217500 -0.796200 0 255 0
14.895000 2.825000 24.514999 0 255 0
15.470000 2.430000 19.180000 0 255 0
14.980000 2.080000 22.850000 0 255 0
15.010000 2.140000 19.240000 0 255 0
15.210000 2.700000 3.440000 255 0 0
15.198000 2.742000 0.314700 255 0 0
14.700000 2.381300 -1.088800 0 255 0
15.042700 3.124500 -0.645500 0 255 0
15.040000 2.840000 10.010000 0 255 0
15.780000 2.430000 16.469999 0 255 0
15.170000 1.580000 17.389999 0 255 0
15.285000 3.171700 -0.781700 0 255 0
15.420000 2.070000 -0.780000 0 255 0
15.460000 1.640000 20.450001 0 255 0
15.846700 3.523300 -0.636700 0 255 255
14.588700 3.582500 -0.382500 0 255 0
14.570000 3.230000 22.100000 0 255 0
15.230000 3.280000 -0.660000 0 255 0
15.241400 3.522900 15.952100 0 255 0
15.380000 2.590000 9.370000 255 0 0
15.330000 2.710000 12.600000 255 0 0
15.350000 2.670000 9.360000 0 255 0
15.385000 2.530000 12.620000 255 0 0
14.743500 2.125500 -1.034500 0 255 0
14.500000 3.060000 21.290001 0 255 0
14.800000 3.830000 0.260000 0 255 255
15.800000 3.016700 -1.030000 0 255 0
15.790000 1.860000 24.190001 0 255 0
14.245700 1.977200 -0.984800 0 255 255
14.290000 1.960000 20.530001 0 255 0
14.290000 1.940000 23.639999 0 255 0
14.537000 3.726000 -0.888000 0 255 255
13.835000 2.636000 -0.801000 0 255 255
14.346700 3.163300 -0.943300 0 255 0
16.120001 2.490000 17.680000 0 255 0
15.894500 2.073600 -1.239100 0 255 0
15.400000 3.430000 20.389999 0 255 0
14.355000 2.875000 20.410000 0 255 0
14.710000 2.130000 20.549999 0 255 0
16.034300 2.284800 -0.839100 0 255 0
15.252000 2.642000 4.916000 255 0 0
15.241700 2.468300 8.066700 255 0 0
15.257000 2.575300 1.755700 255 0 0
14.750000 3.770000 0.590000 0 255 0
15.942500 2.032500 -1.037500 0 255 0
15.933700 1.980000 -1.190000 0 255 0
14.690000 2.170000 21.990000 0 255 0
15.835000 2.631700 18.612499 0 255 0
14.890000 3.330000 20.625000 0 255 0
15.290000 2.160000 17.070000 0 255 0
15.300000 2.350000 20.750000 255 0 0
15.796000 3.510000 1.318000 0 255 255
14.770000 3.330000 23.510000 0 255 0
15.800000 1.820000 13.390000 0 255 0
15.800000 2.400000 19.950001 0 255 0
14.744100 3.078300 -0.598600 0 255 0
16.235001 2.395000 15.755000 0 255 0
15.410000 3.280000 20.309999 0 255 0
14.945000 2.760000 2.250000 255 0 0
15.692500 3.082500 17.355000 0 255 0
13.970000 2.870000 -0.700000 0 255 255
16.094999 2.631700 -1.053300 0 255 0
16.080000 2.760000 15.240000 0 255 0
15.498800 2.632500 -0.892500 0 255 0
16.350000 2.370000 17.520000 0 255 0
16.299999 2.772500 15.150000 0 255 0
15.485000 2.600000 15.065000 0 255 0
15.626700 2.583300 21.959999 0 255 0
15.640000 2.665000 15.670000 0 255 0
14.420000 3.550000 -0.060000 0 255 255
14.581100 2.428900 -0.990000 0 255 0
14.570000 2.120000 17.830000 0 255 0
15.560000 3.170000 -0.285000 0 255 0
15.530000 2.620000 15.540000 0 255 0
15.953300 3.026700 -0.773300 0 255 255
15.730000 1.740000 23.530001 0 255 0
14.538600 2.474300 -1.130000 0 255 0
16.059999 3.070000 -0.310000 0 255 255
15.670000 2.350000 -0.450000 0 255 0
15.120000 2.270000 18.680000 0 255 0
15.160000 1.575000 -1.110000 0 255 0
15.910000 2.400000 17.240000 0 255 0
16.000000 2.660000 -0.487500 0 255 0
14.855000 2.490000 -0.400000 255 0 0
15.191700 2.738900 1.670000 255 0 0
15.142700 2.470000 0.210300 255 0 0
14.670000 1.600000 22.010000 0 255 0
14.685300 1.937900 -0.939500 0 255 0
16.030001 2.530000 -0.410000 0 255 0
15.770000 1.550000 23.610001 0 255 0
14.140800 2.180000 -1.138500 0 255 255
15.870000 1.750000 23.910000 0 255 0
15.620000 2.360000 -1.030000 0 255 0
15.850000 2.943300 -0.900000 0 255 0
15.730000 2.892700 -0.739100 0 255 0
15.983300 3.134400 -0.646700 0 255 255
15.958000 2.498000 -0.800000 0 255 0
15.675000 2.435000 17.059999 0 255 0
15.695000 2.945000 -0.340000 0 255 0
14.300000 3.440000 -0.900000 0 255 0
14.890000 3.080000 23.270000 0 255 0
14.795000 2.832500 17.504999 0 255 0
14.170000 1.910000 -0.890000 0 255 255
16.126699 2.446700 -0.543300 0 255 0
15.640000 2.225000 11.555000 0 255 0
14.630000 2.150000 17.459999 0 255 0
13.860000 2.500000 -0.800000 0 255 255
15.935000 3.025000 -0.495000 0 255 255
14.633800 1.723800 -0.893800 0 255 255
14.520000 2.220000 -0.690000 0 255 0
15.905000 2.080000 -1.055000 0 255 0
15.635000 2.270000 24.469999 0 255 0
15.910000 1.740000 21.700001 0 255 0
15.305000 2.650000 11.005000 255 0 0
15.293600 2.479100 7.950900 255 0 0
15.275900 2.534500 4.705000 255 0 0
16.094999 2.995000 -1.075000 0 255 255
14.775000 1.780000 -0.985000 0 255 0
15.390000 2.450000 12.760000 255 0 0
15.510000 2.660000 21.030001 0 255 0
15.482900 2.827100 11.608600 0 255 0
15.500000 2.630000 13.270000 0 255 0
15.236300 2.725800 1.807000 255 0 0
15.836200 3.037500 -1.031200 0 255 255
16.170000 2.190000 18.290001 0 255 0
15.710000 2.860000 -0.850000 0 255 0
14.620000 2.760000 18.670000 0 255 0
14.670000 2.760000 21.389999 0 255 0
14.920000 2.870000 17.360001 0 255 0
14.830000 1.690000 19.856701 0 255 0
14.850000 1.730000 23.100000 0 255 0
16.240000 1.920000 17.139999 0 255 0
16.010000 1.540000 21.450001 0 255 0
15.100000 2.580000 15.600000 255 0 0
14.720000 1.960000 23.280001 0 255 0
15.080000 2.100000 24.580000 0 255 0
14.590000 3.575000 -0.435000 0 255 0
14.675000 2.090000 18.570000 0 255 0
15.481300 3.430000 11.601200 0 255 0
15.750000 2.635000 11.320000 0 255 0
15.304000 3.672000 0.068000 0 255 0
14.333800 1.837300 -0.989600 0 255 255
16.087999 2.790000 15.968000 0 255 0
16.080000 2.610000 -0.360000 0 255 255
16.040001 2.220000 -0.500000 0 255 0
14.736100 1.879400 -1.097200 0 255 0
16.010000 1.820000 16.980000 0 255 0
15.987000 2.891000 -0.402000 0 255 255
16.230000 2.620000 -0.470000 0 255 255
15.250000 2.468300 8.265000 255 0 0
15.256700 2.633300 5.113300 255 0 0
15.252800 2.580200 1.960200 255 0 0
15.250000 2.316000 -1.238000 0 255 0
14.500000 2.790000 23.920000 0 255 0
15.527500 2.420000 17.607500 0 255 0
16.087500 2.715000 18.605000 0 255 0
15.089100 3.632700 -0.244500 0 255 0
14.880000 3.100000 0.450000 0 255 0
13.860000 2.650000 -0.630000 0 255 255
15.843300 2.536700 19.206699 0 255 0
15.850000 2.820000 -0.340000 0 255 0
16.088900 2.684700 -0.534700 0 255 255
15.990000 2.885000 -0.630000 0 255 255
16.075001 2.270000 18.245001 0 255 0
15.220000 2.713300 11.670000 255 0 0
15.248600 2.684300 8.511400 255 0 0
15.050000 1.840000 24.500000 0 255 0
14.593300 2.123300 20.666700 0 255 0
14.697100 1.725700 20.007099 0 255 0
15.740000 2.540000 16.320000 0 255 0
15.630000 3.240000 17.740000 0 255 0
15.635700 3.321400 11.470000 0 255 0
15.590000 1.975000 18.100000 0 255 0
14.380000 2.833300 17.559999 0 255 0
14.603300 1.633300 19.956699 0 255 0
14.745000 3.735000 0.215000 0 255 0
15.480000 2.430000 24.650000 0 255 0
14.380000 2.920000 18.410000 0 255 0
14.846200 3.828500 0.213800 0 255 0
15.430000 3.620000 -0.510000 0 255 255
15.354000 3.164000 -0.838000 0 255 0
16.086700 2.716700 -1.146700 0 255 255
15.840000 1.900000 20.160000 0 255 0
15.245000 2.720000 7.475000 255 0 0
15.243800 2.685600 4.310600 255 0 0
15.485700 3.577100 0.215000 0 255 255
14.658000 1.824000 -0.838000 0 255 0
14.640000 1.583300 22.010000 0 255 0
16.070000 3.080000 23.719999 0 255 0
15.500000 2.020000 24.080000 0 255 0
15.186000 3.684000 -0.390000 0 255 0
14.610000 2.030000 23.350000 0 255 0
15.170000 1.430000 17.200001 0 255 0
15.190000 3.700000 0.610000 0 255 0
15.139100 2.425800 1.559900 255 0 0
15.210000 2.585000 3.965000 255 0 0
15.388000 3.740000 0.058000 0 255 255
14.550000 1.540000 20.719999 0 255 0
15.680000 3.200000 -0.290000 0 255 0
15.070000 2.810000 2.780000 255 0 0
16.180000 2.590000 -0.956700 0 255 255
15.880800 2.485000 -0.998300 0 255 0
15.490000 3.345000 11.270000 0 255 0
15.970000 3.350000 -0.150000 0 255 255
14.735700 3.282900 17.457100 0 255 0
14.730000 3.385000 23.760000 0 255 0
14.310000 3.110000 -0.520000 0 255 0
15.830000 1.540000 18.059999 0 255 0
15.390000 2.010000 -1.370000 0 255 0
15.850000 2.710000 24.450001 0 255 0
16.280001 2.290000 19.700001 0 255 0
14.293300 3.226700 -0.846700 0 255 0
15.030000 2.200000 24.030001 0 255 0
15.293300 2.650000 10.170000 255 0 0
15.272700 2.485500 6.809100 255 0 0
15.280000 2.540000 3.677500 255 0 0
15.300000 2.750000 14.290000 0 255 0
15.430000 2.500000 23.959999 0 255 0
15.332000 3.770000 0.462000 0 255 255
14.083300 3.395000 -0.296700 0 255 255
14.942200 3.327800 -0.596700 0 255 0
15.087500 2.732500 2.062500 255 0 0
14.560000 2.190000 17.840000 0 255 0
14.850000 1.610000 24.209999 0 255 0
15.227100 2.675700 0.009300 255 0 0
15.222000 2.714000 3.170000 255 0 0
15.490000 2.150000 13.550000 0 255 0
15.490000 1.840000 20.330000 0 255 0
15.835000 2.945000 23.309999 0 255 0
14.690000 1.710000 20.820000 0 255 0
15.096500 3.676500 0.112900 0 255 0
15.880500 3.021900 -0.390500 0 255 255
14.610000 1.620000 23.040001 0 255 0
15.055000 3.270000 -0.685000 0 255 0
15.220000 3.600000 -0.540000 0 255 0
14.480000 3.180000 -0.840000 0 255 0
15.383300 3.723300 -0.033300 0 255 255
15.580000 1.950000 21.969999 0 255 0
14.692000 3.632500 -0.243000 0 255 0
14.370000 3.170000 -0.620000 0 255 0
15.930000 3.027500 -0.237500 0 255 255
15.144500 2.473900 0.259700 255 0 0
14.588700 1.683500 -1.037400 0 255 255
15.746700 2.915000 -0.790000 0 255 0
15.740000 2.550000 22.129999 0 255 0
15.640000 2.477500 17.195000 0 255 0
15.950000 2.770000 18.709999 0 255 0
15.345000 2.635000 14.370000 255 0 0
15.340000 2.680000 14.870000 255 0 0
15.350000 2.590000 11.105000 255 0 0
15.325000 2.520000 7.860000 255 0 0
15.360000 2.810000 24.610001 0 255 0
15.253300 2.686700 7.860000 255 0 0
15.220000 2.770000 1.580000 255 0 0
15.232500 2.517500 -1.127500 0 255 0
15.235700 2.721400 11.117100 255 0 0
15.780000 3.020000 -0.890000 0 255 0
15.970000 2.190000 -0.570000 0 255 0
15.936300 2.345000 -0.843800 0 255 0
16.040001 2.310000 -0.420000 0 255 0
15.948300 2.791700 -0.435000 0 255 0
14.440000 2.215000 20.545000 0 255 0
14.450000 2.150000 20.400000 0 255 0
15.183300 2.770000 5.366700 255 0 0
15.188700 2.726000 8.512700 255 0 0
15.183300 2.693300 11.650000 255 0 0
14.635000 1.725000 20.764999 0 255 0
14.640000 1.880000 17.780001 0 255 0
15.380000 2.370000 11.100000 255 0 0
15.440000 2.500000 13.150000 0 255 0
15.275000 2.670000 6.675000 255 0 0
15.660000 3.490000 0.740000 0 255 255
15.240000 2.460000 14.860000 255 0 0
15.225000 2.530000 18.014999 255 0 0
15.260000 2.640000 11.710000 255 0 0
14.740000 3.424300 20.705700 0 255 0
14.080000 2.476000 -1.097000 0 255 255
15.640000 3.364000 11.604000 0 255 0
15.790000 2.442000 -1.094000 0 255 0
15.490000 2.880000 -0.920000 0 255 0
15.945000 2.270000 -0.895000 0 255 0
15.980000 1.740000 23.830000 0 255 0
15.992000 2.886000 -0.750000 0 255 255
16.010000 1.770000 20.450001 0 255 0
14.632500 1.833700 20.616199 0 255 0
15.140000 2.030000 17.520000 0 255 0
16.170000 2.630000 20.770000 0 255 0
15.470000 2.150000 -0.620000 0 255 0
16.040001 2.180000 16.629999 0 255 0
14.520000 2.200000 17.799999 0 255 0
15.644000 3.328000 11.566000 0 255 0
14.385000 1.820000 19.520000 0 255 0
15.900000 2.940000 -0.550000 0 255 255
14.820000 1.780000 -1.135000 0 255 0
14.931300 1.637500 -1.043800 0 255 0
14.335000 1.885000 19.055000 0 255 0
15.208600 2.687100 0.610000 0 255 0
14.436200 2.128300 -0.948300 0 255 0
15.890000 3.110000 -0.010000 0 255 255
14.793300 3.781700 -0.336700 0 255 0
15.070000 3.260000 11.500000 0 255 0
15.320000 2.680000 19.059999 0 255 0
15.390000 2.670000 13.320000 255 0 0
15.340000 2.522000 10.056000 255 0 0
14.836000 1.728000 -1.146000 0 255 0
14.510000 2.250000 17.469999 0 255 0
14.470000 2.170000 20.719999 0 255 0
15.693300 2.640000 16.403299 0 255 0
14.595300 2.134200 -0.984200 0 255 0
14.350000 3.583300 -0.230000 0 255 255
15.295700 1.568600 -1.241400 0 255 0
15.440000 3.240000 20.110001 0 255 0
14.346700 3.081700 -0.494200 0 255 0
14.680000 3.425000 20.605000 0 255 0
15.900000 1.610000 21.530001 0 255 0
15.050000 3.870000 -0.480000 0 255 0
14.400000 3.026700 20.316700 0 255 0
14.541000 1.680000 20.056000 0 255 0
15.920000 2.670000 20.780001 0 255 0
16.033300 2.321700 -0.891700 0 255 0
14.120000 3.420000 -0.110000 0 255 255
15.510000 3.310000 -0.660000 0 255 0
14.230000 1.900000 19.230000 0 255 0
15.210000 2.770000 8.010000 255 0 0
15.188800 2.718200 11.054100 255 0 0
15.190000 2.675000 14.312500 255 0 0
15.183400 2.481300 0.458700 255 0 0
14.975000 3.485000 -0.935000 0 255 0
15.240000 1.686700 17.756701 0 255 0
15.520000 3.250000 20.320000 0 255 0
14.852400 2.633800 0.111800 255 0 0
16.020000 2.290000 -0.460000 0 255 0
15.790000 2.125000 -0.545000 0 255 0
14.390000 2.980000 20.410000 0 255 0
14.920000 1.730000 23.110001 0 255 0
15.740000 2.240000 -0.480000 0 255 0
16.041300 2.786300 -0.548800 0 255 255
14.248000 1.932600 -0.944500 0 255 255
15.983300 2.293300 -0.493300 0 255 0
15.940000 2.826700 -0.526700 0 255 255
15.805000 2.985000 -0.840000 0 255 0
15.150000 2.775000 8.155000 255 0 0
15.140000 2.825000 11.410000 0 255 0
15.984000 2.738000 -0.350000 0 255 0
16.033001 2.827400 -0.491100 0 255 255
15.192900 2.741400 1.862900 255 0 0
15.180000 2.860000 18.180000 0 255 0
14.985200 1.583000 -1.282200 0 255 0
16.100000 2.060000 12.800000 0 255 0
15.900000 2.790000 -0.490000 0 255 0
16.042900 2.737100 -0.498600 0 255 255
16.092800 2.338300 -0.742200 0 255 0
15.475000 2.150000 -1.200000 0 255 0
15.595000 2.045000 -1.243300 0 255 0
15.591300 2.036000 -1.294700 0 255 0
15.491600 1.932800 -1.340800 0 255 0
15.290000 1.870000 -1.450000 0 255 0
15.450000 3.180000 11.600000 0 255 0
15.300000 2.190000 17.910000 0 255 0
15.650000 2.320000 20.139999 0 255 0
16.070000 2.150000 21.350000 0 255 0
15.240000 2.310000 5.480000 255 0 0
15.255000 2.465000 15.345000 255 0 0
15.250000 2.425000 -1.050000 0 255 0
15.236700 2.540000 18.513300 255 0 0
14.890000 1.968600 -1.241400 0 255 0
15.680000 1.450000 19.400000 0 255 0
14.830000 3.310000 21.309999 0 255 0
15.460000 1.960000 20.209999 0 255 0
15.285000 3.282500 20.209999 0 255 0
15.232100 2.672900 1.055700 255 0 0
15.236100 2.720900 4.315200 255 0 0
14.840000 2.290000 17.805000 0 255 0
15.360000 1.900000 20.120001 0 255 0
14.535000 2.175000 20.559999 0 255 0
15.830000 2.300000 14.370000 0 255 0
16.200001 1.780000 13.180000 0 255 0
14.290000 3.120000 20.459999 0 255 0
14.335000 1.940000 -0.850000 0 255 255
14.835700 3.380000 -0.347100 0 255 0
14.500000 3.490000 13.364000 0 255 0
15.630000 1.417500 23.600000 0 255 0
14.725000 1.687500 -1.342500 0 255 0
15.670000 2.290000 22.900000 0 255 0
15.483300 3.470000 -0.783300 0 255 0
15.510000 3.070000 24.500000 0 255 0
16.250000 2.160000 23.330000 0 255 0
14.603300 1.583300 -1.145000 0 255 255
14.270000 2.270000 20.600000 0 255 0
15.325000 2.465000 13.125000 255 0 0
15.040000 1.830000 24.309999 0 255 0
15.050000 1.436700 -1.006700 0 255 0
14.800000 1.935000 24.150000 0 255 0
14.775000 3.670000 -0.580000 0 255 0
15.027500 3.690000 -0.385000 0 255 0
15.040000 1.760000 23.100000 0 255 0
15.141000 2.739000 5.859000 255 0 0
15.150000 2.800000 9.000000 0 255 0
15.150000 3.790000 0.620000 0 255 0
15.170000 3.120000 16.190001 0 255 0
15.190000 3.175000 -0.625000 0 255 0
15.070000 2.110000 -1.150000 0 255 0
15.096700 2.583300 20.996700 0 255 0
15.205300 3.466700 0.004700 0 255 0
15.545000 3.375000 -0.580000 0 255 0
14.350000 2.380000 17.764999 0 255 0
15.730000 2.400000 19.940001 0 255 0
16.070000 2.440000 21.340000 0 255 0
14.590000 3.475900 -0.536500 0 255 0
15.675000 3.330000 20.165001 0 255 0
14.550000 1.822500 -0.887500 0 255 255
14.790000 1.610000 24.209999 0 255 0
14.940000 2.850000 2.960000 0 255 0
14.935300 2.783400 -0.190900 255 0 0
16.133301 2.443300 15.800000 0 255 0
15.000000 2.710000 8.190000 255 0 0
15.485500 3.035500 11.458200 0 255 0
14.502500 2.975000 -0.440000 0 255 0
15.970000 2.150000 -0.650000 0 255 0
15.950000 2.140000 -0.600000 0 255 0
16.045000 2.632500 -1.137500 0 255 0
15.940000 1.915000 -0.730000 0 255 0
15.235000 1.965000 24.455000 0 255 0
14.580000 1.670000 23.010000 0 255 0
15.743300 1.940000 -1.206700 0 255 0
15.638500 1.823100 -1.199200 0 255 0
15.660000 1.520000 17.830000 0 255 0
15.790000 1.800000 14.740000 0 255 0
15.770000 1.730000 17.910000 0 255 0
15.070000 2.660000 24.330000 0 255 0
15.096700 2.273300 -0.993300 0 255 0
15.110000 2.585000 17.820000 255 0 0
15.946200 3.166900 -0.695400 0 255 255
16.256701 2.673300 -0.533300 0 255 255
16.176201 2.438700 -0.445000 0 255 0
14.820000 3.360000 23.840000 0 255 0
16.047300 2.641800 -0.543600 0 255 0
16.035000 2.731700 18.611700 0 255 0
15.870000 2.780000 -0.560000 0 255 0
15.893800 2.682500 18.610001 0 255 0
15.300000 2.570000 18.430000 255 0 0
15.305000 2.460000 12.125000 255 0 0
15.440000 2.986000 -0.940000 0 255 0
15.296700 2.518300 8.961700 255 0 0
15.790000 2.000000 -1.000000 0 255 0
15.940000 1.540000 12.440000 0 255 0
14.242000 3.430000 -0.592000 0 255 0
14.289200 1.835400 -0.985800 0 255 255
14.790000 2.000000 17.610001 0 255 0
15.450000 1.875000 14.455000 0 255 0
15.800000 3.170000 11.620000 0 255 0
15.790000 2.580000 -1.050000 0 255 0
15.810000 2.970000 24.260000 0 255 0
15.630000 2.560000 -0.980000 0 255 0
15.650000 2.580000 -0.945000 0 255 0
16.049999 2.640000 -0.640000 0 255 0
16.040001 2.715000 18.719999 0 255 0
15.595000 1.780000 20.209999 0 255 0
16.230000 2.560000 14.530000 0 255 0
14.775000 3.762500 0.580000 0 255 0
14.477500 2.925000 18.562500 0 255 0
15.133300 2.713300 11.065000 255 0 0
15.025700 3.031400 -0.494300 0 255 0
15.641100 3.136700 -0.278900 0 255 0
14.400000 3.485000 -0.485000 0 255 0
16.010000 2.490000 16.139999 0 255 0
16.084999 2.730000 24.080000 0 255 0
14.620000 2.420000 17.219999 0 255 0
15.176700 2.770000 1.213300 255 0 0
15.190900 2.730900 4.259100 255 0 0
15.235700 2.724300 7.811400 255 0 0
15.243300 2.685000 4.557200 255 0 0
14.602500 1.480000 -0.880000 0 255 255
15.510000 2.250000 16.340000 0 255 0
14.370000 1.890000 19.980000 0 255 0
14.441900 3.530000 -0.293800 0 255 0
16.040001 1.682000 13.448000 0 255 0
15.620000 2.510000 17.129999 0 255 0
14.838300 3.670000 -0.490000 0 255 0
15.642900 1.735700 -1.242900 0 255 0
15.300000 3.677500 0.215000 0 255 0
15.010000 2.400000 -0.300000 255 0 0
14.970000 2.350000 2.980000 255 0 0
14.930000 2.950000 21.430000 0 255 0
14.440000 3.022500 19.352501 0 255 0
14.440000 3.230000 19.590000 0 255 0
14.580000 2.760000 -0.580000 0 255 0
15.550000 3.610000 -0.280000 0 255 255
15.670000 3.370000 20.100000 0 255 0
15.593300 2.486700 14.766700 0 255 0
15.591300 2.325000 -1.136300 0 255 0
15.584200 2.535000 11.505800 0 255 0
15.003300 3.780000 -0.450000 0 255 0
15.640000 2.250000 24.510000 0 255 0
15.637500 2.335000 18.192499 0 255 0
14.440000 3.393300 16.016701 0 255 0
14.670000 3.740000 -0.460000 0 255 255
14.695000 2.660000 -1.075000 0 255 0
14.896000 2.986000 -0.872000 0 255 0
14.880400 2.685200 -0.139600 255 0 0
14.391400 2.520000 -0.840700 0 255 0
15.740000 3.180000 21.730000 0 255 0
15.140000 3.327100 -0.697900 0 255 0
15.636700 2.926700 -0.950000 0 255 0
15.800000 2.520000 17.219999 0 255 0
15.800000 3.240000 23.760000 0 255 0
15.320000 1.570000 17.780001 0 255 0
15.160000 3.550000 11.590000 0 255 0
15.394300 3.728600 0.358600 0 255 255
15.295000 2.610000 17.459999 255 0 0
15.291700 2.441700 4.818300 255 0 0
15.800000 1.730000 21.570000 0 255 0
15.780000 2.072500 -0.637500 0 255 0
15.833300 2.933300 -0.736700 0 255 0
15.300000 2.680000 12.610000 255 0 0
15.280000 2.830000 15.670000 0 255 0
15.420000 2.310000 22.020000 0 255 0
15.420000 2.430000 15.650000 0 255 0
15.287800 2.573300 5.454400 255 0 0
15.446000 2.798000 -0.844000 0 255 0
15.285000 2.717500 9.352500 255 0 0
15.273300 2.618900 2.205600 255 0 0
15.470000 2.870000 -1.040000 0 255 0
15.100000 2.810000 8.440000 0 255 0
15.085000 2.745000 1.962500 255 0 0
15.794300 3.082900 -0.687100 0 255 255
15.798200 3.082700 -0.748200 0 255 255
13.833000 2.727800 -0.585700 0 255 255
15.680000 2.750000 -0.690000 0 255 0
15.981800 2.522700 -0.685500 0 255 0
16.260000 2.880000 21.320000 0 255 0
15.850000 1.980000 -1.085000 0 255 0
15.850000 2.825000 20.670000 0 255 0
14.545000 1.945000 20.655001 0 255 0
15.700000 3.370000 1.300000 0 255 255
15.540000 3.470000 11.170000 0 255 0
14.890000 2.385000 20.565001 0 255 0
14.720000 1.960000 20.850000 0 255 0
14.760000 1.950000 17.690001 0 255 0
16.040001 1.765000 20.570000 0 255 0
15.180000 2.770000 10.790000 255 0 0
15.194400 2.533300 0.805600 255 0 0
