16.760000 -8.960000 21.150000 0 255 0
17.379999 -8.450000 9.630000 0 255 0
17.389999 -8.480000 9.780000 0 255 0
16.600000 -8.920000 3.490000 0 255 0
16.580000 -9.080000 12.980000 0 255 0
17.110001 -9.660000 9.740000 0 255 0
16.434999 -8.280000 20.250000 0 255 0
16.580000 -8.027500 -3.125000 0 255 0
16.350000 -7.805000 16.415001 0 255 0
16.145000 -7.740000 16.469999 0 255 0
17.290001 -9.440000 20.610001 0 255 0
16.309999 -8.060000 -2.850000 0 255 255
17.586700 -9.233300 6.766700 0 255 0
16.010000 -9.020000 20.490000 0 255 0
15.970000 -8.970000 17.270000 0 255 0
17.260000 -8.410000 17.940001 0 255 0
17.330000 -7.550000 11.550000 0 255 0
17.344999 -7.470000 18.059999 0 255 0
17.320000 -8.240000 20.980000 0 255 0
17.540001 -9.240000 15.100000 0 255 0
15.910000 -8.610000 10.570000 0 255 0
17.440001 -9.075000 11.920000 0 255 0
17.680000 -9.165000 16.545000 0 255 0
17.025000 -8.820000 6.070000 255 0 0
17.090000 -9.010000 19.950001 0 255 0
16.950001 -9.030000 16.809999 0 255 0
17.373301 -8.680000 9.996700 0 255 0
16.930000 -9.320000 17.660000 0 255 0
16.936701 -9.536700 4.210000 0 255 0
17.510000 -8.410000 14.560000 0 255 0
17.490000 -8.970000 12.055000 0 255 0
17.205000 -8.650000 9.040000 0 255 0
15.950000 -8.106700 17.966700 0 255 0
15.850000 -9.050000 10.670000 0 255 0
16.480000 -9.530000 11.580000 0 255 0
16.139999 -8.170000 8.153300 0 255 0
16.153299 -8.016700 18.049999 0 255 0
16.888000 -9.620000 13.956000 0 255 0
16.383301 -9.403300 17.803301 0 255 0
16.450001 -8.730000 -3.100000 0 255 0
17.395000 -7.965000 21.120001 0 255 0
17.200001 -7.440000 20.160000 0 255 0
15.860000 -8.730000 17.440001 0 255 0
17.045000 -7.810000 15.690000 0 255 0
16.510000 -7.930000 20.959999 0 255 0
16.483299 -8.020000 14.660000 0 255 0
16.570000 -7.650000 14.290000 0 255 0
17.000000 -7.810000 20.480000 0 255 0
16.780001 -9.300000 10.840000 0 255 0
16.843300 -8.816700 -2.785000 0 255 0
16.834999 -8.620000 10.270000 255 0 0
16.840000 -8.650000 19.709999 0 255 0
16.844999 -8.560000 13.397500 255 0 0
15.972000 -8.872000 8.114000 0 255 0
15.893300 -8.636700 21.120001 0 255 0
15.900000 -8.390000 17.809999 0 255 0
16.152000 -7.818000 14.820000 0 255 0
16.730000 -7.840000 -3.440000 0 255 255
16.735001 -8.090000 6.470000 0 255 0
17.891399 -7.972900 8.720000 0 255 0
17.875000 -8.115000 17.799999 0 255 0
17.347500 -8.127500 16.252501 0 255 0
17.059999 -8.560000 15.440000 0 255 0
17.028000 -8.482000 8.948000 255 0 0
16.799999 -8.488600 1.814300 255 0 0
16.795000 -8.525000 4.955000 255 0 0
16.760000 -8.420000 17.450001 0 255 0
16.756001 -8.719000 -1.331000 255 0 0
16.120001 -7.890000 18.160000 0 255 0
16.700001 -8.400000 17.219999 0 255 0
16.702000 -8.760000 1.660000 255 0 0
16.549999 -8.510000 -3.636700 0 255 0
17.750000 -8.530000 9.450000 0 255 0
15.795000 -9.015000 11.110000 0 255 0
16.448299 -8.413300 -2.740000 0 255 0
15.992900 -8.082900 4.461400 0 255 0
15.984300 -8.064300 4.360000 0 255 0
15.900000 -8.020000 4.160000 0 255 0
15.888000 -7.918000 10.668000 0 255 0
17.084999 -8.460000 6.100000 0 255 0
17.820000 -8.490000 16.490000 0 255 0
16.090000 -8.865000 15.915000 0 255 0
16.600000 -9.740000 7.430000 0 255 0
16.290001 -7.660000 16.490000 0 255 0
17.045000 -8.675000 0.965000 255 0 0
17.041201 -8.521300 -1.540000 255 0 0
17.045000 -8.632500 4.207500 0 255 0
16.142500 -8.772500 12.506200 0 255 0
16.139999 -9.010000 -3.300000 0 255 0
17.686701 -8.006700 13.356700 0 255 0
17.080000 -8.110000 19.360001 0 255 0
16.360001 -8.975000 -3.145000 0 255 0
17.487801 -8.370000 9.747800 0 255 0
17.110001 -9.610000 12.450000 0 255 0
17.440001 -7.530000 12.600000 0 255 0
16.139999 -7.890000 7.850000 0 255 0
16.147499 -7.812500 11.225000 0 255 0
17.754999 -8.055000 10.920000 0 255 0
16.170000 -7.866700 14.850000 0 255 0
16.790001 -9.000000 6.270000 0 255 0
16.725000 -8.615000 19.725000 0 255 0
16.070000 -8.990000 18.790001 0 255 0
16.086700 -9.176700 5.766700 0 255 0
16.940001 -8.850000 5.760000 255 0 0
16.940001 -8.610000 21.540001 0 255 0
16.940001 -8.830000 8.912500 0 255 0
16.340000 -7.930000 21.600000 0 255 0
16.590000 -7.990000 12.360000 0 255 0
17.450001 -9.410000 11.340000 0 255 0
17.059999 -8.210000 19.330000 0 255 0
17.270000 -7.880000 20.160000 0 255 0
16.750000 -9.525000 10.110000 0 255 0
16.709999 -7.600000 16.129999 0 255 0
17.990000 -8.465000 12.895000 0 255 0
15.943300 -8.080000 16.306700 0 255 0
16.080000 -8.510000 17.620001 0 255 0
16.985001 -7.432500 20.702499 0 255 0
17.690001 -8.905000 11.515000 0 255 0
16.035000 -8.020000 16.625000 0 255 0
16.680000 -7.580000 15.420000 0 255 0
16.533300 -8.578300 -2.586700 0 255 0
16.299999 -8.190000 7.220000 0 255 0
16.309999 -8.390000 20.260000 0 255 0
16.492201 -7.763300 -3.390000 0 255 255
16.420000 -8.870000 -2.950000 0 255 0
16.969999 -8.420000 14.020000 255 0 0
16.995001 -8.365000 10.525000 0 255 0
17.950001 -8.170000 18.389999 0 255 0
16.900000 -8.990000 19.440001 0 255 0
16.889999 -9.115000 16.315001 0 255 0
16.276699 -9.116700 15.510000 0 255 0
17.549999 -9.340000 14.880000 0 255 0
16.420000 -9.620000 11.750000 0 255 0
17.620001 -8.690000 17.209999 0 255 0
17.629999 -8.430000 20.309999 0 255 0
16.732300 -9.824600 4.351500 0 255 0
16.690001 -7.800000 -2.810000 0 255 255
16.590000 -8.470000 -2.800000 0 255 0
17.420000 -9.420000 9.840000 0 255 0
16.698000 -8.484000 9.024000 0 255 0
16.546700 -8.676700 -3.556700 0 255 0
17.330000 -8.510000 -2.390000 0 255 0
17.386700 -8.060000 8.206700 0 255 0
16.900000 -9.210000 17.500000 0 255 0
15.910000 -9.220000 8.450000 0 255 0
16.886700 -8.826700 -0.740000 255 0 0
16.889999 -8.510000 18.254999 255 0 0
16.885000 -8.575000 8.770000 255 0 0
16.889999 -8.740000 5.590000 255 0 0
16.895000 -8.465000 15.090000 255 0 0
16.889999 -8.380000 21.410000 0 255 0
17.385000 -7.605000 19.280001 0 255 0
16.420000 -8.990000 -3.270000 0 255 0
16.209999 -9.100000 12.670000 0 255 0
16.192499 -8.866300 -3.330000 0 255 0
16.186701 -9.073300 9.303300 0 255 0
17.850000 -8.080000 8.670000 0 255 0
16.090000 -7.890000 7.800000 0 255 0
17.129999 -8.100000 19.059999 0 255 0
17.299999 -8.516000 -2.446000 0 255 0
16.709999 -8.610000 2.580000 255 0 0
16.690001 -8.705000 21.495001 0 255 0
16.670000 -8.840000 15.200000 0 255 0
16.633301 -8.668300 -2.740000 0 255 0
16.629999 -8.190000 17.080000 0 255 0
16.285000 -9.375000 20.355000 0 255 0
16.753300 -8.813300 2.906700 255 0 0
16.733299 -8.530000 -3.630000 0 255 0
16.754999 -8.755000 6.240000 255 0 0
17.150000 -8.020000 14.610000 0 255 0
16.030001 -7.850000 2.540000 0 255 0
16.937500 -8.325000 -3.427500 0 255 0
16.660000 -8.535000 2.250000 255 0 0
17.646700 -9.166700 16.660000 0 255 0
17.700001 -9.110000 14.780000 0 255 0
16.629999 -8.670000 4.910000 0 255 0
16.541401 -7.860000 -3.481400 0 255 0
17.320000 -9.360000 5.550000 0 255 0
16.580000 -8.230000 -3.600000 0 255 0
16.590000 -8.366700 6.310000 0 255 0
16.450001 -8.570000 9.690000 0 255 0
16.743299 -8.711700 -2.488300 255 0 0
16.590000 -8.950000 6.250000 0 255 0
17.453300 -7.703300 10.956700 0 255 0
17.672501 -9.155000 5.957500 0 255 0
17.790001 -8.900000 8.570000 0 255 0
17.594999 -9.265000 14.905000 0 255 0
17.049999 -8.220000 12.220000 0 255 0
17.073299 -8.586700 10.566700 0 255 0
16.796000 -8.518000 -3.274000 0 255 0
16.156700 -9.273300 20.346701 0 255 0
16.535000 -8.010000 12.375000 0 255 0
15.800000 -8.525000 15.245000 0 255 0
17.125000 -7.455000 12.065000 0 255 0
17.860001 -7.830000 18.889999 0 255 0
17.840000 -7.850000 15.770000 0 255 0
17.030001 -8.528000 1.100000 255 0 0
17.049999 -8.750000 10.990000 0 255 0
17.059999 -8.660000 4.690000 255 0 0
17.040001 -8.600000 7.840000 255 0 0
17.042101 -8.563200 -2.038400 255 0 0
17.790001 -7.800000 15.910000 0 255 0
17.120001 -7.630000 11.790000 0 255 0
17.530001 -9.450000 5.820000 0 255 0
17.520000 -9.355000 12.315000 0 255 0
17.030001 -8.400000 1.600000 0 255 0
17.038799 -8.568700 4.761300 255 0 0
17.040001 -8.516700 7.916700 255 0 0
16.719999 -7.430000 13.840000 0 255 0
16.750000 -7.485000 10.730000 0 255 0
17.088301 -8.006700 14.606700 0 255 0
16.469999 -7.630000 15.640000 0 255 0
16.985001 -8.370000 15.605000 0 255 0
16.990000 -8.320000 12.350000 0 255 0
16.990000 -8.460000 21.764999 0 255 0
16.879999 -8.765000 6.490000 255 0 0
16.889999 -8.863300 0.203300 255 0 0
16.905001 -8.575000 19.139999 255 0 0
16.879999 -8.665000 12.840000 255 0 0
16.049999 -8.540000 12.070000 0 255 0
16.040001 -8.483300 15.223300 0 255 0
16.432501 -8.926200 -2.593800 0 255 0
16.436701 -9.470000 13.313300 0 255 0
17.500000 -8.460000 9.760000 0 255 0
17.594999 -7.970000 8.700000 0 255 0
16.980000 -9.430000 9.440000 0 255 0
16.920000 -8.360000 18.990000 0 255 0
16.940001 -8.440000 15.740000 255 0 0
16.933300 -8.506700 9.460000 255 0 0
16.933300 -8.566700 6.346700 255 0 0
16.952499 -8.467500 12.705000 255 0 0
17.184999 -8.165000 20.895000 0 255 0
16.133801 -8.316300 15.398800 0 255 0
15.890000 -8.275000 15.405000 0 255 0
16.969999 -8.830000 0.350000 255 0 0
17.740000 -8.486700 10.713300 0 255 0
15.910000 -8.480000 7.120000 0 255 0
15.910000 -8.365000 13.615000 0 255 0
15.890000 -8.640000 16.520000 0 255 0
16.430000 -8.930000 21.150000 0 255 0
16.440001 -9.190000 17.770000 0 255 0
16.389999 -9.213300 20.820000 0 255 0
16.190001 -7.780000 7.120000 0 255 0
16.180000 -7.910000 16.900000 0 255 0
16.283300 -9.033300 14.966700 0 255 0
16.330000 -7.915000 15.600000 0 255 0
17.030001 -7.440000 18.555000 0 255 0
15.760000 -8.680000 14.000000 0 255 0
16.355000 -8.220000 14.110000 0 255 0
16.337999 -8.322000 7.810000 0 255 0
16.670000 -8.180000 21.330000 0 255 0
16.680000 -8.270000 14.800000 0 255 0
16.690001 -8.810000 -0.670000 255 0 0
16.684700 -8.765900 9.056500 0 255 0
17.440001 -8.440000 9.745000 0 255 0
16.600000 -8.970000 6.200000 0 255 0
16.940001 -8.950000 12.970000 0 255 0
16.940001 -9.040000 9.700000 0 255 0
16.176701 -9.230000 11.510000 0 255 0
15.998000 -8.070000 17.958000 0 255 0
17.320000 -9.450000 11.320000 0 255 0
16.459999 -9.190000 8.600000 0 255 0
16.450001 -8.860000 15.150000 0 255 0
16.523300 -9.570000 7.160000 0 255 0
16.240000 -7.670000 15.620000 0 255 0
16.139999 -8.383300 2.406700 0 255 0
16.139999 -8.163300 15.465000 0 255 0
16.170000 -8.060000 6.530000 0 255 0
16.170000 -8.230000 15.920000 0 255 0
16.430000 -8.980000 21.129999 0 255 0
16.860001 -8.910000 -0.610000 255 0 0
16.831400 -8.557100 8.708600 255 0 0
16.834999 -8.370000 21.365000 0 255 0
16.840000 -8.857000 2.561000 255 0 0
16.830000 -8.613800 5.567500 255 0 0
16.330000 -9.220000 6.340000 0 255 0
16.344999 -8.925000 20.075001 0 255 0
16.790001 -9.116700 11.946700 0 255 0
16.059999 -9.190000 6.440000 0 255 0
16.020000 -9.000000 16.639999 0 255 0
16.170000 -8.080000 13.910000 0 255 0
16.190001 -8.110000 17.139999 0 255 0
16.184000 -8.170000 20.402000 0 255 0
17.070000 -8.570000 4.910000 255 0 0
17.070000 -8.450000 11.430000 0 255 0
17.070000 -8.610000 21.719999 0 255 0
17.336700 -9.275000 6.105000 0 255 0
17.489300 -9.365000 6.770000 0 255 0
16.247499 -8.762500 -3.097500 0 255 0
16.209999 -8.526700 12.013300 0 255 0
17.475000 -9.435000 16.455000 0 255 0
17.497499 -9.162500 13.450000 0 255 0
17.237499 -8.270000 -2.877500 0 255 0
17.236000 -9.028000 13.508000 0 255 0
16.299999 -8.300000 6.180000 0 255 0
16.280001 -8.270000 15.815000 0 255 0
15.760000 -8.980000 10.580000 0 255 0
16.180000 -8.450000 20.730000 0 255 0
15.970000 -8.570000 17.680000 0 255 0
16.010000 -8.620000 20.930000 0 255 0
17.020000 -8.440000 -0.110000 0 255 0
17.049999 -8.610000 12.160000 0 255 0
17.035801 -8.579200 3.257500 255 0 0
17.040001 -8.526700 6.410000 255 0 0
15.935000 -8.955000 15.765000 0 255 0
17.450001 -9.470000 6.640000 0 255 0
16.410000 -9.060000 8.260000 0 255 0
16.396700 -9.163300 14.770000 0 255 0
15.870000 -8.850000 14.900000 0 255 0
16.959999 -7.650000 10.940000 0 255 0
16.934999 -7.624200 14.310800 0 255 0
16.930000 -7.540000 20.870001 0 255 0
16.360001 -8.330000 20.809999 0 255 0
17.020000 -8.140000 -3.150000 0 255 0
16.900000 -8.830000 20.430000 0 255 0
17.480000 -9.220000 6.730000 0 255 0
17.490000 -8.450000 -3.300000 0 255 0
16.330000 -7.780000 15.280000 0 255 0
16.254999 -9.125000 -2.755000 0 255 0
15.928600 -8.871400 8.155700 0 255 0
17.600000 -7.640000 -1.970000 0 255 255
17.600000 -9.080000 14.795000 0 255 0
16.532499 -9.580000 14.247500 0 255 0
17.546000 -8.972000 11.968000 0 255 0
16.480000 -8.475000 11.902500 0 255 0
16.483299 -7.613300 20.920000 0 255 0
17.480000 -9.180000 18.830000 0 255 0
15.682700 -8.429100 4.213600 0 255 0
15.860000 -8.830000 12.670000 0 255 0
17.790001 -8.120000 14.030000 0 255 0
17.791500 -8.069200 10.861500 0 255 0
16.440001 -8.310000 18.010000 0 255 0
16.610001 -8.440000 11.430000 0 255 0
16.590000 -7.720000 18.150000 0 255 0
16.180000 -9.000000 14.900000 0 255 0
17.145000 -7.825000 13.270000 0 255 0
16.900000 -7.650000 8.590000 0 255 0
16.445000 -9.230000 6.360000 0 255 0
16.620001 -8.900000 7.950000 0 255 0
16.660000 -9.120000 20.620001 0 255 0
17.240000 -9.430000 15.530000 0 255 0
16.840000 -9.350000 17.510000 0 255 0
15.750000 -8.570000 13.280000 0 255 0
15.730000 -8.613300 10.096700 0 255 0
17.230000 -9.355000 13.515000 0 255 0
16.889999 -7.960000 -3.300000 0 255 255
16.889999 -7.686700 16.516701 0 255 0
16.670000 -8.660000 12.310000 0 255 0
17.730000 -8.590000 -3.440000 0 255 0
17.584999 -8.020000 13.445000 0 255 0
17.590000 -8.070000 16.490000 0 255 0
16.570000 -7.900000 6.330000 0 255 0
16.940001 -8.330000 20.905001 0 255 0
16.943300 -8.470000 11.503300 255 0 0
16.943600 -8.551800 4.358200 255 0 0
16.934999 -8.512500 8.255000 255 0 0
17.870001 -8.120000 16.930000 0 255 0
17.910000 -8.150000 20.080000 0 255 0
17.326700 -9.506700 9.753300 0 255 0
16.337500 -8.165000 -3.045000 0 255 0
16.336201 -8.014600 6.510000 0 255 0
15.890000 -8.768600 8.000000 0 255 0
17.660000 -8.290000 14.170000 0 255 0
17.049999 -8.650000 -1.620000 255 0 0
17.059999 -8.610000 1.610000 255 0 0
16.075001 -9.280000 8.545000 0 255 0
15.841700 -8.676700 14.808300 0 255 0
17.160000 -7.700000 -3.270000 0 255 255
17.440001 -9.500000 13.710000 0 255 0
17.896700 -8.420000 12.860000 0 255 0
17.231400 -8.224300 7.920000 0 255 0
16.645000 -7.720000 6.060000 0 255 0
16.639999 -8.462900 -3.631400 0 255 0
17.650000 -9.190000 5.240000 0 255 0
17.010000 -9.110000 19.940001 0 255 0
16.143999 -9.368000 6.568000 0 255 0
16.860001 -8.970000 9.740000 0 255 0
16.799999 -8.120000 20.940001 0 255 0
16.870001 -8.440000 -1.180000 255 0 0
16.635000 -7.750000 13.625000 0 255 0
17.254999 -8.630000 -2.375000 0 255 0
17.709999 -8.800000 10.270000 0 255 0
16.559999 -9.480000 12.980000 0 255 0
16.160000 -8.260000 -2.810000 0 255 255
16.500000 -8.065000 -3.433300 0 255 0
16.389999 -9.430000 17.900000 0 255 0
17.634399 -8.970000 6.865600 0 255 0
16.719999 -9.660000 12.680000 0 255 0
17.026699 -7.403300 15.956700 0 255 0
16.422501 -8.467500 -3.442500 0 255 0
16.450001 -7.560000 15.507500 0 255 0
16.700001 -7.612000 -3.230000 0 255 255
15.830000 -8.530000 18.490000 0 255 0
15.850000 -8.560000 15.370000 0 255 0
15.835000 -8.480000 9.230000 0 255 0
16.340000 -9.360000 21.055000 0 255 0
16.340000 -9.080000 15.100000 0 255 0
16.530001 -8.540000 11.920000 0 255 0
16.075001 -9.085000 20.465000 0 255 0
17.879999 -8.090000 14.000000 0 255 0
17.893600 -8.017300 10.763600 0 255 0
16.643299 -7.866700 -3.543300 0 255 255
16.646999 -7.920000 6.452000 0 255 0
17.094999 -7.560000 15.860000 0 255 0
16.433300 -8.073300 17.459999 0 255 0
16.433300 -8.110000 14.213300 0 255 0
16.488001 -8.072000 6.414000 0 255 0
16.480000 -8.130000 9.652500 0 255 0
16.760000 -8.390000 12.870000 0 255 0
17.139999 -8.830000 21.430000 0 255 0
17.309999 -8.810000 20.469999 0 255 0
17.650000 -8.130000 16.770000 0 255 0
16.084999 -9.273700 -3.287500 0 255 255
16.102501 -8.970000 16.665001 0 255 0
17.139999 -9.520000 6.180000 0 255 0
16.879999 -8.760000 2.300000 255 0 0
16.876699 -8.820000 5.453300 255 0 0
16.879999 -8.680000 9.060000 255 0 0
16.900000 -8.740000 12.220000 0 255 0
16.879999 -8.600000 18.530001 255 0 0
16.879999 -8.550000 15.370000 255 0 0
17.639999 -8.175000 12.002500 0 255 0
17.097200 -9.424400 6.001700 0 255 0
16.980000 -7.800000 16.590000 0 255 0
16.389999 -8.990000 15.260000 0 255 0
16.530001 -8.140000 6.270000 0 255 0
17.469999 -9.150000 18.870001 0 255 0
17.670000 -7.673300 10.993300 0 255 0
16.044800 -9.217100 -3.191000 0 255 255
16.020000 -9.260000 6.370000 0 255 0
16.025000 -9.110000 16.570000 0 255 0
16.192499 -8.180000 15.412500 0 255 0
16.650000 -8.370000 15.540000 0 255 0
16.270000 -9.110000 15.220000 0 255 0
16.190001 -8.000000 10.460000 0 255 0
16.200001 -8.060000 13.720000 0 255 0
16.959999 -8.820000 1.015000 255 0 0
16.935499 -8.870000 -2.340000 255 0 0
16.940001 -8.520000 19.796700 255 0 0
16.969999 -9.340000 13.650000 0 255 0
16.004999 -8.440000 18.370001 0 255 0
15.990000 -8.710000 11.820000 0 255 0
16.740000 -9.480000 20.615999 0 255 0
16.205000 -8.270000 9.660000 0 255 0
16.193300 -8.056700 -2.986700 0 255 255
16.549999 -8.820000 9.020000 0 255 0
15.934300 -8.430000 7.164300 0 255 0
16.110001 -8.250000 20.430000 0 255 0
16.110001 -8.480000 6.940000 0 255 0
16.750000 -8.240000 16.180000 0 255 0
16.725000 -8.515000 -3.440000 0 255 0
16.752501 -8.810000 2.705000 255 0 0
16.747999 -8.765000 6.072000 0 255 0
17.379999 -9.260000 15.730000 0 255 0
17.389999 -9.110000 5.975000 0 255 0
17.606701 -9.216700 5.876700 0 255 0
16.594999 -8.930000 21.150000 0 255 0
16.030001 -8.300000 7.870000 0 255 0
16.020000 -8.190000 4.590000 0 255 0
16.650000 -9.570000 11.340000 0 255 0
16.780001 -9.080000 1.720000 0 255 0
16.760000 -8.610000 8.300000 255 0 0
16.740000 -8.830000 21.375000 0 255 0
16.756500 -8.669000 5.054500 255 0 0
16.752001 -8.566000 11.559000 255 0 0
15.786700 -8.720000 14.770000 0 255 0
17.533300 -8.370000 11.813300 0 255 0
17.559999 -8.610000 21.700001 0 255 0
16.540001 -9.220000 20.725000 0 255 0
17.610001 -8.650000 20.889999 0 255 0
17.139999 -8.430000 19.590000 0 255 0
16.735001 -8.560000 -3.345000 0 255 0
16.730000 -8.880000 3.430000 0 255 0
16.730000 -8.220000 18.910000 0 255 0
16.138300 -8.071700 7.268300 0 255 0
16.129999 -7.990000 13.750000 0 255 0
17.040001 -8.330000 10.700000 0 255 0
17.040001 -8.453300 13.810000 255 0 0
17.200001 -9.490000 13.010000 0 255 0
15.743300 -8.683300 11.860000 0 255 0
16.799999 -9.250000 10.700000 0 255 0
16.991699 -8.468300 10.463300 255 0 0
16.309999 -8.970000 10.260000 0 255 0
16.969999 -8.520000 12.490000 255 0 0
16.969999 -8.270000 -3.200000 0 255 0
16.989099 -8.467300 9.464500 255 0 0
16.995001 -8.505000 11.760000 255 0 0
16.980000 -8.660000 21.250000 0 255 0
16.985300 -8.478800 8.612900 255 0 0
15.693300 -8.466700 10.660000 0 255 0
16.230000 -8.080000 6.330000 0 255 0
17.382700 -9.514500 6.660000 0 255 0
16.570000 -9.070000 6.220000 0 255 0
17.219999 -8.380000 19.670000 0 255 0
16.209999 -8.240000 15.360000 0 255 0
16.490000 -7.450000 11.890000 0 255 0
16.030001 -7.836700 9.653300 0 255 0
17.059999 -8.370000 2.160000 0 255 0
17.040001 -8.650000 20.969999 0 255 0
17.038300 -8.476700 8.698300 255 0 0
16.076000 -9.018000 5.802000 0 255 0
16.530001 -8.110000 19.040001 0 255 0
16.670000 -8.720000 9.600000 0 255 0
16.695000 -8.535000 -3.055000 0 255 0
16.692200 -8.772200 12.865600 0 255 0
16.700001 -8.250000 19.000000 0 255 0
16.045000 -8.190000 17.305000 0 255 0
16.290001 -8.040000 7.630000 0 255 0
16.309999 -8.340000 14.180000 0 255 0
16.299999 -8.375000 17.330000 0 255 0
16.629999 -9.550000 8.650000 0 255 0
16.590000 -9.570000 11.340000 0 255 0
16.243700 -8.463700 9.748800 0 255 0
16.230000 -8.580000 16.280001 0 255 0
15.950000 -8.465000 15.845000 0 255 0
16.433701 -8.125000 7.753800 0 255 0
16.459999 -8.200000 14.280000 0 255 0
16.780001 -8.776700 0.808300 255 0 0
16.790001 -8.818200 3.962900 255 0 0
16.809999 -8.553300 13.840000 0 255 0
16.980000 -9.030000 9.645000 0 255 0
17.000000 -9.050000 12.920000 0 255 0
16.930000 -8.915000 9.642500 0 255 0
16.940001 -8.872500 12.897500 0 255 0
17.670000 -8.530000 18.530001 0 255 0
17.690001 -8.640000 11.760000 0 255 0
17.850000 -8.800000 11.530000 0 255 0
16.782499 -9.262500 10.810000 0 255 0
16.943800 -9.518800 9.908700 0 255 0
15.856700 -9.113300 8.516700 0 255 0
17.280001 -9.530000 9.890000 0 255 0
17.288601 -9.467300 6.760500 0 255 0
17.092501 -9.517500 5.962500 0 255 0
16.945000 -8.500000 15.950000 255 0 0
16.959999 -8.455000 19.215000 255 0 0
16.400000 -8.580000 16.910000 0 255 0
16.790001 -8.527100 -2.792900 0 255 0
16.930000 -9.317500 9.217500 0 255 0
16.340000 -8.090000 20.309999 0 255 0
16.340000 -8.120000 17.150000 0 255 0
16.344999 -8.165000 14.025000 0 255 0
16.730499 -9.774800 4.214300 0 255 0
17.350000 -9.070000 13.400000 0 255 0
16.526699 -7.976700 17.466700 0 255 0
16.330000 -7.910000 13.920000 0 255 0
16.400000 -9.677500 7.115000 0 255 0
16.879999 -8.960000 1.560000 0 255 0
17.590000 -8.630000 11.680000 0 255 0
17.387100 -9.068600 6.110000 0 255 0
17.343300 -9.629200 5.917500 0 255 0
17.776699 -8.516700 18.070000 0 255 0
17.045000 -7.375000 11.627500 0 255 0
16.990000 -8.740000 7.800000 255 0 0
16.995701 -8.555700 -2.098600 255 0 0
15.800800 -9.070000 5.905200 0 255 0
16.850000 -8.600000 9.720000 255 0 0
16.830000 -8.850000 6.430000 0 255 0
16.840000 -8.832500 -3.340000 0 255 0
16.825701 -8.572900 12.958600 255 0 0
16.889999 -8.860000 4.750000 255 0 0
17.330000 -9.450000 16.490000 0 255 0
16.660000 -8.070000 6.260000 0 255 0
16.650000 -7.812500 -3.245000 0 255 255
16.193300 -8.073300 4.100000 0 255 0
16.170000 -8.102500 7.355000 0 255 0
16.445000 -7.925000 13.970000 0 255 0
16.584999 -9.310000 11.505000 0 255 0
16.209999 -8.730000 21.500000 0 255 0
17.620001 -7.590000 20.665001 0 255 0
15.800000 -8.880000 8.025000 0 255 0
17.559999 -8.420000 11.990000 0 255 0
17.125000 -8.705000 16.120001 0 255 0
17.049999 -9.370000 17.309999 0 255 0
16.450001 -7.840000 -2.990000 0 255 0
16.028900 -8.873700 2.357900 0 255 0
17.750000 -8.950000 19.170000 0 255 0
17.670000 -9.025000 6.110000 0 255 0
17.382000 -9.564000 9.664000 0 255 0
16.834999 -9.265000 12.480000 0 255 0
16.719999 -9.090000 -3.600000 0 255 0
16.860001 -8.790000 3.000000 255 0 0
16.831100 -8.826300 -0.235300 255 0 0
16.820000 -8.623300 12.406700 255 0 0
16.299999 -8.010000 16.440001 0 255 0
16.540001 -8.700000 -2.580000 0 255 0
16.543301 -7.626700 18.010000 0 255 0
17.780001 -8.810000 11.845000 0 255 0
16.100000 -8.800000 10.800000 0 255 0
16.459999 -8.160000 21.900000 0 255 0
17.580000 -7.840000 13.460000 0 255 0
15.980000 -8.180000 -3.120000 0 255 255
16.540001 -8.340000 9.116700 0 255 0
16.305000 -8.175000 17.165001 0 255 0
16.200001 -8.050000 17.129999 0 255 0
16.170000 -8.030000 13.880000 0 255 0
15.950000 -9.090000 6.400000 0 255 0
15.930000 -8.980000 12.910000 0 255 0
17.342899 -9.262900 11.060000 0 255 0
17.740000 -8.530000 12.780000 0 255 0
17.320000 -8.680000 15.800000 0 255 0
16.540001 -8.955000 19.160000 0 255 0
16.740000 -8.350000 21.610001 0 255 0
16.754101 -8.716500 -1.234700 255 0 0
17.860001 -8.220000 10.110000 0 255 0
17.545000 -8.670000 10.115000 0 255 0
16.830000 -9.250000 11.930000 0 255 0
16.774000 -8.972000 6.176000 0 255 0
17.670000 -7.950000 8.680000 0 255 0
16.570000 -8.580000 21.889999 0 255 0
16.795000 -8.061700 -3.091700 0 255 0
18.030001 -8.225000 9.615000 0 255 0
16.188601 -8.117100 7.867100 0 255 0
16.190001 -8.320000 20.900000 0 255 0
17.639999 -8.070000 13.590000 0 255 0
17.660000 -7.790000 20.580000 0 255 0
16.510000 -9.000000 6.290000 0 255 0
16.080000 -8.600000 13.050000 0 255 0
16.180000 -8.600000 16.340000 0 255 0
16.990000 -8.900000 -2.220000 255 0 0
17.040001 -9.230000 17.309999 0 255 0
16.610001 -8.760000 21.190001 0 255 0
16.600000 -8.720000 18.049999 0 255 0
16.895000 -8.825000 3.007500 255 0 0
16.885000 -8.605000 15.665000 255 0 0
16.879999 -8.550000 12.430000 255 0 0
16.903299 -8.463300 19.350000 255 0 0
17.340000 -9.030000 -3.590000 0 255 0
17.580000 -9.330000 11.300000 0 255 0
17.299999 -8.500000 -2.400000 0 255 0
16.620001 -9.440000 6.960000 0 255 0
16.495001 -9.475000 14.305000 0 255 0
16.490000 -9.370000 20.850000 0 255 0
17.795000 -7.830000 16.410000 0 255 0
17.570000 -8.080000 21.240000 0 255 0
17.578300 -8.325000 11.761700 0 255 0
17.459999 -8.100000 -3.370000 0 255 255
16.719999 -9.415000 12.060000 0 255 0
17.184999 -8.370000 -3.295000 0 255 0
17.133301 -8.123300 10.613300 0 255 0
17.139999 -8.376700 19.696699 0 255 0
16.209999 -8.480000 10.460000 0 255 0
16.459999 -7.870000 20.959999 0 255 0
16.740000 -8.130000 -3.630000 0 255 0
16.990000 -7.710000 16.440001 0 255 0
17.820000 -8.620000 11.350000 0 255 0
15.780000 -8.630000 12.620000 0 255 0
15.785000 -8.675000 15.865000 0 255 0
16.280001 -7.840000 20.690001 0 255 0
16.295000 -7.661700 11.318300 0 255 0
16.193300 -8.423300 15.270000 0 255 0
16.799999 -9.010000 17.830000 0 255 0
16.420000 -8.950000 17.690001 0 255 0
15.936000 -8.124000 18.014000 0 255 0
16.559999 -8.950000 21.350000 0 255 0
16.030001 -9.070000 12.800000 0 255 0
16.760000 -7.930000 -3.050000 0 255 255
17.190001 -7.710000 -3.150000 0 255 255
16.545000 -9.165000 6.390000 0 255 0
17.760000 -9.010000 15.100000 0 255 0
17.830000 -8.510000 11.695000 0 255 0
17.844999 -8.767500 21.105000 0 255 0
16.674999 -8.175000 6.315000 0 255 0
17.510000 -8.530000 13.520000 0 255 0
16.660000 -8.110000 16.330000 0 255 0
16.642500 -8.617500 -3.487500 0 255 0
16.996700 -7.476700 20.796700 0 255 0
17.040001 -8.370000 18.030001 255 0 0
17.030001 -8.230000 14.640000 0 255 0
16.405001 -7.615000 11.515000 0 255 0
16.891701 -9.260000 9.701700 0 255 0
16.889999 -9.160000 15.990000 0 255 0
16.254999 -8.990000 21.250000 0 255 0
16.445000 -9.065000 21.129999 0 255 0
16.459999 -9.100000 17.840000 0 255 0
16.410000 -9.020000 10.310000 0 255 0
16.379999 -9.240000 -2.730000 0 255 0
16.125000 -9.420000 5.945000 0 255 0
15.839000 -8.523000 11.946000 0 255 0
16.520000 -9.290000 14.740000 0 255 0
16.543301 -9.310000 11.510000 0 255 0
15.970000 -8.720000 2.630000 0 255 0
15.980000 -8.500000 15.650000 0 255 0
16.280001 -9.000000 9.160000 0 255 0
15.897500 -8.015000 7.902500 0 255 0
17.250000 -7.550000 19.559999 0 255 0
17.240000 -7.510000 9.990000 0 255 0
17.430000 -8.480000 9.670000 0 255 0
16.730000 -9.590000 9.750000 0 255 0
17.719999 -8.380000 21.510000 0 255 0
17.719999 -8.530000 11.870000 0 255 0
16.070000 -8.260000 9.230000 0 255 0
16.540001 -8.470000 -3.735000 0 255 0
16.650000 -7.670000 13.840000 0 255 0
17.860001 -8.600000 10.980000 0 255 0
17.000000 -7.760000 -3.226700 0 255 255
17.010000 -8.070000 16.549999 0 255 0
16.020000 -8.120000 20.520000 0 255 0
16.245001 -9.230000 20.455000 0 255 0
16.950001 -8.370000 17.889999 255 0 0
16.930000 -8.690000 -2.060000 255 0 0
16.941401 -8.504300 8.164300 255 0 0
16.952499 -8.552500 4.461300 255 0 0
16.923300 -8.310000 20.799999 0 255 0
16.941401 -8.465700 11.412900 255 0 0
17.540001 -8.620000 17.180000 0 255 0
17.543301 -8.322700 10.812000 0 255 0
15.930000 -8.410000 11.840000 0 255 0
15.942500 -8.672500 21.344999 0 255 0
16.635000 -9.025000 -3.682500 0 255 0
16.577999 -8.522000 11.850000 0 255 0
16.943300 -8.318300 -3.391700 0 255 0
16.930000 -7.930000 21.900000 0 255 0
16.848000 -7.768000 -3.052000 0 255 255
17.360001 -9.660000 5.730000 0 255 0
17.350000 -9.570000 12.265000 0 255 0
17.735001 -8.010000 13.675000 0 255 0
17.190001 -8.465000 21.379999 0 255 0
17.193300 -7.927500 10.759200 0 255 0
17.410000 -9.310000 11.250000 0 255 0
16.032499 -8.623800 20.912500 0 255 0
16.933300 -9.076700 17.660000 0 255 0
15.828300 -8.270000 -3.090000 0 255 255
16.200001 -8.640000 21.370001 0 255 0
15.836500 -9.116500 2.560500 0 255 0
16.389999 -8.980000 19.190001 0 255 0
16.850000 -8.070000 16.540001 0 255 0
16.430000 -8.326700 4.160000 0 255 0
15.880000 -8.060000 10.060000 0 255 0
16.896700 -9.706700 5.356700 0 255 0
16.645000 -9.777500 6.660000 0 255 0
16.688000 -9.572000 10.114000 0 255 0
17.549999 -9.070000 11.590000 0 255 0
17.055000 -7.958300 -3.401700 0 255 255
17.049999 -8.130000 12.390000 0 255 0
16.629999 -9.576700 13.120000 0 255 0
16.280001 -8.010000 13.920000 0 255 0
16.299999 -8.080000 17.040001 0 255 0
16.280001 -8.150000 10.760000 0 255 0
16.070000 -9.050000 -3.400000 0 255 255
15.980000 -7.960000 10.790000 0 255 0
15.990000 -8.270000 4.260000 0 255 0
16.299999 -8.610000 21.190001 0 255 0
16.290001 -8.510000 2.260000 0 255 0
16.586000 -8.312000 7.706000 0 255 0
16.370001 -9.390000 11.740000 0 255 0
16.103300 -8.473300 16.976700 0 255 0
15.785000 -8.815000 8.410000 0 255 0
15.970000 -8.810000 14.750000 0 255 0
16.396700 -9.030000 17.719999 0 255 0
17.485001 -8.560000 13.565000 0 255 0
17.493700 -8.522500 10.305000 0 255 0
16.040899 -9.375500 8.473600 0 255 0
16.285000 -9.115000 6.345000 0 255 0
17.350000 -8.270000 11.980000 0 255 0
17.040001 -9.355000 16.205000 0 255 0
17.995001 -8.380000 5.680000 0 255 0
16.290001 -9.350000 8.700000 0 255 0
15.990900 -9.167300 9.060900 0 255 0
16.730000 -9.520000 13.180000 0 255 0
16.745001 -9.557500 9.905000 0 255 0
17.150000 -9.690000 11.760000 0 255 0
16.559999 -9.280000 17.940001 0 255 0
16.530001 -9.360000 11.480000 0 255 0
16.080000 -9.130000 18.040001 0 255 0
16.110001 -9.090000 14.900000 0 255 0
15.870000 -8.180000 13.710000 0 255 0
16.420000 -8.980000 15.520000 0 255 0
16.436701 -8.870000 9.193300 0 255 0
17.275000 -8.730000 10.620000 0 255 0
16.820000 -7.730000 -3.240000 0 255 255
17.276699 -7.523300 18.308300 0 255 0
16.950001 -9.460000 9.730000 0 255 0
16.095600 -8.019400 7.860600 0 255 0
16.040001 -8.255000 -3.335000 0 255 255
16.950001 -8.600000 -0.670000 255 0 0
16.932501 -8.425000 11.552500 255 0 0
16.948000 -8.562000 2.562700 255 0 0
16.936300 -8.519300 5.258500 255 0 0
16.942801 -8.473600 8.511200 255 0 0
16.930000 -8.300000 18.299999 0 255 0
16.670000 -9.600000 9.830000 0 255 0
16.690001 -9.668600 13.061400 0 255 0
17.480000 -9.440000 12.180000 0 255 0
17.334999 -8.160000 21.315001 0 255 0
16.903999 -8.862000 -2.780000 0 255 0
16.889999 -8.810000 6.640000 255 0 0
16.870001 -8.600000 19.700001 255 0 0
16.879999 -8.920000 0.340000 255 0 0
16.910000 -8.560000 16.570000 255 0 0
17.290001 -9.490000 15.610000 0 255 0
17.639999 -9.071300 5.965000 0 255 0
17.240000 -7.810000 13.200000 0 255 0
15.830000 -8.960000 10.910000 0 255 0
16.525000 -7.985000 12.427500 0 255 0
16.440001 -7.675000 20.879999 0 255 0
17.160000 -8.810000 19.410000 0 255 0
16.240000 -9.362200 9.055600 0 255 0
17.833300 -8.106700 5.526700 0 255 0
16.787500 -9.732500 4.160000 0 255 0
16.379999 -9.030000 19.850000 0 255 0
17.110001 -8.140000 19.389999 0 255 0
17.895000 -8.221700 10.048300 0 255 0
16.990000 -8.755000 9.030000 0 255 0
17.010000 -8.650000 2.710000 255 0 0
16.986700 -8.606700 -0.550000 255 0 0
16.719999 -7.420000 11.800000 0 255 0
16.740000 -7.475000 8.540000 0 255 0
17.280001 -8.900000 18.910000 0 255 0
17.340000 -7.740000 13.190000 0 255 0
15.983300 -8.906700 15.710000 0 255 0
15.910000 -8.420000 15.750000 0 255 0
16.900000 -9.000000 13.960000 0 255 0
16.840000 -8.760000 21.730000 0 255 0
15.830000 -8.940000 11.790000 0 255 0
16.340000 -8.290000 7.580000 0 255 0
16.530001 -8.815000 -3.450000 0 255 0
17.386700 -8.163300 18.520000 0 255 0
16.930000 -7.900000 19.900000 0 255 0
16.986700 -9.770000 5.146700 0 255 0
16.924999 -7.955000 16.600000 0 255 0
16.605000 -7.785000 6.067500 0 255 0
16.639999 -9.450000 17.340000 0 255 0
16.198000 -8.614000 -2.924000 0 255 255
17.750000 -8.515000 9.405000 0 255 0
16.447500 -9.327500 17.760000 0 255 0
16.437500 -9.270000 20.900000 0 255 0
17.440001 -8.561100 10.257800 0 255 0
16.020000 -8.730000 18.530001 0 255 0
16.020000 -8.610000 12.230000 0 255 0
16.035000 -8.562500 15.352500 0 255 0
17.620001 -7.830000 20.850000 0 255 0
17.796700 -8.666700 17.920000 0 255 0
17.780001 -8.560000 11.750000 0 255 0
16.980000 -8.480000 -0.040000 255 0 0
17.000000 -8.440000 -3.310000 0 255 0
16.983601 -8.528200 3.211800 255 0 0
17.000000 -8.561400 6.455700 255 0 0
17.395000 -9.521300 9.600000 0 255 0
17.441401 -9.571400 9.522900 0 255 0
15.935000 -8.670000 8.100000 0 255 0
16.635000 -8.360000 20.200001 0 255 0
16.635000 -8.720000 -2.638300 0 255 0
16.230000 -9.320000 20.469999 0 255 0
17.030001 -8.980000 21.660000 0 255 0
17.030001 -8.668000 2.316000 255 0 0
17.040800 -8.610800 5.465800 255 0 0
17.030001 -8.721700 11.766700 0 255 0
17.032000 -8.526000 -1.290000 255 0 0
17.030001 -8.540000 6.460000 255 0 0
17.059999 -8.600000 12.210000 0 255 0
17.035601 -8.573300 3.204400 255 0 0
16.041401 -7.860000 2.358600 0 255 0
16.879999 -8.125000 -3.455000 0 255 0
15.991700 -9.320000 6.508300 0 255 0
17.740000 -8.085000 12.060000 0 255 0
16.594999 -8.520000 -2.686700 0 255 0
17.530001 -8.480000 20.340000 0 255 0
16.340000 -8.130000 17.059999 0 255 0
16.946699 -8.840000 -2.590000 255 0 0
16.955000 -8.465000 20.165001 255 0 0
16.750000 -7.900000 14.270000 0 255 0
16.744301 -7.464300 17.971399 0 255 0
16.820000 -7.560000 13.700000 0 255 0
16.836700 -7.710000 16.750000 0 255 0
16.780001 -7.825000 -3.450000 0 255 255
16.797501 -7.717500 16.512501 0 255 0
16.180000 -9.440000 8.470000 0 255 0
16.190001 -9.470000 11.613300 0 255 0
16.129999 -9.214000 -3.186000 0 255 255
17.684999 -7.710000 11.260000 0 255 0
17.594999 -7.622500 11.015000 0 255 0
16.280001 -9.106000 15.616000 0 255 0
17.770000 -8.620000 10.780000 0 255 0
16.860001 -7.700000 13.540000 0 255 0
16.823299 -7.666700 16.809999 0 255 0
17.799999 -8.630000 17.940001 0 255 0
17.783300 -8.663300 21.123301 0 255 0
17.950001 -8.380000 13.000000 0 255 0
17.943701 -8.015000 10.106200 0 255 0
17.959999 -8.175000 9.620000 0 255 0
17.940001 -8.316300 5.750000 0 255 0
15.893300 -8.013300 7.966700 0 255 0
15.870000 -8.090000 11.230000 0 255 0
17.638700 -7.870700 8.711300 0 255 0
16.896700 -9.170000 16.856701 0 255 0
17.850000 -7.970000 11.130000 0 255 0
17.820000 -8.050000 17.059999 0 255 0
17.549999 -7.940000 21.350000 0 255 0
17.340000 -7.885000 13.345000 0 255 0
17.246000 -7.422000 11.606000 0 255 0
17.394400 -7.722200 11.060000 0 255 0
17.336000 -7.764000 10.900000 0 255 0
17.942301 -8.065400 5.953800 0 255 0
17.900000 -8.072100 5.811100 0 255 0
17.842501 -8.105000 5.615000 0 255 0
16.702200 -7.426700 18.016701 0 255 0
16.129999 -8.780000 20.879999 0 255 0
16.924999 -8.810000 1.200000 255 0 0
16.930000 -8.550000 17.430000 255 0 0
16.950001 -8.510000 20.809999 255 0 0
17.000000 -9.355000 17.405001 0 255 0
16.935301 -8.865300 -2.140700 255 0 0
15.931300 -8.817500 8.107500 0 255 0
15.933300 -8.713300 14.426700 0 255 0
17.709999 -8.640000 6.920000 0 255 0
17.520000 -8.380000 5.370000 0 255 0
17.538300 -8.675000 12.120000 0 255 0
15.900000 -8.300000 15.320000 0 255 0
15.890000 -8.470000 12.170000 0 255 0
15.880000 -8.375000 18.467501 0 255 0
16.195999 -8.575000 -2.896000 0 255 255
16.336700 -8.483300 -3.496700 0 255 0
16.350000 -7.970000 6.445000 0 255 0
16.337500 -7.928700 9.612500 0 255 0
17.780001 -8.325000 -3.260000 0 255 255
17.684999 -8.935000 19.205000 0 255 0
15.780000 -8.440000 7.970000 0 255 0
15.785000 -8.565000 17.375000 0 255 0
15.870000 -8.380000 16.990000 0 255 0
15.892000 -8.422000 7.248000 0 255 0
15.900000 -8.326700 13.756700 0 255 0
17.360001 -7.670000 -2.030000 0 255 255
17.350000 -7.455000 11.020000 0 255 0
17.080000 -8.540000 2.500000 255 0 0
17.090000 -8.425000 9.010000 0 255 0
16.670000 -8.430000 15.660000 0 255 0
16.690001 -8.715000 -3.150000 0 255 0
16.704000 -8.770000 0.010000 255 0 0
16.280001 -7.940000 19.299999 0 255 0
16.285000 -7.615000 12.575000 0 255 0
16.290001 -7.660000 15.800000 0 255 0
16.305000 -7.762500 9.507500 0 255 0
16.343300 -8.520000 -3.583300 0 255 0
17.469999 -8.520000 17.510000 0 255 0
16.830000 -7.850000 -3.040000 0 255 255
17.882000 -8.262000 5.666000 0 255 0
16.735001 -7.775000 -3.090000 0 255 255
16.387100 -7.827100 9.704300 0 255 0
16.410000 -7.570000 19.170000 0 255 0
17.036699 -8.516700 4.323300 255 0 0
17.049999 -8.640000 11.070000 0 255 0
17.026300 -8.571200 1.160000 255 0 0
16.030001 -8.580000 16.160000 0 255 0
16.049999 -8.620000 12.997500 0 255 0
17.350000 -8.050000 18.580000 0 255 0
15.885000 -8.380000 15.410000 0 255 0
17.197500 -9.057500 10.755000 0 255 0
16.020000 -8.180000 15.630000 0 255 0
16.594999 -8.755000 -3.390000 0 255 0
16.587500 -8.122000 6.505500 0 255 0
17.330000 -8.150000 9.650000 0 255 0
16.948299 -7.525000 18.363300 0 255 0
17.780001 -8.880000 12.030000 0 255 0
17.120001 -9.380000 16.360001 0 255 0
16.049999 -8.940000 16.520000 0 255 0
16.495001 -7.625000 14.348300 0 255 0
15.930000 -8.450000 14.890000 0 255 0
16.219999 -9.260000 18.049999 0 255 0
16.219999 -9.240000 21.299999 0 255 0
16.190001 -8.507500 15.305000 0 255 0
17.020000 -8.425000 15.020000 255 0 0
16.691401 -9.715700 12.255700 0 255 0
17.236700 -8.126700 -3.296700 0 255 255
17.692499 -8.777500 6.877500 0 255 0
17.695700 -8.818600 10.028600 0 255 0
16.742500 -9.672500 12.305000 0 255 0
17.230000 -8.925000 6.218300 0 255 0
17.639999 -8.820000 13.210000 0 255 0
17.295000 -7.665000 11.580000 0 255 0
16.959999 -8.430000 -3.700000 0 255 0
16.709999 -8.690000 21.290001 0 255 0
16.690001 -8.640000 18.040001 0 255 0
16.730000 -8.925000 0.115000 0 255 0
16.740000 -8.600000 18.129999 0 255 0
17.136700 -7.673300 11.253300 0 255 0
17.040001 -8.840000 5.030000 0 255 0
17.090000 -7.560000 15.830000 0 255 0
17.090000 -7.860000 -2.995000 0 255 255
17.343300 -7.468300 18.513300 0 255 0
15.970000 -8.350000 16.910000 0 255 0
17.090000 -8.570000 -0.237500 255 0 0
16.000000 -8.980000 15.000000 0 255 0
17.110001 -9.365000 16.360001 0 255 0
16.395000 -8.035000 14.010000 0 255 0
17.690001 -8.425000 17.315001 0 255 0
17.730000 -9.000000 14.760000 0 255 0
16.090000 -9.320000 8.650000 0 255 0
16.105000 -9.170000 11.730000 0 255 0
16.100000 -9.120000 20.889999 0 255 0
16.190001 -9.420000 8.565000 0 255 0
16.559999 -9.560000 17.910000 0 255 0
17.430000 -9.300000 15.040000 0 255 0
17.590000 -7.965700 8.651400 0 255 0
16.751400 -8.761400 -1.204300 255 0 0
16.727100 -8.724300 2.059300 255 0 0
16.520000 -7.730000 20.770000 0 255 0
16.549999 -7.825000 14.265000 0 255 0
17.040001 -7.925000 17.975000 0 255 0
17.049999 -8.080000 21.549999 0 255 0
18.030001 -8.410000 8.770000 0 255 0
18.031099 -8.274400 5.714400 0 255 0
16.420000 -7.970000 7.960000 0 255 0
16.450001 -7.650000 14.320000 0 255 0
16.295000 -7.850000 15.595000 0 255 0
16.396000 -7.730000 15.568000 0 255 0
17.760000 -8.360000 11.740000 0 255 0
16.552200 -8.721100 -3.637800 0 255 0
17.742901 -8.171400 10.754300 0 255 0
17.690001 -7.900000 11.190000 0 255 0
17.730000 -8.440000 18.549999 0 255 0
16.100000 -9.070000 20.520000 0 255 0
16.100000 -9.420000 3.850000 0 255 0
17.459999 -9.490000 11.220000 0 255 0
16.202499 -7.722500 10.797500 0 255 0
17.597500 -8.422500 13.707500 0 255 0
16.190001 -9.130000 9.100000 0 255 0
16.195000 -9.230000 15.870000 0 255 0
16.320000 -8.750000 12.340000 0 255 0
16.129999 -8.530000 14.265000 0 255 0
15.860000 -8.720000 16.430000 0 255 0
16.445000 -7.622500 11.557500 0 255 0
16.440001 -8.640000 -2.690000 0 255 0
17.580000 -7.670000 16.750000 0 255 0
17.681601 -8.218000 8.455600 0 255 0
17.700001 -8.020000 21.100000 0 255 0
16.500000 -7.560000 18.040001 0 255 0
16.730000 -9.080000 6.800000 0 255 0
17.889999 -8.670000 16.629999 0 255 0
17.889999 -8.640000 13.470000 0 255 0
16.760000 -8.717500 -1.778800 255 0 0
17.500000 -9.450000 5.970000 0 255 0
17.485001 -9.360000 12.275000 0 255 0
17.596701 -8.366700 11.920000 0 255 0
17.290001 -8.420000 -3.345000 0 255 0
17.295000 -9.480000 5.964000 0 255 0
15.995000 -8.335000 10.800000 0 255 0
15.975000 -7.970000 13.900000 0 255 0
17.639999 -9.168300 8.656700 0 255 0
17.035000 -8.490000 1.880000 0 255 0
17.040001 -8.564000 8.162000 255 0 0
17.040001 -8.525000 11.295000 255 0 0
16.788300 -7.869200 -2.936700 0 255 255
17.510000 -8.200000 15.320000 0 255 0
17.620001 -7.970000 21.219999 0 255 0
17.629999 -8.230000 5.430000 0 255 0
17.620001 -8.180000 8.540000 0 255 0
15.735700 -8.677100 10.622900 0 255 0
16.299999 -8.820000 20.059999 0 255 0
16.105000 -8.870000 10.815000 0 255 0
17.100000 -7.890000 17.940001 0 255 0
17.110001 -8.100000 21.570000 0 255 0
17.090000 -7.820000 14.800000 0 255 0
17.110001 -7.960000 11.460000 0 255 0
16.379999 -9.300000 14.790000 0 255 0
16.410000 -9.250000 11.660000 0 255 0
18.020000 -8.450000 12.880000 0 255 0
17.473301 -9.463300 5.903300 0 255 0
17.492500 -9.367500 12.200000 0 255 0
17.480000 -8.580000 13.460000 0 255 0
17.100000 -9.205000 16.165001 0 255 0
17.090000 -9.310000 9.850000 0 255 0
17.209999 -9.360000 9.750000 0 255 0
17.830000 -8.386700 7.573300 0 255 0
17.841700 -8.325000 10.711700 0 255 0
17.959999 -8.220000 21.280001 0 255 0
16.950001 -8.660000 8.920000 255 0 0
16.920000 -8.840000 -0.800000 255 0 0
17.447500 -9.422500 11.270000 0 255 0
18.010000 -8.140000 18.570000 0 255 0
17.049999 -9.420000 6.190000 0 255 0
16.110001 -8.880000 15.010000 0 255 0
16.100000 -8.760000 21.490000 0 255 0
17.731701 -8.225000 8.420000 0 255 0
17.260000 -9.540000 5.480000 0 255 0
15.900000 -7.965000 4.110000 0 255 0
15.885000 -8.175000 16.754999 0 255 0
15.877500 -8.105000 13.517500 0 255 0
16.785000 -9.670000 11.165000 0 255 0
17.030001 -9.660000 13.310000 0 255 0
16.908001 -9.778000 5.068000 0 255 0
16.896700 -9.673300 12.616700 0 255 0
16.209999 -9.150000 -2.960000 0 255 0
17.040001 -9.780000 5.170000 0 255 0
17.097500 -9.660000 6.067500 0 255 0
15.920000 -8.700000 18.040001 0 255 0
15.940000 -8.770000 14.910000 0 255 0
16.660000 -9.790000 4.200000 0 255 0
16.500000 -8.700000 -3.630000 0 255 0
16.496401 -7.575500 13.806400 0 255 0
15.860000 -8.660000 9.340000 0 255 0
15.840000 -8.625000 12.515000 0 255 0
17.296700 -9.416700 6.146700 0 255 0
17.840000 -8.500000 13.020000 0 255 0
17.260000 -7.510000 11.320000 0 255 0
16.445000 -7.521700 9.651700 0 255 0
16.245001 -8.535000 -2.947500 0 255 255
16.290800 -9.122300 -2.826200 0 255 0
16.320000 -8.810000 5.080000 0 255 0
16.110001 -9.370000 11.610000 0 255 0
17.440001 -8.264000 14.056000 0 255 0
15.870000 -8.460000 13.270000 0 255 0
17.400000 -9.420000 9.750000 0 255 0
16.245001 -8.720000 21.290001 0 255 0
15.840000 -8.680000 14.040000 0 255 0
15.830000 -8.610000 17.219999 0 255 0
15.844000 -8.524000 10.708000 0 255 0
17.299999 -7.630000 19.670000 0 255 0
17.920000 -8.660000 13.840000 0 255 0
17.645000 -7.770000 20.469999 0 255 0
16.150000 -8.310000 -3.140000 0 255 255
17.590000 -8.130000 16.530001 0 255 0
17.590000 -8.060000 13.360000 0 255 0
15.792500 -8.785000 8.417500 0 255 0
16.834999 -8.521700 13.508300 255 0 0
16.831400 -8.560500 -2.496400 255 0 0
17.459999 -9.560000 5.910000 0 255 0
17.790001 -8.425000 13.670000 0 255 0
16.870001 -9.615000 14.015000 0 255 0
16.905001 -9.690000 4.240000 0 255 0
17.309999 -7.550000 18.450001 0 255 0
17.309999 -7.700000 15.780000 0 255 0
17.280001 -7.663300 12.600000 0 255 0
17.637800 -8.916700 6.900000 0 255 0
16.950001 -8.215000 -3.010000 0 255 0
16.996700 -8.423300 10.866700 255 0 0
16.990000 -8.530000 17.150000 255 0 0
16.990000 -8.570000 20.309999 255 0 0
16.275000 -7.635000 6.310000 0 255 0
16.275000 -7.822500 19.347500 0 255 0
16.785000 -9.370000 12.660000 0 255 0
17.420000 -8.350000 -2.980000 0 255 0
16.535000 -7.837500 14.160000 0 255 0
15.786700 -8.333300 2.550000 0 255 0
15.790000 -8.512000 15.614000 0 255 0
16.094999 -9.266200 5.943700 0 255 0
16.090000 -9.321400 9.105700 0 255 0
16.075001 -8.570000 12.490000 0 255 0
16.850000 -9.720000 13.010000 0 255 0
16.950001 -8.410000 2.260000 0 255 0
16.950001 -8.310000 8.390000 0 255 0
16.924999 -8.485000 -0.985000 255 0 0
17.680000 -8.720000 10.290000 0 255 0
16.340000 -8.920000 -3.380000 0 255 0
16.330000 -9.190000 6.410000 0 255 0
16.430000 -9.010000 -2.810000 0 255 0
16.598301 -8.763300 -3.678300 0 255 0
16.580000 -8.110000 6.603300 0 255 0
18.000000 -8.230000 12.780000 0 255 0
17.336700 -9.423300 15.706700 0 255 0
16.500000 -8.940000 6.340000 0 255 0
16.450001 -8.440000 16.709999 0 255 0
17.486700 -9.263300 14.913300 0 255 0
16.490000 -7.778000 -2.696000 0 255 255
16.320000 -9.190000 15.390000 0 255 0
16.586700 -8.560000 -3.356700 0 255 0
17.750000 -8.460000 7.645000 0 255 0
17.895000 -8.305000 10.705000 0 255 0
17.139999 -9.070000 15.250000 0 255 0
17.070000 -7.425000 16.025000 0 255 0
17.237101 -9.582900 9.715700 0 255 0
17.483999 -7.766000 11.062000 0 255 0
17.186300 -7.817500 13.056300 0 255 0
17.240000 -7.875000 13.460000 0 255 0
16.700001 -7.503300 16.613300 0 255 0
16.695000 -7.650000 13.545000 0 255 0
16.620001 -8.060000 21.780001 0 255 0
16.635000 -7.955000 15.450000 0 255 0
16.646700 -7.910000 18.613300 0 255 0
17.410000 -9.050000 16.420000 0 255 0
17.410000 -8.300000 19.830000 0 255 0
16.020000 -7.890000 16.540001 0 255 0
16.844999 -9.520000 17.049999 0 255 0
17.049999 -8.460000 20.510000 255 0 0
16.879999 -8.920000 16.690001 0 255 0
16.870001 -8.880000 13.440000 0 255 0
17.410000 -7.720000 9.770000 0 255 0
17.120001 -9.040000 19.330000 0 255 0
17.219999 -7.870000 19.480000 0 255 0
17.230000 -8.215000 9.650000 0 255 0
17.370001 -7.980000 -3.520000 0 255 255
17.389999 -7.525000 18.610001 0 255 0
17.139999 -7.623300 18.313299 0 255 0
16.636000 -7.828000 -3.080000 0 255 255
17.535000 -7.555000 12.730000 0 255 0
17.080000 -9.585000 11.665000 0 255 0
17.969999 -8.550000 7.275000 0 255 0
15.830000 -8.740000 13.030000 0 255 0
17.340000 -7.583300 9.706700 0 255 0
17.334999 -7.565000 9.940000 0 255 0
17.346701 -7.513300 13.203300 0 255 0
16.020000 -8.590000 21.410000 0 255 0
17.150000 -7.480000 12.220000 0 255 0
16.709999 -8.540000 1.630000 255 0 0
16.690001 -8.200000 20.410000 0 255 0
16.700001 -8.870000 11.330000 0 255 0
16.459999 -7.600000 13.780000 0 255 0
16.320000 -7.700000 20.610001 0 255 0
16.320000 -9.280000 11.640000 0 255 0
16.459999 -9.480000 11.640000 0 255 0
17.389999 -8.960000 21.910000 0 255 0
17.379999 -7.775000 13.520000 0 255 0
16.299999 -8.350000 7.630000 0 255 0
15.833300 -8.470000 13.253300 0 255 0
17.342501 -8.077500 20.254999 0 255 0
16.535000 -8.280000 7.620000 0 255 0
17.145000 -7.885000 19.469999 0 255 0
17.143299 -7.958300 12.963300 0 255 0
17.775999 -8.918000 8.612000 0 255 0
16.295000 -8.205000 -3.155000 0 255 255
17.198601 -7.822900 13.014300 0 255 0
15.947500 -8.112500 15.472500 0 255 0
17.190001 -9.230000 18.930000 0 255 0
17.200001 -9.440000 5.870000 0 255 0
16.629999 -8.510000 11.865000 0 255 0
17.530001 -7.600000 10.900000 0 255 0
18.030001 -8.355000 13.610000 0 255 0
17.285000 -8.275000 16.205000 0 255 0
17.282000 -7.970000 13.276000 0 255 0
17.293301 -7.530000 -2.950000 0 255 255
17.309999 -7.970000 13.390000 0 255 0
17.190001 -7.490000 20.090000 0 255 0
16.170000 -9.005000 15.565000 0 255 0
16.184999 -8.815000 2.490000 0 255 0
16.440001 -8.973300 15.256700 0 255 0
17.000000 -8.830000 13.470000 0 255 0
17.190001 -8.800000 21.290001 0 255 0
16.209999 -8.800000 12.950000 0 255 0
16.986700 -8.480000 13.700000 255 0 0
16.985001 -8.525000 17.055000 255 0 0
16.988199 -8.416500 10.548800 255 0 0
16.969999 -8.550000 20.230000 255 0 0
17.602501 -8.422500 13.670000 0 255 0
17.150000 -8.600000 20.129999 0 255 0
16.985001 -8.360000 18.950001 255 0 0
17.559999 -7.810000 11.140000 0 255 0
17.799999 -8.760000 13.620000 0 255 0
16.351999 -7.619000 15.614000 0 255 0
16.188601 -9.415700 11.565700 0 255 0
17.930000 -8.180000 10.630000 0 255 0
17.955000 -8.115000 13.780000 0 255 0
17.142000 -8.966000 9.142000 0 255 0
16.889999 -9.366700 20.670000 0 255 0
16.878000 -9.606000 11.162000 0 255 0
17.434999 -7.680000 11.175000 0 255 0
17.450001 -9.370000 15.800000 0 255 0
17.443300 -9.128000 6.016000 0 255 0
16.790001 -9.400000 12.020000 0 255 0
16.809999 -9.720000 5.260000 0 255 0
17.870001 -8.620000 11.270000 0 255 0
17.160000 -7.970000 19.510000 0 255 0
17.389999 -9.283300 12.216700 0 255 0
17.080000 -9.240000 16.260000 0 255 0
17.790001 -8.830000 10.980000 0 255 0
17.190001 -9.435000 13.160000 0 255 0
15.993200 -7.821800 2.460700 0 255 0
17.400000 -8.600000 10.210000 0 255 0
17.389999 -8.660000 13.480000 0 255 0
16.530001 -7.830000 13.980000 0 255 0
17.959999 -8.420000 20.559999 0 255 0
17.930000 -8.540000 14.060000 0 255 0
17.892500 -8.410000 18.207500 0 255 0
17.959999 -8.580000 9.580000 0 255 0
17.940001 -8.520000 12.820000 0 255 0
17.402500 -9.425000 11.070000 0 255 0
17.344999 -9.362500 9.557500 0 255 0
17.583300 -8.323300 10.896700 0 255 0
16.383301 -7.673300 7.296700 0 255 0
16.256701 -8.923300 20.113300 0 255 0
17.343300 -9.461700 9.568300 0 255 0
17.959999 -8.400000 20.500000 0 255 0
