10.180000 5.090000 1.230000 255 0 0
10.040000 5.040000 0.575000 0 255 0
9.950000 5.800000 17.879999 0 255 0
10.370000 5.350000 28.000000 0 255 0
11.295000 5.730000 0.460000 0 255 0
9.880000 4.780000 26.730000 0 255 0
9.876700 4.696700 20.400000 0 255 0
10.080000 5.145000 11.750000 255 0 0
11.248700 5.775000 4.223800 0 255 0
10.795000 5.980000 0.450000 0 255 0
10.785600 5.535000 3.757200 0 255 0
10.500000 5.584700 3.198800 0 255 0
10.700000 6.450000 0.250000 0 255 0
10.537500 4.470000 19.262501 0 255 0
9.630600 4.383900 16.561100 0 255 0
9.640000 4.410000 19.690001 0 255 0
10.970000 4.490000 20.420000 0 255 0
11.000000 4.375000 26.915001 0 255 0
10.060000 5.530000 21.405001 0 255 0
10.020000 5.330000 8.770000 255 0 0
10.032800 5.269400 5.607800 0 255 0
10.042000 5.224000 15.063000 255 0 0
10.041300 5.195000 11.906200 255 0 0
9.596700 4.185000 0.265000 0 255 0
9.460000 6.450000 0.040000 0 255 0
9.480000 5.300000 27.100000 0 255 0
10.342200 4.742200 -0.394400 0 255 0
11.140000 6.115000 2.605000 0 255 0
8.990000 5.030000 23.780001 0 255 0
9.445000 4.635000 -0.545000 0 255 0
10.840000 6.274600 3.227100 0 255 0
11.000000 5.570000 22.430000 0 255 0
10.450000 6.423300 1.973300 0 255 0
11.040000 4.900000 17.090000 0 255 0
10.992700 5.823300 4.057300 0 255 0
11.086300 6.026800 3.958900 0 255 0
11.130000 4.850000 23.730000 0 255 0
10.130000 5.695000 22.754999 0 255 0
10.055000 6.325000 20.070000 0 255 0
10.325000 5.467500 3.602500 255 0 0
10.320000 5.280000 16.240000 0 255 0
10.640000 5.680000 27.965000 0 255 0
10.653300 6.080000 22.059999 0 255 0
10.850000 5.690000 15.150000 0 255 0
10.860000 5.680000 15.420000 0 255 0
10.820000 6.040000 -0.120000 0 255 0
10.136300 4.381400 -0.396300 0 255 0
10.145000 5.610000 2.065000 255 0 0
9.942000 5.476000 11.358000 255 0 0
9.950000 5.427900 8.210200 255 0 0
10.060000 5.710000 24.379999 0 255 0
9.880000 4.210000 16.790001 0 255 0
9.993300 6.233300 21.809999 0 255 0
11.255000 5.170000 -0.310000 0 255 0
10.950000 6.273300 -0.033300 0 255 0
11.178600 5.771400 2.405700 0 255 0
10.060000 4.200000 27.820000 0 255 0
11.385000 5.584400 0.006100 0 255 0
9.370000 5.400000 -0.210000 0 255 0
10.730000 5.095000 3.700000 0 255 0
10.610000 5.750000 19.850000 0 255 0
11.345000 5.145000 3.410000 0 255 0
11.140000 5.241400 -0.052900 0 255 0
10.350000 6.030000 27.010000 0 255 0
10.590000 6.120000 3.480000 0 255 0
10.600000 5.170000 21.459999 0 255 0
10.580000 5.240000 17.865000 0 255 0
10.300000 6.240000 3.210000 0 255 0
10.280000 6.270000 -0.060000 0 255 0
11.240000 4.877400 12.304700 0 255 0
10.330000 5.025000 28.105000 0 255 0
10.820000 6.080000 2.240000 0 255 0
10.860000 5.500000 14.910000 0 255 0
10.837100 5.488600 17.057100 0 255 0
10.829600 6.081600 1.771600 0 255 0
10.828600 5.471400 15.202900 0 255 0
10.842000 6.016000 14.074000 0 255 0
10.283300 5.430000 10.755000 255 0 0
10.293300 5.483300 7.611700 0 255 0
10.297900 5.379400 1.310000 255 0 0
10.286400 5.328600 4.460500 255 0 0
10.486900 4.224600 -0.043100 0 255 0
10.510000 4.040000 23.889999 0 255 0
9.940000 4.640000 28.219999 0 255 0
9.290000 5.472000 23.403999 0 255 0
9.292500 5.385000 16.897499 0 255 0
9.787800 6.084400 0.065600 0 255 0
11.380000 5.191700 0.021700 0 255 0
10.895000 5.835000 21.610001 0 255 0
10.901700 6.339200 1.010000 0 255 0
10.898000 6.276000 4.176000 0 255 0
9.235000 5.242500 23.400000 0 255 0
9.798000 4.981000 0.405000 0 255 0
10.342000 4.672000 -0.402000 0 255 0
10.935000 4.530000 19.215000 0 255 0
10.080000 4.200000 26.100000 0 255 0
10.092500 4.577500 0.012500 0 255 0
9.810000 5.545000 15.765000 0 255 0
10.050000 5.020000 21.059999 0 255 0
10.030000 5.132000 14.758000 255 0 0
10.937500 6.223800 1.902500 0 255 0
11.350000 5.223300 -0.323300 0 255 0
10.500000 4.590000 26.830000 0 255 0
10.250000 4.190000 27.900000 0 255 0
9.930000 4.935000 -0.190000 0 255 0
9.590000 5.030000 23.410000 0 255 0
10.480000 6.350000 1.840000 0 255 0
10.455000 4.835000 26.820000 0 255 0
10.310000 4.450000 27.940001 0 255 0
10.280000 5.370000 15.110000 255 0 0
10.435000 5.230000 0.005000 0 255 0
10.494000 4.430000 -0.544000 0 255 0
10.485700 4.636400 12.123600 0 255 0
10.620000 4.500000 27.389999 0 255 0
10.333300 6.180000 24.806700 0 255 0
10.250000 5.480000 14.760000 255 0 0
10.260000 5.430000 11.605000 255 0 0
10.240000 5.210000 24.260000 0 255 0
10.100000 5.150000 2.780000 255 0 0
9.290000 4.485000 23.895000 0 255 0
9.784300 5.077100 0.160700 0 255 0
9.797100 4.833600 16.470699 0 255 0
10.105000 4.040000 24.004999 0 255 0
10.450000 5.620000 25.360001 0 255 0
10.510000 5.420000 16.639999 0 255 0
11.240400 5.132700 4.660800 0 255 0
9.470000 5.000000 19.910000 0 255 0
9.860000 4.290000 23.660000 0 255 0
9.260000 5.465000 23.415001 0 255 0
9.245000 5.520000 26.565001 0 255 0
9.401700 5.728300 0.111700 0 255 0
9.790000 5.240000 -0.225000 255 0 0
9.490000 5.080000 17.700001 0 255 0
10.330000 4.550000 28.150000 0 255 0
9.193300 4.676700 20.053301 0 255 0
10.890000 5.290000 17.004999 0 255 0
10.870000 5.300000 17.250000 0 255 0
10.340000 5.540000 3.603300 255 0 0
10.340000 6.210000 23.389999 0 255 0
10.576700 5.936700 0.753300 0 255 0
10.841400 5.991400 3.704300 0 255 0
10.790000 5.120000 12.300000 0 255 0
10.810000 6.125000 1.215000 0 255 0
10.790000 5.465000 17.504999 0 255 0
10.637700 5.379200 16.662300 0 255 0
10.037500 5.725000 16.500000 0 255 0
10.800000 5.590000 15.100000 0 255 0
11.129100 5.079100 12.260000 0 255 0
11.143100 4.943100 2.718500 0 255 0
10.490000 5.350000 17.889999 0 255 0
10.510000 5.190000 14.810000 0 255 0
10.600000 5.920000 26.910000 0 255 0
10.740000 5.610000 14.870000 0 255 0
11.140000 5.231700 0.158300 0 255 0
11.147500 5.277500 3.412500 0 255 0
11.000000 5.670000 19.920000 0 255 0
11.345000 5.274200 3.466700 0 255 0
10.960000 6.200000 4.320000 0 255 0
10.280000 5.000000 25.490000 255 0 0
8.820000 5.260000 -0.320000 0 255 0
10.936700 4.430000 3.676700 0 255 0
9.450000 4.970000 27.809999 0 255 0
10.300000 5.980000 21.889999 0 255 0
10.040000 5.260000 21.565001 255 0 0
10.190000 5.520000 20.355000 0 255 0
9.005000 5.330000 19.405001 0 255 0
9.285000 4.870000 12.310000 0 255 0
10.920000 6.010000 22.100000 0 255 0
10.790000 6.186700 4.010000 0 255 0
11.348000 5.422000 -0.276000 0 255 0
10.641300 4.421800 -0.234200 0 255 0
9.888300 4.373300 0.168300 0 255 0
10.384000 6.428700 3.169400 0 255 0
10.523300 6.516700 1.973300 0 255 0
10.405000 4.835000 28.165001 0 255 0
10.380000 4.533800 21.408701 0 255 0
9.297500 5.180000 23.322500 0 255 0
9.837500 5.640000 0.210000 0 255 0
10.743000 6.378500 3.753700 0 255 0
10.746500 6.339000 0.508000 0 255 0
10.736700 6.126700 13.957800 0 255 0
9.675000 5.735000 0.220000 0 255 0
10.070000 5.816700 13.973300 0 255 0
10.090300 5.593500 4.059400 255 0 0
10.084000 5.614000 0.914000 255 0 0
10.233800 5.126900 0.461500 255 0 0
10.220000 5.180000 3.605000 255 0 0
10.210000 5.640000 3.520000 255 0 0
10.190700 5.538700 10.014000 255 0 0
10.197500 5.592500 6.857500 255 0 0
10.405000 6.215000 23.410000 0 255 0
10.697500 5.672500 3.547500 0 255 0
9.688800 4.680000 19.602501 0 255 0
10.820000 5.380000 3.390000 0 255 0
10.820000 5.530000 0.270000 0 255 0
10.840800 5.380800 3.857500 0 255 0
10.841400 5.575700 16.917101 0 255 0
10.797100 5.767100 4.017100 0 255 0
11.396000 5.572000 -0.038000 0 255 0
10.150000 5.190000 27.459999 0 255 0
9.490000 6.360000 16.760000 0 255 0
10.690000 5.825000 14.295000 0 255 0
10.786300 4.630000 20.406200 0 255 0
10.595000 5.330000 17.452499 0 255 0
10.850000 5.400000 12.340000 0 255 0
10.820000 5.710000 21.980000 0 255 0
9.690000 5.890000 23.500000 0 255 0
9.610000 5.990000 26.379999 0 255 0
8.892900 4.887100 0.261400 0 255 0
11.095000 4.830000 4.675000 0 255 0
11.250000 5.470000 1.930000 0 255 0
10.993800 4.977500 4.502500 0 255 0
9.786700 4.886000 10.604000 0 255 0
9.776700 6.290000 16.666700 0 255 0
9.770000 6.250000 19.900000 0 255 0
10.260000 5.500000 27.860001 0 255 0
9.796700 5.638300 -0.146700 0 255 0
10.400000 5.410000 17.530001 0 255 0
10.710000 5.520000 18.760000 0 255 0
9.390000 5.180000 12.600000 0 255 0
10.492500 5.320000 -0.060000 0 255 0
10.505000 5.295000 3.125000 0 255 0
10.240000 5.540000 26.799999 0 255 0
10.242200 5.617800 20.304399 0 255 0
10.282500 5.245000 2.347500 255 0 0
9.780000 5.540000 16.340000 0 255 0
10.395000 5.325000 16.430000 0 255 0
10.393300 5.173300 0.313300 0 255 0
10.090000 5.600000 24.440001 0 255 0
10.320000 5.500000 0.420000 255 0 0
9.530000 4.433300 20.469999 0 255 0
9.390000 4.332400 15.306600 0 255 0
9.341700 4.633300 -0.483300 0 255 0
9.300000 5.910000 21.980000 0 255 0
10.826700 4.438300 -0.450000 0 255 0
10.785000 4.420000 20.825001 0 255 0
9.030000 5.065000 12.415000 0 255 0
10.689000 4.677000 -0.344000 0 255 0
10.888000 5.732000 3.290000 0 255 0
10.940000 5.070000 15.095000 0 255 0
10.590000 5.045000 21.355000 0 255 0
10.580000 5.150000 15.060000 0 255 0
8.833300 4.933300 0.050000 0 255 0
9.636300 5.976300 15.003800 0 255 0
9.450000 4.660000 15.890000 0 255 0
9.430000 4.840000 0.090000 0 255 0
9.010000 4.900000 12.540000 0 255 0
9.310000 6.020000 14.970000 0 255 0
10.383300 6.066700 3.066700 0 255 0
9.890000 4.410000 27.629999 0 255 0
9.070000 5.310000 19.780001 0 255 0
9.090000 5.450000 0.020000 0 255 0
10.733300 5.810000 1.813300 0 255 0
10.740000 5.660000 18.520000 0 255 0
9.810000 5.330000 26.760000 0 255 0
10.260000 6.510000 16.930000 0 255 0
9.486700 6.325600 16.671101 0 255 0
9.580000 5.613300 26.566700 0 255 0
9.580000 5.296700 23.370001 0 255 0
10.040000 5.350000 22.330000 0 255 0
10.037500 5.280000 19.075001 255 0 0
9.340000 4.410000 25.700001 0 255 0
9.360000 4.810000 -0.410000 0 255 0
10.083300 5.616700 1.556700 255 0 0
10.090300 5.590600 4.808300 255 0 0
10.085000 5.779000 17.848499 0 255 0
9.580000 5.090000 28.040001 0 255 0
9.570000 4.950000 12.140000 0 255 0
9.840000 5.570000 18.770000 0 255 0
9.805000 4.382500 -0.040000 0 255 0
9.890000 4.532500 0.105000 0 255 0
10.050000 5.080000 19.530001 255 0 0
10.036700 5.123300 22.760000 255 0 0
10.045000 4.985000 25.825001 0 255 0
10.255000 5.540000 6.815000 255 0 0
9.960000 4.280000 0.680000 0 255 0
10.320000 5.540000 7.450000 255 0 0
10.600000 5.470000 16.870001 0 255 0
10.230000 5.090000 12.210000 0 255 0
10.790000 5.480000 3.370000 0 255 0
10.776000 5.628000 19.752001 0 255 0
10.845000 5.070000 27.105000 0 255 0
10.493300 4.936700 20.316700 0 255 0
9.820000 4.390000 1.080000 0 255 0
10.810000 5.520000 1.340000 0 255 0
10.785000 5.226700 16.766701 0 255 0
10.455000 5.575000 2.375000 0 255 0
10.685000 6.130000 1.165000 0 255 0
10.510000 5.475000 16.760000 0 255 0
10.805000 5.521700 1.148300 0 255 0
10.938700 5.926000 4.112700 0 255 0
10.940000 5.390000 12.120000 0 255 0
10.928800 5.426300 15.260000 0 255 0
10.926000 6.036300 1.811700 0 255 0
10.927100 6.070000 14.204300 0 255 0
10.932000 5.936000 4.153000 0 255 0
9.580000 5.740000 14.960000 0 255 0
10.555000 5.585000 27.115000 0 255 0
10.810000 4.790000 2.450000 0 255 0
10.785000 4.527500 19.017500 0 255 0
9.385600 5.928900 -0.130000 0 255 0
9.380000 5.940000 -0.060000 0 255 0
10.783700 4.932500 -0.188800 0 255 0
10.787100 4.587300 -0.146100 0 255 0
10.793300 4.934000 3.513300 0 255 0
10.850000 4.775000 16.877501 0 255 0
9.200000 4.960000 0.170000 0 255 0
9.190000 4.620000 23.889999 0 255 0
9.136700 4.726700 -0.030000 0 255 0
11.284000 5.436000 0.100000 0 255 0
10.410000 5.390000 16.639999 0 255 0
11.095000 5.520000 27.040001 0 255 0
9.380000 4.290000 21.990000 0 255 0
9.390000 4.373300 15.280000 0 255 0
9.388600 4.439000 12.206200 0 255 0
10.055000 5.740000 21.709999 0 255 0
9.136700 4.940000 16.196699 0 255 0
9.390000 4.470000 20.110001 0 255 0
9.400000 4.350000 26.410000 0 255 0
11.288300 5.230000 3.475000 0 255 0
9.406700 4.443300 19.546700 0 255 0
10.750000 4.590000 27.940001 0 255 0
9.986000 4.228000 14.470000 0 255 0
10.120000 5.140000 17.299999 255 0 0
10.135000 5.090000 14.140000 255 0 0
9.080000 6.100000 0.150000 0 255 0
10.250000 5.360000 20.290001 255 0 0
10.242500 5.445000 10.555000 255 0 0
10.240000 5.480000 13.806400 255 0 0
9.390000 5.195000 18.709999 0 255 0
9.377500 5.280000 12.418800 0 255 0
10.291500 5.527500 6.955500 255 0 0
10.270000 5.600000 3.720000 255 0 0
10.085000 6.120000 -0.090000 0 255 0
10.280000 6.470000 14.340000 0 255 0
11.036700 6.226700 2.296700 0 255 0
10.130000 6.000000 24.549999 0 255 0
10.210000 5.310000 8.010000 255 0 0
10.180000 5.130000 20.639999 255 0 0
10.187500 5.195000 17.402500 255 0 0
10.202200 5.280000 11.113300 255 0 0
10.190000 5.218900 14.362200 255 0 0
10.745000 4.625000 14.665000 0 255 0
10.210000 6.400000 3.190000 0 255 0
10.186700 6.427800 -0.048900 0 255 0
9.490000 5.030000 -0.460000 0 255 0
10.030000 6.175000 18.045000 0 255 0
10.293300 5.173300 0.013300 255 0 0
10.275000 5.299000 6.519000 255 0 0
10.270000 5.250000 9.760000 255 0 0
9.942500 4.734000 0.154000 0 255 0
10.446000 5.038000 -0.190000 0 255 0
10.450000 5.430000 25.105000 0 255 0
11.228700 5.282500 17.367500 0 255 0
8.996700 5.290000 19.410000 0 255 0
9.550000 5.425000 -0.255000 0 255 0
10.140000 5.060000 27.309999 255 0 0
11.186400 5.121200 2.408400 0 255 0
9.376000 6.280000 15.163000 0 255 0
10.210000 4.410000 23.889999 0 255 0
10.035000 4.035000 23.660000 0 255 0
10.392000 6.525200 3.197600 0 255 0
10.395000 6.587500 -0.030000 0 255 0
11.087100 4.737100 16.905701 0 255 0
10.838300 5.188300 -0.143300 0 255 0
10.940000 6.240000 4.580000 0 255 0
9.188100 5.467500 9.512500 0 255 0
9.033300 5.126700 16.166700 0 255 0
9.873300 4.836700 10.466700 0 255 0
9.895600 5.184400 0.654400 255 0 0
11.135000 5.635000 15.010000 0 255 0
9.185000 5.250000 20.605000 0 255 0
9.970000 5.550000 13.300000 255 0 0
9.976700 4.926700 25.946699 0 255 0
10.003300 5.190000 10.400000 255 0 0
9.973600 5.268600 3.910700 255 0 0
9.996700 5.239200 7.163300 255 0 0
10.040000 4.260000 18.900000 0 255 0
10.133300 5.610000 1.303300 255 0 0
9.980000 3.975000 23.379999 0 255 0
9.333800 4.433700 21.557501 0 255 0
8.936700 5.438300 0.465000 0 255 0
9.538800 5.117500 23.462500 0 255 0
9.440000 5.920000 -0.128000 0 255 0
9.444000 5.232000 23.362000 0 255 0
9.395000 5.546700 16.848301 0 255 0
9.382500 5.425000 23.410000 0 255 0
11.086700 5.081700 17.303301 0 255 0
9.650000 4.370000 10.510000 0 255 0
9.750000 4.275000 -0.035000 0 255 0
9.735000 4.480000 12.225000 0 255 0
9.450000 4.630000 26.959999 0 255 0
9.440000 4.730000 20.214001 0 255 0
9.286900 5.573100 15.053800 0 255 0
9.300000 4.785000 19.245001 0 255 0
9.270000 4.840000 16.030001 0 255 0
9.282900 4.680000 12.503500 0 255 0
9.787300 4.725500 19.404499 0 255 0
9.445000 4.847500 20.202499 0 255 0
9.710000 5.630000 0.660000 0 255 0
10.088900 4.583900 -0.196100 0 255 0
9.083300 4.873300 19.946699 0 255 0
9.085000 5.132500 16.844999 0 255 0
9.085000 4.965000 19.080000 0 255 0
10.233800 5.129200 0.307700 255 0 0
10.245000 5.195000 3.570000 255 0 0
10.480000 6.270000 14.150000 0 255 0
9.800000 6.270000 22.129999 0 255 0
10.000000 5.280000 19.796700 255 0 0
9.988600 5.328600 16.562901 255 0 0
9.530000 5.280000 23.520000 0 255 0
8.710000 5.260000 0.350000 0 255 0
9.260000 4.450000 0.050000 0 255 0
10.920000 5.660000 19.790001 0 255 0
10.090000 6.240000 23.240000 0 255 0
10.145000 5.130000 4.215000 255 0 0
11.040700 4.777300 16.755301 0 255 0
10.992000 5.772000 1.366000 0 255 0
10.886700 5.320000 16.706699 0 255 0
10.905000 5.281700 19.963301 0 255 0
9.910000 6.170000 17.955000 0 255 0
9.341700 4.580900 10.560900 0 255 0
9.328000 4.720000 20.094000 0 255 0
9.710000 5.940000 26.594999 0 255 0
9.340000 4.650000 15.900000 0 255 0
9.330000 5.195000 0.010000 0 255 0
9.320000 5.120000 22.830000 0 255 0
9.396700 5.746700 19.823299 0 255 0
9.930000 4.385000 23.665001 0 255 0
9.925000 4.440000 0.945000 0 255 0
10.637100 5.330000 16.607100 0 255 0
9.950000 4.928000 0.556000 0 255 0
9.341800 5.080900 9.350900 0 255 0
9.020000 5.040000 22.930000 0 255 0
9.040000 5.160000 19.650000 0 255 0
9.870000 5.740000 16.620001 0 255 0
9.490000 4.326700 -0.433300 0 255 0
9.485000 4.266700 15.355000 0 255 0
11.050000 6.010000 0.040000 0 255 0
11.050000 5.785000 22.245001 0 255 0
11.033800 6.080700 3.320300 0 255 0
11.042500 5.985000 2.948800 0 255 0
9.930000 4.528300 -0.431700 0 255 0
10.946700 5.033300 26.956699 0 255 0
10.900000 5.390000 4.040000 0 255 0
10.895000 5.745000 19.809999 0 255 0
10.926700 5.033300 26.996700 0 255 0
10.900000 5.660000 22.500000 0 255 0
10.880000 5.380000 2.970000 0 255 0
10.900000 5.430000 -0.170000 0 255 0
9.083200 4.728200 14.808600 0 255 0
9.160000 4.510000 24.150000 0 255 0
8.953300 5.276700 19.416700 0 255 0
10.892800 4.828900 2.415000 0 255 0
10.898300 4.878300 12.148300 0 255 0
10.910000 4.340000 21.809999 0 255 0
10.888800 4.675500 -0.339400 0 255 0
9.483800 4.327500 15.408700 0 255 0
9.494000 4.382000 12.161200 0 255 0
9.870000 5.430000 25.950001 0 255 0
9.884800 4.077100 0.148600 0 255 0
10.400000 5.460000 17.389999 0 255 0
10.370000 5.810000 20.330000 0 255 0
11.234500 5.078200 -0.345500 0 255 0
10.975000 6.075000 1.480000 0 255 0
10.230900 5.570900 4.965500 255 0 0
10.243500 5.533900 1.707200 255 0 0
10.070000 5.500000 8.890000 255 0 0
10.090000 5.530000 5.760000 255 0 0
10.992600 4.480000 16.815800 0 255 0
11.000000 4.383300 23.309999 0 255 0
9.080000 5.460000 23.510000 0 255 0
11.155000 5.065000 2.445000 0 255 0
10.610000 5.230000 23.250000 0 255 0
10.860000 4.600000 20.629999 0 255 0
10.860000 4.880000 26.969999 0 255 0
10.770000 5.360000 12.070000 0 255 0
10.040000 4.640000 0.500000 0 255 0
10.178300 4.478300 26.063299 0 255 0
9.846700 5.193300 -0.230000 255 0 0
9.841400 4.872900 19.321400 0 255 0
10.142000 5.539000 10.562000 255 0 0
9.855000 5.467500 16.462500 0 255 0
9.730000 5.240000 12.590000 0 255 0
11.334000 5.286000 3.616000 0 255 0
9.390000 4.320000 0.750000 0 255 0
9.040000 5.250000 23.650000 0 255 0
8.990000 5.250000 20.510000 0 255 0
10.280000 6.410000 3.575000 0 255 0
10.170000 5.170000 25.040001 255 0 0
10.210000 5.220000 21.900000 255 0 0
10.210000 5.430000 9.270000 255 0 0
10.180000 4.760000 -0.220000 0 255 0
10.500000 5.730000 -0.110000 0 255 0
10.507500 5.685000 3.160000 0 255 0
9.687100 5.066200 0.515700 0 255 0
10.250000 4.590000 25.030001 0 255 0
10.230000 4.185000 -0.285000 0 255 0
10.220000 4.440000 28.110001 0 255 0
10.280000 5.564000 6.458000 255 0 0
10.300000 5.840000 3.260000 0 255 0
8.737500 5.222500 0.112500 0 255 0
9.735000 5.990000 0.110000 0 255 0
10.990400 4.626900 3.670400 0 255 0
10.990000 5.185000 20.160000 0 255 0
10.975700 5.227100 17.115700 0 255 0
9.775000 4.575000 26.900000 0 255 0
9.041300 5.783700 15.305000 0 255 0
9.020000 4.870000 -0.080000 0 255 0
9.880000 5.430000 10.740000 255 0 0
9.910000 5.210000 23.420000 0 255 0
9.890000 5.272500 20.270000 0 255 0
9.905000 5.475000 7.610000 255 0 0
10.370000 5.090000 24.980000 0 255 0
10.397500 4.675000 -0.340000 0 255 0
10.720000 5.640000 3.370000 0 255 0
10.194000 4.075300 -0.283700 0 255 0
9.980000 6.120000 22.129999 0 255 0
9.375000 4.770000 10.740000 0 255 0
9.400000 4.725700 14.011400 0 255 0
10.590000 5.622500 13.972500 0 255 0
9.970000 6.216700 22.213301 0 255 0
9.996700 4.463300 0.430000 0 255 0
10.033300 3.980000 23.563299 0 255 0
9.380000 6.190000 15.160000 0 255 0
9.047500 5.635000 0.120000 0 255 0
10.694000 5.022000 14.770000 0 255 0
10.688000 5.179000 15.300000 0 255 0
9.996000 5.830000 -0.100000 0 255 0
10.330000 5.410000 10.410000 255 0 0
10.320000 5.395000 7.260000 255 0 0
10.290000 5.765000 27.010000 0 255 0
10.320000 5.330000 4.107500 255 0 0
10.360000 5.140000 16.754999 0 255 0
10.340500 4.876500 0.112500 0 255 0
10.380000 5.200000 4.240000 255 0 0
11.242400 5.187100 3.761900 0 255 0
10.450000 5.270000 17.450001 0 255 0
9.820000 5.260000 0.010000 255 0 0
9.820000 4.830000 12.350000 0 255 0
11.287100 5.432900 3.856400 0 255 0
11.297200 5.273300 0.817800 0 255 0
9.092500 4.932500 16.205000 0 255 0
9.880000 6.010000 21.770000 0 255 0
10.070000 5.560000 25.330000 0 255 0
10.090000 6.270000 19.360001 0 255 0
10.460000 4.760000 22.639999 0 255 0
10.420000 4.410000 -0.210000 0 255 0
9.490000 4.373300 15.260000 0 255 0
9.620000 5.290000 18.740000 0 255 0
10.155700 5.184300 19.809999 255 0 0
9.183300 4.520000 15.266700 0 255 0
11.290000 5.336700 17.100000 0 255 0
10.500000 6.050000 27.040001 0 255 0
10.506700 5.626700 1.770000 0 255 0
9.895000 5.180000 -0.155000 255 0 0
10.510000 5.330000 17.730000 0 255 0
9.132500 5.375000 23.607500 0 255 0
10.231300 5.485000 14.208800 255 0 0
10.246700 5.426700 10.960000 255 0 0
10.891700 5.768300 22.123301 0 255 0
10.889200 6.284100 3.300200 0 255 0
10.890000 6.320000 0.080000 0 255 0
10.896700 6.333300 1.206700 0 255 0
9.810000 5.490000 0.070000 255 0 0
10.250000 3.980000 23.680000 0 255 0
10.100000 5.000000 23.915001 255 0 0
9.540000 5.110000 27.860001 0 255 0
10.190000 5.100000 25.230000 255 0 0
10.545000 5.110000 0.415000 0 255 0
9.920000 5.620000 9.610000 0 255 0
10.520000 4.280000 26.969999 0 255 0
10.546700 4.176700 26.966700 0 255 0
9.460000 6.000000 16.120001 0 255 0
9.590000 5.050000 0.190000 0 255 0
10.544300 5.482900 14.855700 0 255 0
10.547500 5.572500 21.357500 0 255 0
10.280000 5.520000 7.806700 255 0 0
10.272500 5.527500 5.007500 255 0 0
10.281300 5.566100 1.863000 0 255 0
10.310000 6.220000 23.540001 0 255 0
9.280000 4.430000 18.200001 0 255 0
9.230000 5.280000 21.990000 0 255 0
9.220000 5.030000 19.110001 0 255 0
9.242000 5.134000 12.606000 0 255 0
9.750000 5.395000 9.120000 0 255 0
10.101700 4.625000 -0.435000 0 255 0
9.670000 4.200000 0.440000 0 255 0
9.691300 4.486300 19.451200 0 255 0
10.795000 4.932500 17.402500 0 255 0
10.580000 6.290000 19.490000 0 255 0
9.095000 6.170000 0.440000 0 255 0
9.080000 5.695000 15.250000 0 255 0
10.485000 4.825000 28.070000 0 255 0
10.584000 4.188000 19.302000 0 255 0
10.541800 6.442400 3.462900 0 255 0
9.540000 4.425000 20.058701 0 255 0
10.287500 5.087500 10.702500 0 255 0
9.955000 4.345000 23.795000 0 255 0
9.638200 4.430000 -0.279100 0 255 0
9.643100 4.631400 12.355200 0 255 0
10.290000 5.070000 28.049999 0 255 0
10.140000 5.620000 -0.100000 255 0 0
10.140000 5.660000 2.940000 255 0 0
10.380000 5.600000 25.209999 0 255 0
10.446700 5.373300 12.093300 0 255 0
10.493300 4.975800 -0.145800 0 255 0
10.510000 5.270000 18.650000 0 255 0
9.490000 4.280000 27.110001 0 255 0
9.505000 5.490000 0.212500 0 255 0
9.410000 4.580000 20.170000 0 255 0
11.092500 5.081300 16.857500 0 255 0
10.650000 6.460000 1.820000 0 255 0
9.676700 4.223300 20.123301 0 255 0
9.692500 4.322500 26.860001 0 255 0
10.630000 5.520000 3.815000 0 255 0
10.136700 4.193300 19.146700 0 255 0
9.490000 4.760000 -0.150000 0 255 0
10.160000 5.030000 11.820000 0 255 0
10.140000 5.135000 18.305000 255 0 0
10.030000 4.520000 0.710000 0 255 0
9.980000 4.182000 23.360001 0 255 0
9.543300 5.326700 18.667500 0 255 0
9.545000 4.690000 12.165000 0 255 0
9.845000 4.635000 20.299999 0 255 0
9.860000 4.550000 27.059999 0 255 0
10.026700 4.771700 -0.143900 0 255 0
9.980000 4.830000 0.350000 0 255 0
9.990000 5.060000 0.130000 0 255 0
9.140000 5.200000 -0.080000 0 255 0
9.901800 5.783600 16.547300 0 255 0
9.550000 4.800000 21.379999 0 255 0
9.550000 4.880000 27.860001 0 255 0
10.670000 4.910000 -0.430000 0 255 0
9.340000 6.170000 0.020000 0 255 0
10.132500 6.270000 19.370001 0 255 0
9.443300 5.190000 0.166700 0 255 0
9.860000 6.160000 22.170000 0 255 0
9.550000 4.830000 25.080000 0 255 0
9.540000 4.443300 -0.260000 0 255 0
10.390000 6.560000 3.205000 0 255 0
11.210000 5.190000 1.980000 0 255 0
10.490000 6.340000 19.549999 0 255 0
10.507100 6.014300 0.548600 0 255 0
8.990000 5.250000 19.219999 0 255 0
9.802000 5.468000 9.360000 0 255 0
9.330000 4.690000 19.966700 0 255 0
11.110000 4.700000 27.030001 0 255 0
10.278300 5.428300 9.701700 255 0 0
10.293100 5.473800 6.457700 255 0 0
10.283300 5.373300 -0.033300 255 0 0
10.290000 5.332400 3.207800 0 255 0
10.785000 5.940000 21.955000 0 255 0
10.791800 6.224500 3.774500 0 255 0
9.730000 4.910000 20.170000 0 255 0
9.740000 4.990000 23.315001 0 255 0
9.790000 5.320000 21.320000 0 255 0
10.085000 5.135000 15.457500 255 0 0
10.082700 5.079300 18.612700 255 0 0
11.092400 4.580000 16.813601 0 255 0
9.900000 5.520000 3.852500 255 0 0
9.877100 5.338600 16.510000 0 255 0
9.830000 4.340000 23.660000 0 255 0
9.845300 4.485300 20.155300 0 255 0
9.846700 4.386700 26.908899 0 255 0
9.329000 4.931000 19.969999 0 255 0
11.042300 5.634600 15.009200 0 255 0
10.292900 4.834300 12.207100 0 255 0
10.932900 5.124300 12.250000 0 255 0
10.960000 5.170000 12.110000 0 255 0
9.170000 5.285000 16.750000 0 255 0
9.445400 4.679700 10.560300 0 255 0
10.540000 5.984000 14.098000 0 255 0
10.150000 5.260000 17.320000 255 0 0
10.150000 5.340000 20.469999 255 0 0
10.138300 5.218300 14.163300 255 0 0
10.136900 5.193800 11.006200 255 0 0
9.635000 4.325000 27.075001 0 255 0
9.620000 5.790000 26.500000 0 255 0
9.553300 4.640000 10.216700 0 255 0
9.720000 4.250000 27.190001 0 255 0
10.693800 4.976300 0.070000 0 255 0
9.439400 5.285000 9.453100 0 255 0
10.150000 5.270000 14.960000 255 0 0
10.130000 5.460000 28.030001 0 255 0
10.142400 5.222000 11.712400 255 0 0
10.138500 5.189200 8.453100 255 0 0
9.742000 4.764000 12.076000 0 255 0
9.380000 4.610000 25.650000 0 255 0
10.640000 5.240000 28.110001 0 255 0
10.220000 4.590000 23.790001 0 255 0
10.030000 4.880000 25.040001 0 255 0
10.030000 5.360000 19.100000 255 0 0
10.050000 5.520000 16.059999 255 0 0
10.041500 5.233100 9.310600 255 0 0
10.036000 5.476000 12.806400 255 0 0
10.052500 5.190000 6.057500 255 0 0
10.310000 5.650000 -0.110000 0 255 0
10.272700 6.177300 3.119100 0 255 0
9.295000 4.425000 23.840000 0 255 0
10.945000 6.195000 -0.090000 0 255 0
9.842500 5.575000 -0.175000 255 0 0
9.860000 5.410000 2.870000 255 0 0
10.730000 5.720000 14.020000 0 255 0
9.260000 5.560000 21.570000 0 255 0
10.187300 5.533300 10.759300 255 0 0
10.193200 5.589500 7.507900 255 0 0
10.190000 5.640000 4.060000 255 0 0
10.197300 5.590500 7.111400 255 0 0
10.180800 5.535000 10.360800 255 0 0
9.877100 5.334300 0.466400 255 0 0
9.874000 5.342000 0.410000 255 0 0
10.000000 5.325000 19.242500 255 0 0
10.485000 4.018300 25.313299 0 255 0
10.000000 5.070000 16.430000 0 255 0
9.990500 4.924800 0.210500 0 255 0
9.395000 4.992500 20.049999 0 255 0
10.630000 5.310000 23.250000 0 255 0
10.620000 5.690000 13.980000 0 255 0
10.876700 6.380500 3.314300 0 255 0
11.093300 5.027800 4.512200 0 255 0
10.330000 5.400000 8.970000 255 0 0
10.320000 5.180000 22.030001 0 255 0
10.348000 4.829000 0.067000 0 255 0
10.340000 5.310000 5.830000 255 0 0
10.073300 4.213300 19.006701 0 255 0
10.160000 5.200000 22.620001 255 0 0
10.228300 4.385000 0.168300 0 255 0
9.687500 6.387500 -0.080000 0 255 0
8.782000 5.682000 -0.088000 0 255 0
10.141400 4.127100 23.610001 0 255 0
9.440000 5.840000 0.020000 0 255 0
10.040000 5.230000 28.180000 0 255 0
10.043300 5.280000 18.506701 255 0 0
10.256700 4.933300 11.953300 0 255 0
10.243300 4.873300 21.353300 0 255 0
9.396300 5.278700 18.603800 0 255 0
10.735000 5.575000 15.060000 0 255 0
10.787400 5.134200 17.356800 0 255 0
10.985000 5.925000 14.166700 0 255 0
10.990000 5.780000 24.520000 0 255 0
10.974300 5.340000 2.465700 0 255 0
10.994400 5.927800 14.200000 0 255 0
11.000000 5.930000 14.080000 0 255 0
10.548200 5.226500 15.109400 0 255 0
9.905000 5.520000 4.865000 255 0 0
9.902900 5.388600 14.762900 255 0 0
9.587100 5.126400 12.365000 0 255 0
10.690000 5.577500 21.456200 0 255 0
10.688300 5.472800 15.161100 0 255 0
9.907000 5.474500 4.163000 255 0 0
9.905000 5.435000 7.410000 255 0 0
9.405000 4.780000 -0.460000 0 255 0
9.388900 4.527800 15.462800 0 255 0
9.394400 4.579000 12.218000 0 255 0
10.933300 4.620000 12.163300 0 255 0
10.690600 5.836200 14.251200 0 255 0
10.044600 4.080000 -0.177700 0 255 0
10.030000 4.170000 18.940001 0 255 0
10.736200 5.986200 14.206200 0 255 0
10.640800 4.836200 12.066700 0 255 0
10.685000 4.825000 24.411699 0 255 0
10.697500 5.380000 2.353700 0 255 0
10.686700 5.176700 15.398300 0 255 0
10.691400 5.030900 12.151800 0 255 0
11.040000 4.775000 12.310000 0 255 0
10.998900 5.730400 2.459300 0 255 0
9.270000 5.420000 20.500000 0 255 0
10.083300 5.630000 9.060000 255 0 0
10.100000 5.560000 12.325000 255 0 0
9.940000 4.470000 0.560000 0 255 0
9.240000 6.226700 -0.070000 0 255 0
9.520000 4.715000 20.295000 0 255 0
11.010000 4.860000 -0.430000 0 255 0
10.992500 4.682500 11.667500 0 255 0
11.000000 4.636200 14.819200 0 255 0
11.150000 4.990000 26.190001 0 255 0
10.838000 4.724000 12.266000 0 255 0
9.490000 4.740000 19.709999 0 255 0
9.485000 4.425000 0.702500 0 255 0
9.494000 4.438700 0.119300 0 255 0
11.185000 5.585000 2.510000 0 255 0
10.240000 5.190000 17.245001 255 0 0
10.234000 5.275000 10.953000 255 0 0
10.255000 5.330000 0.955000 255 0 0
10.236700 5.238700 7.702700 255 0 0
11.193300 5.770000 15.023300 0 255 0
11.197000 5.824000 5.002000 0 255 0
9.440000 4.575000 23.510000 0 255 0
11.170000 4.940000 23.959999 0 255 0
11.185000 4.823300 4.603300 0 255 0
11.295600 5.081100 4.555600 0 255 0
10.942500 4.927500 27.764999 0 255 0
10.944700 5.331800 2.470800 0 255 0
10.936000 4.684000 11.862000 0 255 0
10.946700 5.288300 2.751700 0 255 0
10.952900 5.294700 2.707100 0 255 0
10.736700 5.383300 0.523300 0 255 0
10.735600 5.040000 3.602200 0 255 0
10.870000 4.770000 24.510000 0 255 0
10.890000 4.750000 15.020000 0 255 0
10.892900 5.340000 2.348600 0 255 0
10.900000 4.600000 12.190000 0 255 0
10.890000 4.600000 11.930000 0 255 0
10.892900 4.732900 14.952900 0 255 0
10.908000 5.338000 2.314000 0 255 0
10.894300 5.327100 3.445700 0 255 0
10.894300 5.177600 0.117600 0 255 0
10.620000 5.510000 0.190000 0 255 0
10.641300 5.582600 3.457700 0 255 0
10.778000 5.930000 0.168000 0 255 0
10.795400 5.890300 3.406000 0 255 0
10.650000 5.192000 -0.192000 0 255 0
10.640000 5.050000 2.980000 0 255 0
10.695600 5.025600 -0.193300 0 255 0
10.705000 5.170000 2.965000 0 255 0
10.760000 5.830000 3.240000 0 255 0
10.691100 5.030000 -0.141100 0 255 0
10.706700 5.176700 2.920000 0 255 0
11.146000 4.740000 14.956000 0 255 0
11.144000 4.789000 18.205999 0 255 0
11.098000 5.785000 3.111000 0 255 0
10.386200 5.283700 2.698700 0 255 0
10.710000 5.030000 15.200000 0 255 0
10.686700 5.081700 12.058300 0 255 0
10.680000 5.230000 2.545000 0 255 0
9.445700 4.677100 0.220000 0 255 0
10.442100 5.442500 2.214200 0 255 0
10.990000 4.940000 21.468000 0 255 0
10.994000 5.231000 2.102000 0 255 0
9.610000 4.640000 0.370000 0 255 0
9.592500 4.735000 19.517500 0 255 0
10.320000 5.363300 5.046700 0 255 0
10.325000 5.420000 8.200000 255 0 0
10.335000 5.215000 21.275000 0 255 0
10.320000 5.325000 1.905000 255 0 0
9.235000 4.586700 -0.495000 0 255 0
9.860000 5.370000 2.620000 255 0 0
9.580000 4.710000 19.700001 0 255 0
9.595000 4.625000 0.160000 0 255 0
9.842500 5.147500 24.352501 0 255 0
9.830000 5.160000 27.590000 0 255 0
9.600000 4.840000 15.890000 0 255 0
9.590000 4.290000 -0.630000 0 255 0
9.593600 4.727300 21.450899 0 255 0
11.085000 6.045000 1.345000 0 255 0
10.036700 5.615600 8.662200 255 0 0
10.039700 5.584400 5.511400 255 0 0
9.973300 5.330000 21.350000 0 255 0
9.800000 5.210000 0.460000 0 255 0
9.905000 5.390000 7.155000 255 0 0
9.895100 5.280000 0.860100 0 255 0
11.290000 5.536700 3.803300 0 255 0
11.294600 5.368500 0.702300 0 255 0
9.710000 4.600000 0.290000 0 255 0
10.031700 5.084000 0.410900 255 0 0
8.788800 5.728700 -0.183700 0 255 0
9.944500 6.526400 -0.034500 0 255 0
9.360000 4.820000 23.809999 0 255 0
9.130000 5.425000 0.145000 0 255 0
9.860000 5.350000 1.720000 255 0 0
9.760000 4.610000 26.820000 0 255 0
10.220000 4.225000 27.690001 0 255 0
10.088000 6.380000 19.204000 0 255 0
9.486700 5.086700 23.516701 0 255 0
9.394000 4.630000 -0.444000 0 255 0
10.394000 5.086000 21.308001 0 255 0
9.533300 6.370000 16.706699 0 255 0
9.600000 4.690000 19.440001 0 255 0
10.240000 4.790000 -0.430000 0 255 0
10.245000 5.380000 12.620000 255 0 0
10.230000 5.110000 22.410000 255 0 0
10.250000 5.470000 6.290000 255 0 0
10.250000 5.260000 19.370001 255 0 0
10.249400 5.325900 9.362900 255 0 0
10.241700 5.223300 16.108299 255 0 0
8.998600 5.627100 15.364300 0 255 0
10.670000 5.070000 2.590000 0 255 0
10.710000 4.910000 24.389999 0 255 0
10.694800 5.124300 12.152900 0 255 0
10.686900 4.886200 14.851300 0 255 0
10.025000 4.390000 23.295000 0 255 0
10.470000 5.650000 25.219999 0 255 0
10.520000 5.410000 15.300000 0 255 0
11.186000 5.023500 12.212000 0 255 0
11.342200 5.280300 3.863200 0 255 0
9.860000 5.490000 3.650000 255 0 0
9.857100 5.421400 0.515700 255 0 0
9.830000 5.180000 22.680000 0 255 0
9.680000 5.080000 10.710000 0 255 0
9.685000 4.515000 0.925000 0 255 0
9.685300 4.586000 10.356000 0 255 0
10.760000 5.385000 15.245000 0 255 0
10.738100 5.342500 12.119400 0 255 0
11.440000 5.580000 -0.085000 0 255 0
9.092500 4.725000 23.754999 0 255 0
9.510000 4.730000 21.559999 0 255 0
10.010000 6.250000 21.850000 0 255 0
10.275000 5.295000 15.200000 255 0 0
10.285800 5.475800 2.161200 255 0 0
10.294800 5.427600 5.412400 255 0 0
10.310000 5.145000 12.170000 0 255 0
9.600000 4.490000 19.760000 0 255 0
9.590500 4.634800 10.306700 0 255 0
9.610000 4.370000 0.406700 0 255 0
10.755000 6.083800 1.768700 0 255 0
9.492900 4.531400 -0.472900 0 255 0
10.435000 4.280000 23.469999 0 255 0
10.290000 5.472900 9.505700 255 0 0
10.290000 5.435000 12.660000 255 0 0
10.289300 4.826400 -0.384300 0 255 0
10.298600 5.378200 3.010000 0 255 0
10.282700 5.334300 6.165300 255 0 0
10.300000 5.175000 -0.250000 255 0 0
10.274300 5.291400 6.062900 255 0 0
11.094000 4.968500 4.306500 0 255 0
11.140000 5.250000 23.070000 0 255 0
10.785200 5.174300 3.556200 0 255 0
10.800000 5.886700 0.303300 0 255 0
10.792600 5.831900 3.559000 0 255 0
10.295600 6.337800 3.660900 0 255 0
10.720000 5.140000 -0.280000 0 255 0
10.726400 5.172900 2.954300 0 255 0
10.341100 6.334400 -0.098900 0 255 0
10.336100 6.380000 3.162800 0 255 0
11.160000 5.340000 2.460000 0 255 0
11.186300 5.988100 2.209400 0 255 0
10.549700 5.627400 1.761500 0 255 0
10.996700 5.740800 1.854200 0 255 0
11.030000 4.790000 12.240000 0 255 0
10.986000 5.732000 2.419000 0 255 0
9.860000 5.500000 3.980000 255 0 0
9.856700 5.422200 0.800000 255 0 0
11.106700 4.833300 18.163300 0 255 0
11.110000 4.870000 15.000000 0 255 0
11.045800 5.883300 1.406700 0 255 0
10.260000 5.770000 12.080000 0 255 0
10.271900 5.245400 1.006500 255 0 0
10.280000 5.230000 4.005000 255 0 0
10.278500 5.283900 0.860900 0 255 0
10.210000 5.140000 3.810000 255 0 0
10.140000 6.132900 18.847099 0 255 0
10.189100 5.189900 0.659500 0 255 0
9.820000 4.250000 16.520000 0 255 0
9.827500 4.585000 0.102500 0 255 0
9.592000 5.070000 22.672001 0 255 0
9.490000 5.500000 9.405000 0 255 0
8.790000 5.420000 -0.440000 0 255 0
9.740000 5.894000 19.108000 0 255 0
9.240000 5.090000 23.360001 0 255 0
11.010000 5.470000 -0.230000 0 255 0
11.010000 5.430000 2.920000 0 255 0
10.980000 5.928000 22.059999 0 255 0
11.050000 4.945000 17.309999 0 255 0
10.892500 6.035000 3.707500 0 255 0
9.687100 4.330600 16.660601 0 255 0
9.500000 4.973300 0.206700 0 255 0
9.470000 5.515000 16.530001 0 255 0
10.820000 5.380000 25.209999 0 255 0
10.850000 5.796700 -0.096700 0 255 0
9.130000 5.560000 -0.040000 0 255 0
9.841700 4.636700 -0.040000 0 255 0
10.180000 4.886700 28.120001 0 255 0
10.288300 5.370000 12.361700 255 0 0
10.293500 4.777000 -0.284000 0 255 0
10.305000 5.170000 25.014999 0 255 0
10.280000 5.350000 15.630000 255 0 0
10.120000 5.070000 21.129999 255 0 0
10.846700 6.233300 3.510000 0 255 0
10.830000 6.190000 0.270000 0 255 0
9.310000 4.490000 16.730000 0 255 0
9.650000 6.040000 0.250000 0 255 0
10.236000 5.082000 21.264000 255 0 0
10.691700 4.490000 -0.290000 0 255 0
10.684000 4.368000 19.257999 0 255 0
9.385000 4.535000 12.452500 0 255 0
11.197100 5.030000 2.322900 0 255 0
11.196700 5.180000 18.120001 0 255 0
9.323300 6.031700 16.799999 0 255 0
10.492700 5.331800 16.474501 0 255 0
11.251300 5.281200 17.307501 0 255 0
10.590000 5.524800 16.708700 0 255 0
9.190000 4.520000 18.240000 0 255 0
10.837800 4.735700 14.711300 0 255 0
10.384100 6.484100 16.854700 0 255 0
9.190000 6.100000 16.490000 0 255 0
9.040000 4.933300 21.309999 0 255 0
11.196000 4.770000 -0.380500 0 255 0
10.300000 4.390000 -0.670000 0 255 0
10.289300 4.983900 11.961800 0 255 0
9.590000 5.270000 -0.305000 0 255 0
9.587300 5.534500 9.516400 0 255 0
11.140000 5.738300 -0.146700 0 255 0
11.160000 5.800000 3.030000 0 255 0
10.460000 5.360000 27.930000 0 255 0
10.682500 6.035000 0.015000 0 255 0
11.340000 5.380000 -0.135000 0 255 0
11.255000 5.190000 4.560000 0 255 0
10.995500 4.930900 3.769100 0 255 0
11.327400 5.371600 3.467900 0 255 0
11.038800 6.131600 3.661600 0 255 0
10.738900 5.029400 -0.194400 0 255 0
10.725000 5.085000 3.060000 0 255 0
10.535100 5.377600 2.804100 0 255 0
10.343300 6.323300 3.120000 0 255 0
10.488300 5.327400 2.652600 0 255 0
10.490000 5.830000 27.910000 0 255 0
10.534400 5.379400 2.603800 0 255 0
11.243300 5.471700 12.356700 0 255 0
11.239100 5.326200 2.453800 0 255 0
11.192400 5.829500 2.118100 0 255 0
10.802000 5.132000 17.452000 0 255 0
10.730000 5.570000 14.950000 0 255 0
10.745300 5.774500 1.907700 0 255 0
11.194700 5.782700 4.955300 0 255 0
11.188200 5.834500 1.799100 0 255 0
10.997100 6.170000 3.710000 0 255 0
10.986500 6.181800 4.054100 0 255 0
10.990000 6.230000 0.730000 0 255 0
10.990600 6.186700 4.010000 0 255 0
11.010000 6.220000 1.210000 0 255 0
10.777500 5.886700 0.863800 0 255 0
9.998100 5.031200 0.218800 0 255 0
9.960000 6.020000 22.430000 0 255 0
11.200000 4.963300 25.896700 0 255 0
11.187500 4.782500 12.470000 0 255 0
9.685000 4.875000 15.857500 0 255 0
10.280000 5.524400 5.762200 255 0 0
10.300000 5.570000 2.500000 255 0 0
10.886100 5.025000 3.320600 0 255 0
10.840000 5.635000 0.300000 0 255 0
10.893800 5.079200 12.301500 0 255 0
9.885000 6.025000 22.174999 0 255 0
9.460000 5.610000 -0.010000 0 255 0
9.990000 5.460000 16.650000 255 0 0
10.000000 5.520000 13.430000 255 0 0
10.010000 5.190000 10.305000 255 0 0
9.977700 5.269200 4.003100 255 0 0
10.000000 5.242500 7.063700 255 0 0
9.130000 5.480000 0.200000 0 255 0
9.250000 5.500000 19.514999 0 255 0
9.488000 4.674000 0.220000 0 255 0
10.410000 4.540000 21.379999 0 255 0
10.123300 6.390000 18.916700 0 255 0
10.748600 5.484300 3.905700 0 255 0
10.439500 5.085000 0.159700 0 255 0
10.434700 5.322700 16.464001 0 255 0
10.791100 4.380000 -0.395600 0 255 0
10.440000 6.050000 19.500000 0 255 0
10.636700 5.417600 12.070500 0 255 0
10.636300 5.475000 15.215000 0 255 0
9.150000 5.300000 -0.130000 0 255 0
9.120000 5.180000 18.820000 0 255 0
9.138300 5.076700 12.500000 0 255 0
11.136300 5.076800 14.957400 0 255 0
10.696500 5.725900 1.814900 0 255 0
10.695800 5.531100 14.857400 0 255 0
11.220000 5.270000 12.330000 0 255 0
9.741300 4.726700 10.360700 0 255 0
10.210000 5.330000 3.450000 255 0 0
10.130000 5.990000 22.330000 0 255 0
10.170000 5.120000 16.500000 255 0 0
10.180000 5.173300 13.366700 255 0 0
10.192700 5.267700 6.861500 255 0 0
10.189400 5.235000 10.012200 255 0 0
10.190000 5.140000 8.380000 255 0 0
10.201900 5.215200 1.853300 255 0 0
10.176300 5.191300 5.106300 255 0 0
11.180000 4.950000 24.040001 0 255 0
11.185000 5.010000 17.545000 0 255 0
11.186700 4.838900 4.516700 0 255 0
10.240000 5.370000 0.560000 255 0 0
10.245000 5.180000 13.625000 255 0 0
10.220000 5.140000 10.440000 255 0 0
10.238100 5.277600 7.307100 255 0 0
10.235000 5.229100 4.159100 255 0 0
10.937600 6.287100 4.705900 0 255 0
10.643300 5.228900 3.703900 0 255 0
10.942200 6.236100 4.108300 0 255 0
10.810000 5.450000 0.280000 0 255 0
10.777200 5.378300 3.502200 0 255 0
11.180000 6.035000 0.552500 0 255 0
11.190400 5.986700 3.723700 0 255 0
10.598000 5.678000 0.008000 0 255 0
10.597800 5.627300 3.161700 0 255 0
11.148700 5.936000 2.901300 0 255 0
10.794000 5.938000 2.420000 0 255 0
10.886800 5.529500 2.119200 0 255 0
10.886100 5.530300 2.157300 0 255 0
10.892500 5.722500 15.207500 0 255 0
11.036900 5.728500 1.811900 0 255 0
11.110000 4.600000 14.900000 0 255 0
11.039000 5.778000 1.760500 0 255 0
11.100000 5.830000 1.710000 0 255 0
9.546000 4.387200 0.909700 0 255 0
10.890000 5.370000 17.820000 0 255 0
10.901400 5.985700 2.912900 0 255 0
10.893400 6.032500 1.856800 0 255 0
10.910000 5.430000 15.300000 0 255 0
10.128200 4.475500 0.807700 0 255 0
9.830000 4.413300 0.675000 0 255 0
10.837500 5.370000 19.912500 0 255 0
10.850000 6.090000 0.363300 0 255 0
10.820000 6.090000 1.000000 0 255 0
10.081400 4.430500 0.646400 0 255 0
11.333300 5.227800 3.952200 0 255 0
11.350000 5.182700 0.707300 0 255 0
10.780000 4.550000 -0.160000 0 255 0
9.838600 6.618600 0.001400 0 255 0
10.330000 5.360000 10.240000 255 0 0
10.323300 5.176700 23.306700 0 255 0
10.360000 4.830000 0.360000 0 255 0
9.691100 6.330000 -0.083300 0 255 0
10.742500 4.873800 0.341200 0 255 0
10.810000 5.040000 23.370001 0 255 0
9.350000 5.240000 -0.370000 0 255 0
10.750000 4.633300 15.003300 0 255 0
9.603300 5.436700 9.466700 0 255 0
10.980000 5.968300 1.210000 0 255 0
11.037600 4.727100 4.652400 0 255 0
11.025000 5.230000 23.655001 0 255 0
10.827700 5.833800 3.862300 0 255 0
10.040000 4.610000 -0.130000 0 255 0
10.428000 4.674000 12.066000 0 255 0
8.870000 5.130000 0.900000 0 255 0
9.797500 4.527500 0.210000 0 255 0
10.190000 6.540000 16.719999 0 255 0
9.426700 4.275000 0.451700 0 255 0
9.585000 4.680000 19.955000 0 255 0
9.350000 5.720000 26.490000 0 255 0
10.760000 4.380000 27.020000 0 255 0
9.840000 4.680000 10.610000 0 255 0
9.850000 4.320000 26.940001 0 255 0
10.045000 5.087500 -0.200000 255 0 0
9.545000 5.090000 23.580000 0 255 0
9.610000 4.570000 16.520000 0 255 0
9.593600 4.529100 19.558201 0 255 0
9.688700 4.483800 16.530001 0 255 0
9.692000 4.628000 19.566000 0 255 0
9.785000 5.050000 12.065000 0 255 0
10.295000 4.575000 25.030001 0 255 0
10.747500 4.680000 -0.330000 0 255 0
10.736700 4.572200 20.412201 0 255 0
10.591700 4.374200 19.250000 0 255 0
10.695000 5.382500 -0.190000 0 255 0
10.030000 5.320000 19.389999 255 0 0
10.043300 5.186700 22.459999 255 0 0
10.030000 5.277000 16.150000 255 0 0
11.110000 5.630000 4.240000 0 255 0
11.086200 5.426900 16.915400 0 255 0
10.650000 5.230000 17.200001 0 255 0
10.830000 5.200000 19.879999 0 255 0
10.840000 5.135800 3.455800 0 255 0
10.482700 5.435300 14.809300 0 255 0
10.095000 5.795000 21.754999 0 255 0
10.088600 5.578600 9.109000 255 0 0
10.088100 5.619000 5.858600 255 0 0
10.685000 5.045000 15.255000 0 255 0
10.676700 5.093300 12.026700 0 255 0
10.985800 4.690400 12.008500 0 255 0
10.260000 5.370000 7.840000 255 0 0
10.257300 5.485300 1.363300 255 0 0
10.250000 5.150000 17.740000 0 255 0
10.244000 5.284000 14.408000 0 255 0
10.255000 5.317500 4.715000 255 0 0
10.238000 5.234000 11.264000 255 0 0
10.556700 4.236700 -0.603300 0 255 0
10.535000 4.186700 -0.331700 0 255 0
9.375000 4.435000 23.915001 0 255 0
11.336500 5.126700 1.559100 0 255 0
11.089600 4.731300 3.667400 0 255 0
11.345000 5.125000 12.555000 0 255 0
11.324000 4.927000 -0.080000 0 255 0
11.350000 5.132800 3.362800 0 255 0
11.345000 5.083300 0.108300 0 255 0
10.437000 4.535000 -0.034000 0 255 0
10.650000 4.870000 -0.070000 0 255 0
10.734000 4.578000 -0.348000 0 255 0
10.380000 4.125000 19.254999 0 255 0
9.100000 4.780000 21.320000 0 255 0
9.240000 4.995000 0.405000 0 255 0
9.930000 5.480000 17.660000 0 255 0
9.255000 5.530000 16.580000 0 255 0
10.935000 5.465000 2.605000 0 255 0
10.952000 5.488000 2.354000 0 255 0
10.940000 5.690000 14.995000 0 255 0
9.243300 5.133300 23.660000 0 255 0
9.230000 5.620000 16.910000 0 255 0
9.810000 6.080000 22.240000 0 255 0
9.840000 4.280000 23.629999 0 255 0
9.830000 4.500000 10.550000 0 255 0
9.850000 4.550000 1.000000 0 255 0
9.996700 5.320000 17.646700 255 0 0
9.990000 5.300000 20.930000 255 0 0
10.453300 5.180000 24.980000 0 255 0
10.435700 4.775700 -0.341400 0 255 0
10.490000 4.335000 22.719999 0 255 0
10.490000 5.850000 21.910000 0 255 0
10.485200 5.527000 2.964800 0 255 0
9.460000 4.350000 16.770000 0 255 0
9.430000 4.360000 20.030001 0 255 0
9.590000 4.465000 20.160000 0 255 0
9.250000 4.925000 -0.055000 0 255 0
9.890000 5.330000 18.580000 0 255 0
9.895000 5.525000 5.910000 255 0 0
10.130000 6.374300 18.860001 0 255 0
10.295800 4.840000 12.163300 0 255 0
10.740000 5.040000 26.850000 0 255 0
10.741800 5.280000 17.370001 0 255 0
11.250000 5.220000 21.750000 0 255 0
11.246700 4.866700 12.153300 0 255 0
11.085000 5.433900 12.222900 0 255 0
10.535000 5.080000 28.155001 0 255 0
11.246000 5.626000 0.296000 0 255 0
11.238800 5.487500 3.658700 0 255 0
11.238600 6.031400 0.200000 0 255 0
11.186900 5.373100 12.459200 0 255 0
11.150000 6.070000 0.195000 0 255 0
10.483800 6.331200 -0.085000 0 255 0
10.340000 4.931400 -0.287100 0 255 0
10.343300 5.330000 25.016701 0 255 0
9.870000 6.170000 21.674999 0 255 0
10.884600 6.286900 2.161200 0 255 0
10.438000 4.177000 -0.596000 0 255 0
9.243300 5.266700 23.610001 0 255 0
9.250000 5.490000 16.580000 0 255 0
10.873300 5.636700 1.163300 0 255 0
11.030000 4.900000 4.270000 0 255 0
11.040000 5.237500 23.447500 0 255 0
11.039500 4.735200 3.673300 0 255 0
9.750000 4.460000 10.660000 0 255 0
9.746700 4.640000 20.193300 0 255 0
10.095000 5.140000 11.912500 255 0 0
10.400000 6.290000 3.240000 0 255 0
10.194700 5.129400 0.268800 255 0 0
9.691300 6.072500 20.065001 0 255 0
10.251000 5.533000 7.910000 255 0 0
9.135000 4.940000 23.715000 0 255 0
10.139300 4.135300 19.010000 0 255 0
9.940000 4.150000 23.855000 0 255 0
9.440000 6.230000 16.678600 0 255 0
10.177100 4.468600 -0.491400 0 255 0
10.170000 4.850000 28.040001 0 255 0
10.190800 4.931700 21.308300 0 255 0
10.740000 4.595000 14.910000 0 255 0
10.740000 4.296700 21.660000 0 255 0
9.240000 4.540000 17.959999 0 255 0
9.240000 4.410000 24.240000 0 255 0
9.232500 4.472500 14.707500 0 255 0
10.253300 5.333300 12.470000 255 0 0
10.260000 5.420000 5.960000 255 0 0
10.247100 5.485700 9.213600 255 0 0
10.238800 4.724100 -0.186900 0 255 0
10.247500 5.385000 15.715000 255 0 0
10.238200 5.230900 18.611799 255 0 0
10.838000 5.624000 -0.196000 0 255 0
10.895600 5.233300 17.407801 0 255 0
11.181700 5.620000 15.358300 0 255 0
11.320000 5.430000 -0.170000 0 255 0
11.189500 4.779000 12.252000 0 255 0
11.238300 5.331700 3.908300 0 255 0
11.241400 5.286400 0.652100 0 255 0
10.105000 5.050000 20.405001 255 0 0
10.750000 5.820000 21.490000 0 255 0
10.290000 5.310000 16.520000 255 0 0
10.283300 5.383300 13.263300 255 0 0
10.210000 4.980000 0.510000 0 255 0
10.131400 4.377100 23.564301 0 255 0
10.140000 4.390000 23.690001 0 255 0
9.900000 5.460000 8.460000 255 0 0
10.200000 5.270000 19.230000 255 0 0
10.193300 4.786700 -0.406700 0 255 0
9.160000 5.310000 9.380000 0 255 0
9.091200 5.823800 15.217500 0 255 0
10.990600 5.978900 2.071100 0 255 0
10.204000 6.420000 3.158000 0 255 0
10.310000 6.420000 19.309999 0 255 0
10.700000 4.710000 20.490000 0 255 0
8.990000 5.320000 21.110001 0 255 0
9.550000 4.990000 22.722500 0 255 0
10.490000 6.040000 21.809999 0 255 0
10.470000 5.990000 24.950001 0 255 0
10.290000 4.978000 2.400000 0 255 0
10.290000 4.882500 21.342501 0 255 0
9.989100 4.482700 -0.244500 0 255 0
9.992400 4.582900 18.713499 0 255 0
10.710000 6.270000 16.840000 0 255 0
10.530000 5.320000 22.660000 0 255 0
10.546700 5.250000 16.516701 0 255 0
9.930000 5.420000 17.139999 0 255 0
10.333800 6.222500 -0.132500 0 255 0
10.350000 6.260000 3.090000 0 255 0
9.770000 4.480000 20.320000 0 255 0
10.210000 5.170000 28.070000 0 255 0
10.196700 5.336700 18.146700 255 0 0
10.288800 4.482900 -0.345300 0 255 0
9.420000 5.360000 -0.030000 0 255 0
9.440000 4.286700 19.553301 0 255 0
11.080000 5.027100 -0.102900 0 255 0
10.085700 5.612900 3.960000 255 0 0
10.087500 5.594500 7.208500 0 255 0
10.237100 5.078600 0.306200 0 255 0
10.760000 5.230000 20.010000 0 255 0
11.170000 5.270000 4.140000 0 255 0
10.972200 5.330000 2.277800 0 255 0
11.256700 5.133300 0.566700 0 255 0
11.291800 5.374500 12.467000 0 255 0
10.445000 5.575000 -0.055000 0 255 0
10.455000 5.625000 3.205000 0 255 0
9.880000 4.710000 -0.370000 0 255 0
11.335000 4.979000 -0.037000 0 255 0
10.895400 6.282600 1.909900 0 255 0
11.160000 5.660000 18.230000 0 255 0
9.743300 4.228300 16.660000 0 255 0
10.950000 5.380000 2.815000 0 255 0
10.930000 5.360000 2.850000 0 255 0
10.943300 5.726700 24.506701 0 255 0
9.181300 5.025000 19.108700 0 255 0
9.185000 5.125000 12.615000 0 255 0
10.935600 5.586200 14.962500 0 255 0
9.780000 4.740000 16.590000 0 255 0
