13.785000 7.440000 4.575000 255 0 0
13.800000 7.380000 8.070000 255 0 0
13.790900 7.489100 1.309800 255 0 0
13.310000 8.690000 1.530000 0 255 255
13.836700 6.943300 1.420000 0 255 255
13.848600 6.785700 17.608601 0 255 0
13.830000 6.770000 17.879999 0 255 0
13.838500 7.789000 6.213500 255 0 0
13.850000 7.445000 21.920000 255 0 0
13.835000 7.740000 2.960000 255 0 0
13.830000 7.670000 12.530000 255 0 0
13.838300 7.576700 18.860001 255 0 0
13.820000 7.650000 13.330000 255 0 0
13.860000 7.770000 10.180000 255 0 0
13.860000 7.660000 16.469999 255 0 0
13.793900 7.828300 1.415600 255 0 0
13.820000 7.750000 6.990000 255 0 0
13.130000 6.686700 4.960000 0 255 255
13.943300 8.573300 2.246700 0 255 255
13.840000 6.820000 18.490000 0 255 0
13.830000 7.160000 1.530000 0 255 255
13.930000 8.525000 1.720000 0 255 255
12.893300 7.540000 0.841700 0 255 255
12.880000 7.720000 0.960000 0 255 255
13.650000 7.423300 17.556700 255 0 0
13.990000 6.645000 2.595000 0 255 255
12.847500 7.533300 3.608800 0 255 255
12.838300 7.490000 0.455000 0 255 255
13.878300 6.773300 4.821700 0 255 255
13.892900 6.628600 1.554300 0 255 255
13.730000 8.300000 9.760000 0 255 0
13.790000 7.240000 19.513300 0 255 0
13.795000 7.436300 6.066300 255 0 0
13.797000 7.494000 2.807800 255 0 0
13.550000 7.860000 24.320000 0 255 0
13.580000 8.393300 1.766700 0 255 255
13.180000 7.200000 17.490000 0 255 0
13.160000 7.100000 19.700001 0 255 0
14.410000 8.210000 18.510000 0 255 0
14.191400 7.468600 1.721400 0 255 255
14.295000 7.628300 1.710000 0 255 255
13.420000 7.280000 0.910000 0 255 255
13.435500 7.128800 4.265700 0 255 255
13.792000 8.088000 1.866000 0 255 255
14.238500 6.533300 4.368500 0 255 255
13.590000 7.660000 12.390000 0 255 0
13.770000 7.690000 1.540000 255 0 0
13.780000 7.395000 20.360001 255 0 0
13.780000 7.570000 8.100000 255 0 0
13.770000 7.510000 11.370000 255 0 0
13.781800 7.479100 14.611800 255 0 0
13.787500 7.422500 17.870001 255 0 0
13.770000 7.670000 0.820000 0 255 0
13.790000 7.390000 19.600000 255 0 0
13.787800 7.471100 13.857800 255 0 0
13.782000 7.522000 10.508000 255 0 0
13.788900 7.424400 17.012199 255 0 0
13.840000 6.580000 1.410000 0 255 255
14.446000 7.269000 2.348000 0 255 255
14.693300 7.487800 15.468900 0 255 0
14.990000 7.575000 2.550000 0 255 255
14.510000 7.230000 1.450000 0 255 255
14.510000 7.390000 17.650000 0 255 0
13.098900 7.686700 15.207800 0 255 0
13.490000 7.380000 17.500000 0 255 0
13.492500 7.485000 24.004999 0 255 0
14.660000 7.400000 16.190001 0 255 0
14.644700 7.334700 13.064200 0 255 0
14.883300 7.378300 16.205000 0 255 0
14.889800 7.426500 13.054900 0 255 0
13.735000 6.665000 23.495001 0 255 0
13.220000 7.560000 1.270000 0 255 255
13.240000 7.350000 23.490000 0 255 0
13.225000 7.580000 2.100000 0 255 255
13.246700 7.823300 18.299999 0 255 0
13.236700 7.786700 15.170000 0 255 0
13.180000 8.540000 3.260000 0 255 255
14.790000 7.415000 1.970000 0 255 255
14.780000 7.080000 24.090000 0 255 0
14.790000 7.090000 24.660000 0 255 0
14.786700 7.430000 2.610000 0 255 255
14.790000 7.123300 21.400000 0 255 0
14.557500 8.635000 2.545000 0 255 255
14.241000 6.928000 19.410000 0 255 0
14.230000 7.640000 21.195000 0 255 0
14.239100 7.121700 2.410400 0 255 255
13.230000 7.840000 1.800000 0 255 255
13.699600 7.673800 5.259600 255 0 0
13.698000 7.726800 2.014400 255 0 0
13.390000 7.610000 2.150000 0 255 255
12.940000 8.200000 13.730000 0 255 0
13.945000 7.735000 6.560000 255 0 0
13.932500 7.487500 15.970000 255 0 0
13.930000 7.550000 19.230000 255 0 0
13.927500 7.437500 12.720000 0 255 0
13.950000 7.700000 8.955000 255 0 0
13.960000 7.720000 12.130000 255 0 0
12.939000 7.578000 0.510000 0 255 255
12.939100 7.637300 3.756400 0 255 255
12.933300 7.226700 3.903300 0 255 255
12.938800 7.227700 3.357700 0 255 255
12.693300 7.693300 1.866700 0 255 255
12.710000 7.700000 2.010000 0 255 255
12.691300 7.528700 3.893700 0 255 255
13.848000 8.727000 2.162000 0 255 255
13.540000 8.130000 22.610001 0 255 0
13.880000 8.850000 2.580000 0 255 255
12.740000 7.434500 3.356400 0 255 255
12.720000 7.410000 3.010000 0 255 255
12.746000 7.439700 3.664000 0 255 255
13.986700 7.446700 0.300000 0 255 0
13.985000 7.725000 9.705000 255 0 0
14.050000 7.826700 2.053300 0 255 0
13.084400 7.866700 1.272200 0 255 255
13.092500 7.627500 16.398701 0 255 0
14.370000 7.430000 22.270000 0 255 0
13.800000 7.910000 5.500000 255 0 0
13.838800 7.728700 15.820000 255 0 0
14.885000 7.875000 12.905000 0 255 0
14.895000 7.932200 9.758300 0 255 0
14.135000 6.820000 1.190000 0 255 255
14.120000 6.830000 1.250000 0 255 255
14.645700 7.472900 13.308600 0 255 0
14.780000 7.425000 16.110001 0 255 0
14.788000 7.472700 13.060000 0 255 0
14.102500 6.682500 4.447500 0 255 255
14.085500 6.726500 1.313500 0 255 255
14.088000 6.871000 17.502001 0 255 0
14.090000 6.715000 2.600000 0 255 255
12.830000 7.390000 23.719999 0 255 0
14.840000 7.550000 13.300000 0 255 0
13.900000 7.010000 25.000000 0 255 0
13.885000 7.365000 15.320000 255 0 0
13.145900 7.575900 3.967600 0 255 255
13.140000 7.576700 1.313300 0 255 255
13.142700 7.237300 4.203600 0 255 255
13.185000 7.275000 19.610001 0 255 0
13.920000 6.970000 17.969999 0 255 0
13.940000 7.150000 0.800000 0 255 255
13.940000 7.087500 1.815000 0 255 255
13.936700 6.623300 24.768299 0 255 0
13.940000 6.923300 18.196699 0 255 0
13.936000 6.964000 17.218000 0 255 0
13.930000 8.423300 2.170000 0 255 255
12.940000 8.110000 18.490000 0 255 0
12.930000 8.080000 16.360001 0 255 0
14.396700 6.978300 1.306700 0 255 255
12.783300 7.720000 24.059999 0 255 0
13.890000 7.390000 10.750000 255 0 0
13.910000 7.520000 1.780000 255 0 0
13.870000 7.090000 17.490000 0 255 0
14.239200 7.277500 1.864200 0 255 255
14.240000 6.920000 18.260000 0 255 0
13.990000 6.980000 23.290001 0 255 0
13.990000 7.640000 6.990000 255 0 0
13.973300 7.560000 10.266700 255 0 0
13.935300 8.630000 2.520500 0 255 255
13.030000 8.250000 3.130000 0 255 255
13.033300 8.233300 0.450000 0 255 255
13.047800 8.264400 3.722200 0 255 255
13.890000 8.080000 2.045000 0 255 255
13.910000 8.100000 0.990000 0 255 255
12.900000 6.970000 3.060000 0 255 255
13.092000 7.434000 24.771999 0 255 0
14.330000 7.020000 0.890000 0 255 255
14.350000 7.620000 13.165000 0 255 0
14.170000 7.130000 22.250000 0 255 0
13.390000 7.815000 12.665000 0 255 0
14.280000 8.490000 1.010000 0 255 255
13.690000 6.700000 18.180000 0 255 0
13.650000 7.770000 21.330000 0 255 0
13.660000 7.595000 8.255000 255 0 0
13.640000 7.618000 11.512000 255 0 0
13.689600 8.483000 2.555200 0 255 255
14.230000 8.380000 9.620000 0 255 0
14.130000 7.760000 24.700001 0 255 0
13.535000 6.420000 5.250000 0 255 255
13.480000 7.320000 22.209999 0 255 0
13.498300 6.771700 5.095000 0 255 255
13.488700 7.032300 1.600000 0 255 255
13.484300 6.574300 5.307100 0 255 255
14.490000 7.400000 24.920000 0 255 0
14.498000 7.134000 2.100000 0 255 255
14.497500 7.337500 15.155000 0 255 0
13.830000 7.720000 5.760000 255 0 0
13.830000 7.762200 9.004400 0 255 0
13.801400 7.820000 2.657100 255 0 0
13.993300 8.528800 9.459400 0 255 0
13.251200 7.123800 0.307500 0 255 255
13.930000 8.332000 9.864000 0 255 0
14.730000 7.150000 22.969999 0 255 0
12.770000 7.590000 0.660000 0 255 255
12.791400 7.531400 3.702900 0 255 255
13.410000 6.610000 1.380000 0 255 255
13.200000 7.740000 24.450001 0 255 0
13.780000 8.420000 2.700000 0 255 255
13.970000 7.510000 21.150000 0 255 0
13.946000 8.130000 1.358000 0 255 255
13.950000 8.143300 1.306700 0 255 255
14.010000 7.480000 24.840000 0 255 0
12.830000 7.400000 24.400000 0 255 0
12.840000 7.720000 1.230000 0 255 255
12.836000 7.726000 1.262400 0 255 255
14.296700 8.080000 18.320000 0 255 0
14.385000 7.240000 1.757500 0 255 255
14.387800 7.431500 14.018500 0 255 0
13.840000 7.940000 25.004999 0 255 0
13.846700 8.276700 9.454400 0 255 0
13.855000 8.380000 1.830000 0 255 255
13.945000 6.785000 24.875000 0 255 0
13.932500 6.680000 18.367500 0 255 0
13.944000 6.828000 2.064000 0 255 255
14.984000 7.178000 2.444000 0 255 255
13.870000 8.660000 2.020000 0 255 255
12.980800 7.223300 3.355800 0 255 255
12.835000 7.176200 3.278800 0 255 255
13.847500 7.227500 0.410000 0 255 255
12.730000 7.180000 22.098000 0 255 0
14.780000 7.100000 23.160000 0 255 0
14.040000 6.640000 1.220000 0 255 255
14.330000 7.870000 1.840000 0 255 255
14.245000 8.535000 0.507900 0 255 255
13.530000 7.310000 22.330000 0 255 0
13.534400 6.881100 19.312201 0 255 0
14.485000 7.840000 18.330000 0 255 0
13.720000 6.600000 24.959999 0 255 0
13.895000 6.585000 4.995000 0 255 255
13.935000 6.570000 24.719999 0 255 0
13.933500 6.677600 4.819400 0 255 255
13.938700 6.633300 1.667300 0 255 255
14.630000 7.390000 18.270000 0 255 0
13.590000 8.540000 1.650000 0 255 255
14.330000 8.243300 1.010000 0 255 255
14.080000 6.480000 1.050000 0 255 255
14.852500 7.172500 9.625000 0 255 0
12.960000 7.940000 18.540001 0 255 0
14.080000 6.520000 1.060000 0 255 255
13.390000 7.920000 1.090000 0 255 255
13.932500 8.435000 16.262501 0 255 0
12.935000 7.500000 24.900000 0 255 0
12.785600 7.282800 3.559400 0 255 255
13.890000 7.310000 23.450001 255 0 0
13.870000 7.370000 20.309999 255 0 0
13.880000 7.450000 3.515000 255 0 0
13.897000 7.481700 0.357400 0 255 0
13.887900 7.487500 1.309400 255 0 0
13.910000 7.380000 20.879999 255 0 0
13.880000 7.420000 4.570000 255 0 0
12.754000 7.329200 3.318000 0 255 255
12.940000 7.522500 19.655001 0 255 0
12.940400 7.280200 3.762900 0 255 255
14.303300 8.076700 1.546700 0 255 255
14.300000 8.350000 23.610001 0 255 0
13.938900 8.623300 9.412200 0 255 0
12.910000 7.140000 21.650000 0 255 0
12.860000 7.330000 1.330000 0 255 255
13.437500 6.920000 24.969999 0 255 0
13.025700 7.221400 3.800700 0 255 255
12.810000 7.480000 3.480000 0 255 255
12.783300 7.481700 3.258300 0 255 255
12.790000 7.460000 3.490000 0 255 255
12.800000 7.660000 16.170000 0 255 0
13.087100 7.429600 2.114300 0 255 255
13.710000 7.485000 17.065001 255 0 0
13.710000 7.570000 23.360001 0 255 0
13.694400 7.530600 13.911700 255 0 0
14.250000 7.220000 24.580000 0 255 0
14.195000 8.332500 9.620000 0 255 0
14.028000 6.734000 17.365999 0 255 0
14.700000 6.800000 1.740000 0 255 255
13.976700 7.783300 3.066700 255 0 0
13.989100 8.081800 9.609100 0 255 0
13.985000 7.775000 3.800000 255 0 0
14.050000 7.510000 20.410000 0 255 0
13.950000 7.740000 5.330000 255 0 0
13.938900 7.485600 14.810000 255 0 0
13.942000 7.442000 11.660000 255 0 0
13.395000 8.245000 1.815000 0 255 255
13.388600 7.975700 17.497900 0 255 0
14.180000 7.485000 1.560000 0 255 0
14.486700 7.470000 1.660000 0 255 255
13.760000 8.450000 1.810000 0 255 255
13.887500 7.435000 17.062500 255 0 0
13.880000 7.470000 13.795000 255 0 0
13.886700 7.740000 10.303300 255 0 0
13.887600 7.784100 7.059400 255 0 0
14.640000 7.540000 13.445000 0 255 0
13.670000 8.640000 2.350000 0 255 255
14.936700 7.216700 1.213300 0 255 255
13.638400 8.580000 0.500600 0 255 255
13.150000 7.730000 1.550000 0 255 255
13.388000 7.880700 12.608000 0 255 0
13.395000 7.221000 0.450000 0 255 255
14.070000 8.220000 2.090000 0 255 255
13.945000 6.927500 24.915001 0 255 0
14.070000 6.450000 4.950000 0 255 255
13.085000 7.935000 3.940000 0 255 255
13.090000 7.490000 19.625000 0 255 0
14.900000 7.590000 20.870001 0 255 0
14.585000 7.815000 17.514999 0 255 0
14.560000 7.810000 0.280000 0 255 255
14.540900 7.977300 9.763600 0 255 0
13.198000 8.030000 17.604000 0 255 0
13.396000 8.380000 3.546000 0 255 255
14.594800 7.631200 9.410000 0 255 0
14.040000 6.815000 1.045000 0 255 255
13.937800 6.484800 1.509600 0 255 255
13.940000 6.460000 1.220000 0 255 255
14.020000 7.530000 8.490000 255 0 0
14.050000 7.450000 15.010000 0 255 0
14.040000 7.490000 5.240000 255 0 0
13.845000 8.075000 15.955000 0 255 0
13.836700 8.180000 9.666700 0 255 0
13.943300 8.140000 1.713300 0 255 255
13.970000 7.380000 17.780001 0 255 0
13.960000 7.920000 1.950000 0 255 0
13.990000 7.480000 11.253300 255 0 0
14.000000 7.440000 14.590000 255 0 0
13.987500 7.530000 8.108800 255 0 0
13.890800 7.435400 13.408500 255 0 0
13.887500 7.470000 10.250000 255 0 0
13.890000 7.270000 23.290001 255 0 0
13.890000 7.750000 6.680000 255 0 0
13.880000 7.780000 3.510000 255 0 0
13.940000 6.777500 18.256300 0 255 0
15.030000 7.540000 2.150000 0 255 255
14.773300 7.613300 20.813299 0 255 0
13.020000 6.800000 4.430000 0 255 255
13.056000 6.786000 4.074000 0 255 255
13.785000 8.395000 18.545000 0 255 0
13.890000 7.610000 1.200000 255 0 0
13.890000 7.790000 4.255000 255 0 0
13.896700 7.743300 7.513300 255 0 0
13.896000 7.476000 11.010000 255 0 0
13.886700 7.434400 14.263300 255 0 0
13.070000 6.760000 23.200001 0 255 0
13.094300 6.880000 4.655700 0 255 255
13.082500 8.523700 13.652500 0 255 0
13.092000 8.276000 16.554001 0 255 0
12.943800 6.820400 4.561500 0 255 255
12.920000 6.960000 16.330000 0 255 0
12.920000 7.040000 19.469999 0 255 0
12.676700 7.693300 15.856700 0 255 0
13.710000 7.440000 18.110001 255 0 0
14.900000 7.185000 24.480000 0 255 0
13.420000 6.785000 4.645000 0 255 255
13.690000 7.960000 0.460000 0 255 0
13.500000 6.650000 1.270000 0 255 255
13.660000 8.430000 2.350000 0 255 255
13.650000 8.470000 18.780001 0 255 0
13.635000 8.375000 1.670000 0 255 255
13.500000 7.470000 18.389999 0 255 0
14.490000 7.610000 2.515000 0 255 255
13.236700 8.423300 2.966700 0 255 255
13.737800 7.530300 11.255600 255 0 0
13.733300 7.577300 14.416000 255 0 0
13.739200 7.480000 8.114900 255 0 0
13.751400 7.332100 0.256800 0 255 255
13.755000 7.430000 6.575000 255 0 0
13.741700 7.483800 10.461700 255 0 0
13.735900 7.525400 13.711100 255 0 0
13.735000 7.576700 16.754999 255 0 0
14.894300 7.127100 15.464300 0 255 0
14.646700 7.176700 2.006700 0 255 255
14.010000 7.160000 18.139999 0 255 0
14.010000 7.010000 2.280000 0 255 255
13.790000 8.635000 1.495000 0 255 255
13.806700 8.340000 18.616699 0 255 0
13.200000 7.330000 1.730000 0 255 255
14.150000 7.026700 19.416700 0 255 0
14.920000 7.240000 23.070000 0 255 0
12.795000 7.190000 16.370001 0 255 0
14.447500 7.767500 24.817499 0 255 0
14.943300 7.316700 15.613300 0 255 0
14.480000 7.275000 18.075001 0 255 0
14.446400 7.677300 13.061800 0 255 0
13.041200 8.133800 3.218700 0 255 255
14.540000 7.773300 19.520000 0 255 0
14.546000 7.681000 13.213000 0 255 0
13.800000 7.570000 20.129999 255 0 0
13.790000 7.633300 16.803301 255 0 0
13.784600 7.678500 13.560000 255 0 0
13.786100 7.789100 7.058700 255 0 0
13.791900 7.731000 10.311000 255 0 0
14.148600 8.631400 1.168600 0 255 255
14.340000 7.860000 1.680000 0 255 255
14.540000 7.990000 1.370000 0 255 255
13.888200 8.036400 9.798200 0 255 0
13.830000 6.735000 17.605000 0 255 0
14.040400 7.972600 9.510400 0 255 0
14.032000 8.074000 2.044000 0 255 255
13.080000 7.870000 3.690000 0 255 255
13.030000 8.460000 2.270000 0 255 255
13.045000 8.285000 16.375000 0 255 0
13.860000 8.570000 2.340000 0 255 255
12.935100 8.383400 3.013100 0 255 255
12.840000 7.123300 19.879999 0 255 0
12.860000 7.135000 16.459999 0 255 0
12.844000 7.178000 3.814000 0 255 255
14.142500 7.823800 2.055000 0 255 255
14.200000 8.700000 1.540000 0 255 255
14.034300 7.582900 4.411400 255 0 0
14.057500 7.680000 0.362500 0 255 0
14.030000 7.560000 6.850000 255 0 0
14.020000 7.610000 10.000000 255 0 0
13.320000 8.730000 2.780000 0 255 255
13.739800 7.777200 3.807700 255 0 0
13.735000 7.835000 7.065000 255 0 0
14.040000 8.827500 1.895000 0 255 255
13.080000 7.980000 18.379999 0 255 0
13.600000 7.300000 17.420000 0 255 0
13.585000 7.095000 4.760000 0 255 255
13.605000 7.150000 1.605000 0 255 255
13.687500 7.617500 15.755000 255 0 0
13.702000 7.486000 12.706000 255 0 0
13.698500 7.530600 9.461700 255 0 0
13.338500 7.078000 18.065500 0 255 0
14.086000 6.774000 1.522000 0 255 255
13.270000 6.640000 24.660000 0 255 0
13.283900 6.988200 1.708000 0 255 255
13.790000 8.540000 2.180000 0 255 255
13.805000 8.525000 1.710000 0 255 255
14.440000 7.750000 2.530000 0 255 255
13.910000 6.820000 1.320000 0 255 255
13.885700 6.784300 17.608601 0 255 0
13.243300 7.726700 24.996700 0 255 0
13.898600 8.282900 16.110001 0 255 0
13.980000 7.340000 9.710000 255 0 0
13.980000 6.680000 24.815001 0 255 0
13.852500 6.632500 23.469999 0 255 0
13.935000 8.180000 1.150000 0 255 255
13.938600 7.820000 4.361400 255 0 0
13.980000 7.425000 15.510000 255 0 0
14.000000 7.713300 22.266701 0 255 0
13.987500 7.515000 9.210000 255 0 0
13.978000 7.482000 12.360000 255 0 0
13.997100 7.534300 9.760000 255 0 0
13.980000 7.390000 19.309999 0 255 0
13.975000 7.470000 12.990000 255 0 0
13.978300 7.521700 9.263300 255 0 0
13.998000 7.474000 12.505000 255 0 0
13.990000 7.437500 15.767500 255 0 0
14.010000 7.470000 11.880000 0 255 0
13.990000 7.660000 24.889999 0 255 0
13.991100 7.531100 8.708900 255 0 0
13.650000 7.640000 25.389999 0 255 0
12.990200 7.929800 12.710200 0 255 0
12.896700 7.883300 2.946700 0 255 255
14.991400 7.532900 15.557100 0 255 0
14.797100 7.428600 9.514300 0 255 0
12.910000 7.820000 15.430000 0 255 0
14.346700 7.381100 2.568900 0 255 255
13.490900 7.982700 0.405500 0 255 255
14.283300 7.163300 18.070000 0 255 0
14.270000 7.270000 24.570000 0 255 0
14.295000 7.115000 21.309999 0 255 0
13.701500 7.679200 2.058500 255 0 0
13.700000 7.720000 23.309999 0 255 0
13.705000 7.497500 13.507500 255 0 0
13.700700 7.534700 10.256000 255 0 0
14.093300 7.886700 1.816700 0 255 0
14.195000 7.175000 19.370001 0 255 0
13.255000 7.300000 4.695000 0 255 255
13.553300 8.436700 9.503300 0 255 0
14.196700 8.616700 2.196700 0 255 255
14.240000 7.870000 2.860000 0 255 255
13.186700 8.333300 20.266701 0 255 0
13.433300 7.183300 0.140000 0 255 255
13.345000 8.025000 0.395000 0 255 255
13.332500 8.084400 3.662500 0 255 255
13.389100 7.320900 4.254500 0 255 255
13.550000 7.720000 0.440000 0 255 255
13.545000 7.630000 19.410000 0 255 0
13.780000 6.820000 18.154301 0 255 0
12.850000 8.060000 1.350000 0 255 255
14.153600 6.690000 4.951800 0 255 255
14.138300 6.638300 1.710000 0 255 255
13.252500 7.517500 2.222500 0 255 255
14.430000 7.250000 15.140000 0 255 0
14.425500 7.032700 2.509100 0 255 255
14.252000 7.434000 1.848000 0 255 255
14.246700 7.576700 0.813300 0 255 255
13.634000 7.394000 2.114000 0 255 0
14.130000 7.050000 0.290000 0 255 255
14.250000 7.625000 2.205000 0 255 255
14.250000 7.630000 1.475000 0 255 255
14.240000 7.460000 17.379999 0 255 0
12.928700 7.785000 15.407500 0 255 0
14.690000 7.790000 2.170000 0 255 255
13.570000 6.920000 18.559999 0 255 0
14.310000 7.380000 2.410000 0 255 255
14.270000 6.460000 22.350000 0 255 0
13.492000 6.746000 18.162001 0 255 0
14.294000 7.792000 1.454000 0 255 255
14.293300 7.790000 1.120000 0 255 255
13.828700 7.733800 12.312500 0 255 0
13.850000 7.640000 19.660000 255 0 0
13.836700 7.718300 13.350000 255 0 0
13.780000 7.880000 4.500000 0 255 0
13.790000 7.820000 7.780000 255 0 0
13.849100 7.725500 13.448200 255 0 0
13.795000 7.950000 1.265000 0 255 0
13.180000 7.035000 19.395000 0 255 0
14.670000 7.220000 19.790001 0 255 0
13.689200 8.686900 9.312300 0 255 0
13.043000 7.720700 1.212200 0 255 255
13.210000 7.150000 1.840000 0 255 255
12.930000 6.870000 22.209999 0 255 0
13.153300 7.780000 1.796700 0 255 255
13.130000 7.330000 24.760000 0 255 0
13.160000 7.240000 17.620001 0 255 0
13.135000 7.786700 1.268300 0 255 255
13.040000 6.850000 22.469999 0 255 0
13.020000 7.132000 3.298000 0 255 255
14.700000 7.450000 24.540001 0 255 0
14.900000 7.080000 24.350000 0 255 0
14.740000 7.070000 19.950001 0 255 0
14.750000 7.560000 0.430000 0 255 255
14.739100 7.378700 13.060000 0 255 0
14.510000 6.680000 1.510000 0 255 255
13.285000 7.285000 3.740000 0 255 255
13.480000 7.380000 18.379999 0 255 0
13.510000 7.140000 0.260000 0 255 255
12.876700 7.826700 2.953300 0 255 255
14.477500 7.382500 19.525000 0 255 0
13.996200 7.268800 2.160000 0 255 0
13.985000 6.945000 25.160000 0 255 0
13.795000 8.625000 2.110000 0 255 255
13.790000 8.632500 2.065000 0 255 255
13.299200 7.573800 1.608500 0 255 255
13.325000 7.770000 0.460000 0 255 255
14.335000 6.690000 1.971700 0 255 255
14.000000 7.610000 0.710000 0 255 0
14.002800 7.572200 3.963300 255 0 0
13.985600 6.986200 17.255600 0 255 0
13.998000 7.576000 5.008700 255 0 0
12.948000 7.933000 3.913000 0 255 255
12.956700 7.933300 3.343300 0 255 255
13.740000 7.035000 18.125000 0 255 0
14.180000 8.535800 1.115800 0 255 255
14.080000 8.710000 2.070000 0 255 255
13.483300 8.170000 1.730000 0 255 255
13.490000 7.915000 17.514999 0 255 0
14.020000 7.320000 20.350000 0 255 0
14.034300 7.632900 0.570000 0 255 0
13.094700 7.884100 12.671800 0 255 0
14.035600 6.886300 2.060600 0 255 255
13.130000 6.700000 24.610001 0 255 0
13.160000 7.380000 4.440000 0 255 255
12.770000 7.420000 24.100000 0 255 0
14.690000 7.416700 24.713301 0 255 0
13.510000 8.210000 23.670000 0 255 0
13.240000 8.360000 3.460000 0 255 255
14.740000 7.090000 19.830000 0 255 0
14.730000 7.130000 23.066700 0 255 0
14.740000 7.070000 19.656000 0 255 0
14.739400 7.340000 9.357600 0 255 0
14.050000 7.380000 19.340000 0 255 0
13.988000 8.078000 1.852000 0 255 255
14.605000 7.850000 18.360001 0 255 0
13.240000 7.230000 24.969999 0 255 0
13.246400 7.833600 12.696400 0 255 0
14.335700 7.870700 13.110700 0 255 0
13.433600 7.227100 0.495700 0 255 255
14.127500 8.220000 0.922500 0 255 255
13.243300 8.485000 1.601700 0 255 255
14.292000 7.626000 2.208000 0 255 255
14.192400 7.382400 2.201000 0 255 0
14.260000 7.220000 1.740000 0 255 255
12.791700 7.585000 1.275000 0 255 255
13.434400 7.076900 1.716900 0 255 255
13.042500 7.128800 3.865000 0 255 255
13.950000 7.575000 6.955000 255 0 0
13.950000 7.400000 19.990000 0 255 0
13.947900 7.517900 3.713700 0 255 0
13.944300 7.484300 0.672400 0 255 0
13.483600 7.125500 1.705500 0 255 255
13.450000 7.260000 4.130000 0 255 255
13.420000 7.890000 17.559999 0 255 0
13.110000 7.660000 25.020000 0 255 0
13.092500 7.847500 12.707500 0 255 0
13.033300 7.813300 24.806700 0 255 0
13.036400 7.929300 18.305000 0 255 0
13.840000 8.710000 16.430000 0 255 0
12.860000 7.370000 23.879999 0 255 0
12.845000 7.367500 24.002501 0 255 0
14.430000 8.442000 2.158000 0 255 255
14.445000 6.683700 1.267500 0 255 255
13.620000 6.940000 17.740000 0 255 0
13.632000 6.726000 5.094000 0 255 255
13.085900 7.983000 3.767000 0 255 255
13.100000 7.830000 1.590000 0 255 255
13.086900 7.983400 3.812500 0 255 255
13.070000 7.810000 0.470000 0 255 255
14.275000 6.585000 1.100000 0 255 255
14.282600 6.524600 4.372000 0 255 255
13.988300 8.826700 1.508300 0 255 255
14.900000 7.385000 20.945000 0 255 0
13.703300 7.713300 3.513300 255 0 0
13.694700 7.576000 0.410000 0 255 0
13.630000 8.040000 19.410000 0 255 0
13.695200 7.675200 6.765200 255 0 0
13.740000 8.030000 0.490000 0 255 255
13.780000 7.610000 0.490000 0 255 0
13.788300 7.575000 3.611700 255 0 0
13.792500 7.522500 6.865000 255 0 0
13.788500 7.472600 9.908200 255 0 0
13.791600 7.438900 13.163700 255 0 0
13.790000 7.275000 23.350000 255 0 0
13.795500 7.380900 17.068199 0 255 0
13.790000 7.630000 2.850000 255 0 0
13.790000 7.370000 19.510000 255 0 0
13.810000 7.350000 22.670000 255 0 0
13.770000 7.570000 6.050000 255 0 0
13.790000 7.530000 9.190000 255 0 0
13.786500 7.432400 15.514700 255 0 0
13.787400 7.476300 12.358500 255 0 0
14.695000 7.932500 13.197500 0 255 0
14.710000 7.660000 17.480000 0 255 0
13.391300 7.138000 18.017300 0 255 0
14.200000 8.040000 25.080000 0 255 0
13.902000 8.318000 16.120001 0 255 0
13.895000 8.233300 9.819200 0 255 0
13.887200 8.526400 2.552800 0 255 255
13.980000 8.715700 0.527100 0 255 255
13.986700 8.670000 1.603300 0 255 255
14.400000 7.390000 25.100000 0 255 0
14.380000 6.934300 2.047100 0 255 255
13.775000 7.730000 2.940000 255 0 0
13.795000 7.420000 21.905001 255 0 0
13.780000 7.660000 6.110000 255 0 0
13.785000 7.590000 12.475000 255 0 0
13.785000 7.625000 9.260000 255 0 0
13.773300 7.526700 15.613300 255 0 0
13.790000 7.474000 18.761999 255 0 0
14.185000 7.510000 0.140000 0 255 0
14.360000 7.910000 1.320000 0 255 255
13.680000 7.433300 15.313300 255 0 0
13.670000 7.370000 18.540001 0 255 0
13.700000 7.470000 24.573299 0 255 0
13.696000 7.232000 1.802000 0 255 255
14.230000 7.660000 1.045000 0 255 255
14.570000 7.710000 2.370000 0 255 255
13.283300 6.580000 23.266701 0 255 0
13.289200 7.081200 4.466200 0 255 255
13.287500 7.140000 1.212500 0 255 255
13.635000 7.890000 0.460000 0 255 0
13.720000 7.060000 4.270000 0 255 255
13.543300 8.120000 1.596700 0 255 255
14.235000 6.940000 24.004999 0 255 0
14.320000 7.950000 9.620000 0 255 0
14.240000 8.620000 2.080000 0 255 255
13.284000 7.040000 19.417999 0 255 0
14.110000 8.390000 2.690000 0 255 255
13.790000 7.030000 25.240000 0 255 0
13.725000 8.380000 9.362500 0 255 0
13.610000 8.760000 9.350000 0 255 0
14.353300 7.873300 13.223300 0 255 0
13.290000 7.325000 19.590000 0 255 0
13.190000 7.185000 19.420000 0 255 0
13.185000 7.880000 1.405000 0 255 255
13.210000 7.830000 1.556700 0 255 255
13.710000 7.730000 12.370000 255 0 0
13.697000 7.580800 9.159200 255 0 0
13.693600 7.630900 6.010300 255 0 0
13.705000 7.710000 12.810000 0 255 0
13.692400 7.627900 6.255900 255 0 0
13.691500 7.833100 19.309200 0 255 0
13.691600 7.577000 9.510800 255 0 0
14.042900 8.118600 1.767100 0 255 255
14.090000 7.620000 21.389999 0 255 0
13.230000 7.610000 1.420000 0 255 255
13.746700 6.628300 1.511700 0 255 255
13.753300 6.873300 18.173300 0 255 0
13.741700 6.933300 21.299999 0 255 0
13.205000 8.115000 16.270000 0 255 0
14.678000 7.774000 2.464000 0 255 255
13.396700 7.073300 19.466700 0 255 0
13.550000 7.720000 2.080000 0 255 0
14.740000 7.220000 1.920000 0 255 255
14.790000 6.970000 19.980000 0 255 0
13.283000 6.728000 5.002000 0 255 255
13.285600 6.582800 2.610000 0 255 255
13.294000 7.742000 18.205999 0 255 0
14.640000 7.343300 19.559999 0 255 0
14.643300 7.423300 13.023300 0 255 0
13.543100 8.278500 0.454200 0 255 255
13.780000 7.040000 1.360000 0 255 255
13.800000 6.680000 23.430000 0 255 0
13.749000 8.636000 1.361000 0 255 255
13.790000 6.960000 4.240000 0 255 255
13.683300 8.500000 1.746700 0 255 255
14.040800 6.720800 4.945400 0 255 255
14.050000 6.693300 1.803300 0 255 255
14.050000 6.920000 18.010000 0 255 0
14.200000 6.890000 18.120001 0 255 0
14.190000 6.780000 24.844999 0 255 0
14.197500 6.886300 18.357500 0 255 0
13.785800 7.787400 3.460000 255 0 0
13.781300 7.736000 6.708000 255 0 0
13.781100 7.634400 13.205600 255 0 0
13.780900 7.683600 9.957300 255 0 0
13.795000 7.580000 18.965000 255 0 0
13.785400 7.734200 9.058700 255 0 0
13.795000 7.637500 15.562500 255 0 0
13.792200 7.783700 5.909300 255 0 0
13.790000 7.520000 22.090000 255 0 0
13.795000 7.490000 25.450001 0 255 0
13.780900 7.681800 12.409100 255 0 0
14.093300 8.377800 9.464400 0 255 0
14.730000 7.280000 16.010000 0 255 0
13.701700 7.728300 2.801700 255 0 0
13.705500 7.679300 6.058300 255 0 0
13.437100 8.282100 2.259200 0 255 255
13.405000 8.450000 19.764999 0 255 0
14.150000 8.700000 2.560000 0 255 255
14.195000 7.490000 24.950001 0 255 0
14.182500 7.042500 2.010000 0 255 255
14.741300 7.183700 15.307500 0 255 0
14.736000 7.380000 2.666000 0 255 255
14.790000 7.130000 24.080000 0 255 0
14.030000 8.200000 9.380000 0 255 0
13.340000 7.639100 14.068200 0 255 0
13.396700 7.226700 1.350000 0 255 255
13.390000 7.160000 4.610000 0 255 255
13.750000 7.250000 1.140000 0 255 255
13.740000 7.490000 17.600000 255 0 0
13.751700 7.432500 13.816700 255 0 0
13.503800 7.127500 18.107500 0 255 0
13.300000 8.510000 1.550000 0 255 255
13.785000 7.133800 1.917500 0 255 255
13.730000 8.510000 1.900000 0 255 255
14.031700 7.535000 4.266700 255 0 0
14.050000 7.486700 1.100000 0 255 0
13.594600 8.430000 9.458500 0 255 0
13.190000 8.490000 3.480000 0 255 255
13.694000 8.678000 9.404400 0 255 0
14.910000 7.350000 23.129999 0 255 0
14.350000 7.670000 18.100000 0 255 0
14.329600 7.028900 2.598500 0 255 255
14.180000 7.720000 1.895000 0 255 255
14.450000 7.450000 0.910000 0 255 255
13.550000 7.230000 19.600000 0 255 0
13.790000 6.733800 4.850500 0 255 255
12.852000 7.078000 16.266001 0 255 0
12.860000 7.130000 19.950001 0 255 0
14.323300 7.826700 12.973300 0 255 0
14.070000 7.600000 3.655000 255 0 0
14.090000 7.660000 10.820000 0 255 0
14.082400 7.628200 1.164100 0 255 0
14.070000 7.600000 4.330000 0 255 0
13.483500 7.632300 1.053500 0 255 255
13.785000 6.822500 18.504999 0 255 0
13.400000 6.660000 24.559999 0 255 0
13.280000 7.480000 24.889999 0 255 0
14.010000 7.770000 9.770000 0 255 0
14.145000 6.780000 1.010000 0 255 255
13.795000 6.540000 2.540000 0 255 255
14.243300 7.535000 0.759200 0 255 255
14.738600 7.631400 9.565700 0 255 0
14.150000 8.190000 2.030000 0 255 255
14.136700 8.466700 2.206700 0 255 255
14.750000 7.032500 23.112499 0 255 0
13.343200 6.676800 5.003200 0 255 255
14.760000 7.170000 1.730000 0 255 255
14.393300 7.873300 13.015000 0 255 0
13.740000 7.620000 1.620000 255 0 0
13.725600 7.687200 4.712800 255 0 0
13.741600 7.724700 7.958700 255 0 0
13.695000 7.525000 4.515000 255 0 0
13.695000 7.820000 23.459999 0 255 0
13.703300 7.373300 1.323300 0 255 0
13.703700 7.630500 10.817400 0 255 0
13.695200 7.578400 13.953200 255 0 0
13.701000 7.489000 7.668000 255 0 0
13.300000 8.350000 20.170000 0 255 0
14.375000 7.175000 19.410000 0 255 0
14.190000 7.100000 20.540001 0 255 0
14.123300 8.123300 1.743300 0 255 255
14.210000 7.060000 18.110001 0 255 0
13.290000 6.920000 22.540001 0 255 0
14.730000 7.815000 0.400000 0 255 255
14.740000 7.970000 10.060000 0 255 0
14.740000 7.725000 20.719999 0 255 0
14.630000 7.510000 24.950001 0 255 0
14.140000 7.600000 24.590000 0 255 0
14.710000 7.410000 16.150000 0 255 0
14.690000 7.540000 22.465000 0 255 0
14.686200 7.481300 13.012500 0 255 0
13.250000 7.040000 1.190000 0 255 255
13.357500 6.772500 5.052500 0 255 255
13.336300 6.975800 18.105301 0 255 0
13.086700 7.390000 4.746700 0 255 255
13.580000 6.530000 24.870001 0 255 0
13.579200 6.425800 5.712500 0 255 255
13.537100 6.781400 1.048600 0 255 255
13.530000 6.823100 4.307500 0 255 255
13.734500 7.732000 4.610000 255 0 0
13.750000 7.774400 7.956700 255 0 0
12.740000 7.130000 16.549999 0 255 0
14.600000 6.730000 19.795000 0 255 0
14.082000 6.912000 19.604000 0 255 0
13.640300 7.972900 1.209700 0 255 0
13.453300 8.130000 0.316700 0 255 255
13.391800 7.324500 24.953600 0 255 0
13.330000 7.260000 0.990000 0 255 255
13.300000 8.420000 20.010000 0 255 0
13.810000 7.670000 0.630000 0 255 0
13.770000 7.570000 6.770000 255 0 0
13.810000 7.310000 23.379999 255 0 0
13.792000 7.436000 16.422001 255 0 0
13.786700 7.520000 9.916700 255 0 0
13.810000 7.610000 3.780000 255 0 0
13.788200 7.481400 13.258600 255 0 0
14.395000 6.590000 24.559999 0 255 0
14.244700 6.975300 2.467700 0 255 255
14.220000 6.990000 1.620000 0 255 255
14.290000 7.376700 1.503300 0 255 255
14.348000 7.732000 21.007999 0 255 0
13.352500 7.185000 4.117500 0 255 255
13.095000 7.225000 17.754999 0 255 0
13.087900 7.428200 4.711200 0 255 255
13.088200 7.475500 1.478200 0 255 255
12.884500 7.820000 1.163600 0 255 255
13.350000 6.680000 25.020000 0 255 0
12.720000 7.290000 19.690001 0 255 0
12.940000 7.945000 18.280001 0 255 0
14.386700 7.516700 1.646700 0 255 255
14.240000 7.990000 2.173300 0 255 255
13.246700 8.376700 20.773300 0 255 0
13.160000 7.430000 19.530001 0 255 0
13.138900 7.991100 3.665600 0 255 255
13.134000 7.776000 16.408001 0 255 0
14.480000 7.126700 18.059999 0 255 0
13.740000 6.980000 1.560000 0 255 255
13.740000 7.290000 21.170000 255 0 0
13.300000 7.775000 0.390000 0 255 255
13.596700 6.386700 24.809999 0 255 0
13.260000 7.320000 3.740000 0 255 255
14.255000 8.735000 1.915000 0 255 255
14.720000 7.570000 9.300000 0 255 0
13.390000 7.890000 1.470000 0 255 255
13.395000 7.530000 24.055000 0 255 0
13.435000 7.340000 18.309999 0 255 0
14.150000 7.790000 1.440000 0 255 255
13.305000 7.840000 1.410000 0 255 255
13.240000 7.992500 3.897500 0 255 255
13.788100 8.530500 9.454900 0 255 0
13.650000 7.040000 17.615000 0 255 0
13.340000 7.400000 21.410000 0 255 0
13.344700 8.278800 3.998200 0 255 255
14.530000 7.520000 25.040001 0 255 0
14.520000 7.170000 2.206700 0 255 255
14.540000 7.400000 15.255000 0 255 0
14.520000 7.420000 25.049999 0 255 0
14.533300 7.063300 1.963300 0 255 255
13.390000 7.080000 22.370001 0 255 0
13.388200 6.688500 2.715800 0 255 255
14.742500 7.130000 19.702499 0 255 0
14.742700 7.272900 2.903900 0 255 255
14.738300 7.383900 9.406100 0 255 0
13.980000 7.920000 14.880000 0 255 0
13.990000 8.540000 2.200000 0 255 255
13.990000 7.870000 18.129999 0 255 0
13.230000 8.330000 2.280000 0 255 255
13.645700 8.180000 1.713600 0 255 255
13.630000 8.340000 22.840000 0 255 0
14.090000 6.480000 24.715000 0 255 0
13.236800 8.125600 16.358400 0 255 0
14.010000 7.617500 0.855000 0 255 0
14.002800 7.569400 4.011700 0 255 0
13.098600 7.877100 16.454300 0 255 0
13.270000 8.460000 2.960000 0 255 255
14.370000 8.120000 1.550000 0 255 255
14.193800 7.075000 19.363701 0 255 0
14.155800 6.725000 4.946700 0 255 255
14.150000 6.935000 18.014999 0 255 0
14.150000 6.690000 1.810000 0 255 255
14.582500 7.677500 1.217500 0 255 255
13.791700 8.577500 1.857500 0 255 255
13.423300 7.126700 22.166700 0 255 0
14.687000 7.618000 0.964000 0 255 255
13.286700 7.170000 0.403300 0 255 255
13.286000 7.482000 19.556000 0 255 0
13.400000 8.330000 1.680000 0 255 255
14.241400 6.975700 19.467100 0 255 0
13.686700 7.863300 1.760000 0 255 0
14.144200 7.478800 0.209400 0 255 0
14.500000 7.530000 1.520000 0 255 255
14.232700 6.582700 1.164500 0 255 255
12.942000 6.979700 3.049500 0 255 255
13.000000 8.010000 0.260000 0 255 255
14.070000 8.200000 1.580000 0 255 255
14.083300 8.680000 1.853300 0 255 255
13.138300 7.673300 16.306700 0 255 0
13.638000 7.676000 8.758000 0 255 0
13.047800 7.732700 15.261600 0 255 0
13.383300 6.430000 24.610001 0 255 0
13.530000 8.180000 2.230000 0 255 255
13.490000 7.720000 2.210000 0 255 255
12.905000 7.325000 0.990000 0 255 255
13.550000 8.336700 9.560000 0 255 0
13.480000 7.677700 14.994600 0 255 0
13.393300 7.990000 1.558900 0 255 255
13.391400 7.284300 1.504300 0 255 255
13.400000 7.230000 4.760000 0 255 255
13.930000 7.520000 11.010000 255 0 0
13.930800 7.484200 7.755000 255 0 0
13.920000 7.440000 4.520000 255 0 0
14.286700 6.330000 24.366699 0 255 0
14.300000 7.700000 1.350000 0 255 255
14.297000 7.478000 13.997000 0 255 0
13.188700 7.175900 3.800200 0 255 255
13.740000 7.280000 15.450000 255 0 0
13.670000 6.820000 4.570000 0 255 255
14.501400 8.234300 12.970000 0 255 0
14.435000 8.280000 22.969999 0 255 0
14.451300 8.126700 13.070700 0 255 0
13.196400 8.335700 1.612900 0 255 255
12.950000 6.820000 22.059999 0 255 0
13.100000 7.500000 20.590000 0 255 0
13.750000 7.080000 1.850000 0 255 255
13.760000 7.370000 21.000000 255 0 0
14.040000 7.420000 2.011700 0 255 0
14.034000 7.682000 5.308000 255 0 0
14.035000 7.080000 18.365000 0 255 0
14.037500 6.972500 24.850000 0 255 0
14.140000 6.660000 1.620000 0 255 255
14.143300 6.937800 17.410000 0 255 0
13.660000 7.510000 4.580000 0 255 0
13.550000 8.330000 9.465700 0 255 0
13.332000 7.434000 0.458000 0 255 255
13.346000 7.926000 1.506000 0 255 255
13.339100 7.179100 4.303400 0 255 255
14.190000 6.980000 24.004999 0 255 0
14.196700 7.093300 17.500000 0 255 0
14.120000 8.130000 1.950000 0 255 255
13.705000 7.620000 14.650000 255 0 0
13.706700 7.493300 11.410000 255 0 0
13.698300 7.532900 8.160000 0 255 0
14.035000 7.070000 22.295000 0 255 0
14.050000 7.720000 12.810000 0 255 0
14.035000 7.523300 1.003900 0 255 0
13.337200 6.977800 1.207200 0 255 255
13.340000 7.027000 4.456500 0 255 255
13.496700 6.826700 18.469999 0 255 0
14.250000 7.480000 14.940000 0 255 0
14.400000 7.300000 23.350000 0 255 0
14.410000 7.410000 13.920000 0 255 0
14.100000 8.030000 24.125000 0 255 0
13.640000 7.975000 21.400000 0 255 0
13.710000 7.480000 1.660000 0 255 0
13.690700 7.578700 7.963700 255 0 0
13.701500 7.633700 4.808900 0 255 0
13.703600 7.582200 5.108600 255 0 0
13.696700 7.716700 8.416700 255 0 0
13.693400 7.629100 1.863800 255 0 0
13.640000 7.630000 0.830000 0 255 0
13.650000 7.545000 7.300000 255 0 0
13.189300 8.084600 16.404301 0 255 0
13.740000 7.445000 7.315000 255 0 0
13.745200 7.485500 11.314800 0 255 0
13.736500 7.530500 14.459500 255 0 0
13.848600 8.438600 9.417100 0 255 0
13.843300 8.531100 1.861700 0 255 255
14.937800 7.529400 9.815000 0 255 0
12.740000 7.800000 2.005000 0 255 255
13.460000 6.960000 1.010000 0 255 255
13.445000 7.420000 18.344999 0 255 0
13.990600 6.778800 1.515000 0 255 255
13.837600 8.390000 2.559700 0 255 255
13.570000 8.045000 0.800000 0 255 255
13.590000 7.980000 1.605000 0 255 255
13.595000 7.765000 12.470000 0 255 0
13.536700 6.493300 24.796700 0 255 0
13.025500 7.568200 3.572700 0 255 255
13.050000 7.220000 19.549999 0 255 0
13.190000 8.300000 2.230000 0 255 255
13.596700 7.930000 0.560000 0 255 0
14.630000 7.510000 2.460000 0 255 255
14.645000 7.325000 14.240000 0 255 0
14.639200 7.374200 17.417500 0 255 0
13.720000 7.746700 1.463300 255 0 0
13.760000 7.830000 7.980000 255 0 0
13.751000 7.773000 4.709000 255 0 0
14.636700 6.923300 24.920000 0 255 0
14.750000 7.125000 23.475000 0 255 0
13.441400 7.732900 1.960000 0 255 255
13.722900 7.621400 1.957100 0 255 0
13.690000 7.882000 19.356001 0 255 0
13.726100 7.678900 5.165000 255 0 0
13.743700 7.722600 8.309600 255 0 0
13.700700 7.538000 2.114000 255 0 0
13.690000 7.490000 5.276700 255 0 0
13.700900 7.631200 8.410500 0 255 0
13.695600 7.576200 11.555000 255 0 0
13.936700 8.336700 9.453300 0 255 0
13.485000 7.320000 0.555000 0 255 255
14.995000 7.228700 15.858800 0 255 0
14.988100 7.327500 9.708100 0 255 0
14.210000 7.330000 17.799999 0 255 0
14.200000 7.583300 1.616700 0 255 255
14.202500 7.597500 1.047500 0 255 255
14.092000 7.132000 0.770000 0 255 255
13.593700 7.472500 17.357500 0 255 0
14.487500 7.382500 19.555000 0 255 0
13.130000 7.900000 0.430000 0 255 255
14.740000 6.883300 19.666700 0 255 0
14.745000 7.187500 13.107500 0 255 0
13.610000 6.460000 2.480000 0 255 255
13.203300 7.020000 1.846700 0 255 255
14.134500 7.732700 1.763600 0 255 0
14.138800 7.192500 17.506300 0 255 0
14.433300 7.240000 2.120000 0 255 255
14.160000 6.975000 18.430000 0 255 0
14.143300 7.543300 1.946700 0 255 0
12.690000 7.775000 1.110000 0 255 255
14.485600 7.724400 2.202200 0 255 255
13.990000 6.750000 17.309999 0 255 0
14.700000 8.270000 1.970000 0 255 255
14.685600 8.034400 18.263300 0 255 0
13.292500 7.827500 1.465000 0 255 255
13.620000 8.010000 1.640000 0 255 255
13.470000 7.830000 1.800000 0 255 255
14.638000 7.685000 9.553000 0 255 0
13.700000 6.560000 5.430000 0 255 255
14.075000 7.585000 3.860000 255 0 0
13.539800 8.481900 0.463300 0 255 255
14.190000 7.216700 0.823300 0 255 255
14.193800 6.973700 19.363800 0 255 0
13.433300 7.323300 25.000000 0 255 0
14.288000 8.294000 1.456000 0 255 255
14.303600 7.672100 0.867900 0 255 255
14.275000 7.485000 13.922500 0 255 0
13.743300 6.866700 24.703300 0 255 0
13.733800 6.780000 17.957701 0 255 0
13.741900 6.577200 4.921500 0 255 255
13.745000 6.330000 24.820000 0 255 0
13.835000 7.827300 2.558600 255 0 0
13.890000 7.650000 14.530000 255 0 0
13.870000 7.480000 23.910000 0 255 0
13.836800 7.829500 1.908400 255 0 0
13.902500 7.740000 7.365000 255 0 0
13.900000 7.260000 23.030001 255 0 0
13.892500 7.475000 10.370000 255 0 0
13.890700 7.431400 13.507900 255 0 0
13.882500 7.782500 4.210000 255 0 0
13.945000 6.990000 1.860000 0 255 255
13.746700 6.720000 17.850000 0 255 0
13.703300 7.493300 10.970000 255 0 0
13.690200 7.531500 7.810200 255 0 0
13.700000 7.575000 16.709999 255 0 0
13.700000 7.490000 10.210000 255 0 0
13.700000 7.635000 13.465000 255 0 0
13.700300 7.532900 6.962100 0 255 0
14.600000 7.030000 17.490000 0 255 0
14.585000 7.275000 2.015000 0 255 255
14.430000 7.700000 21.280001 0 255 0
14.233300 7.130000 0.200000 0 255 255
14.242400 7.032800 2.417600 0 255 255
14.380000 7.660000 19.520000 0 255 0
14.390000 7.782900 13.208600 0 255 0
13.284300 8.374100 3.054300 0 255 255
14.637200 7.328900 13.012800 0 255 0
13.228300 7.329400 4.157500 0 255 255
13.245000 7.278300 1.010000 0 255 255
14.630000 7.350000 9.350000 0 255 0
14.620000 7.140000 22.809999 0 255 0
14.640000 7.570000 0.807500 0 255 255
13.720000 7.960000 1.730000 0 255 255
13.790000 7.325000 23.879999 255 0 0
13.785300 7.423300 17.511999 255 0 0
13.785000 7.477100 14.355700 255 0 0
13.774300 7.531400 11.207100 255 0 0
12.903300 7.730000 1.213300 0 255 255
12.900000 7.880000 12.790000 0 255 0
12.893500 7.684600 1.461900 0 255 255
12.870000 7.790000 1.990000 0 255 255
13.710000 7.470000 2.110000 0 255 0
13.697800 7.582200 8.412000 0 255 0
13.700500 7.631900 5.163800 0 255 0
13.290000 8.090000 1.650000 0 255 255
13.360000 6.560000 2.130000 0 255 255
13.490000 7.587600 8.815200 0 255 0
14.794100 7.525500 9.560500 0 255 0
14.170000 8.010000 18.250000 0 255 0
14.189700 7.928700 9.510300 0 255 0
14.740000 7.280000 16.440001 0 255 0
14.740000 7.586000 9.715000 0 255 0
14.742500 7.340000 19.514999 0 255 0
14.740000 7.250000 13.200000 0 255 0
13.320000 7.350000 19.330000 0 255 0
12.988700 7.732600 0.317400 0 255 255
12.982500 7.680800 3.669200 0 255 255
12.897500 6.830000 16.202499 0 255 0
13.500000 7.220000 22.049999 0 255 0
13.500000 6.845000 1.490000 0 255 255
13.387700 6.589000 4.348600 0 255 255
13.400000 7.090000 22.389999 0 255 0
13.541700 7.633400 13.967700 0 255 0
14.680000 7.150000 13.140000 0 255 0
13.220000 7.435000 2.310000 0 255 255
13.690000 7.270000 1.700000 0 255 255
13.704000 7.480000 15.156000 255 0 0
13.698900 7.533300 12.007800 255 0 0
13.540000 7.120000 22.250000 0 255 0
13.555000 7.165000 25.420000 0 255 0
13.538100 7.336300 9.613500 0 255 0
13.737100 7.525100 11.064400 255 0 0
13.742800 7.480300 7.906900 255 0 0
13.729200 7.576700 14.210000 255 0 0
13.740000 7.630000 17.360001 255 0 0
13.737900 7.530600 12.012100 255 0 0
13.741100 7.573900 15.258300 255 0 0
13.742100 7.472300 8.754700 0 255 0
13.720000 7.395000 1.825000 0 255 0
13.240000 8.031100 16.306700 0 255 0
13.040000 7.680000 16.200001 0 255 0
13.030000 7.810000 0.410000 0 255 255
13.050000 7.870000 3.580000 0 255 255
13.044400 7.823300 0.710000 0 255 255
13.028300 7.873300 3.866700 0 255 255
13.045000 7.520000 19.700001 0 255 0
12.706700 7.526700 1.456700 0 255 255
13.110000 7.880000 16.540001 0 255 0
13.105000 6.990000 4.855000 0 255 255
13.333300 8.123300 3.993300 0 255 255
14.446700 8.233300 1.203300 0 255 255
14.480000 6.880000 24.920000 0 255 0
13.280000 8.050000 1.430000 0 255 255
14.325000 7.415000 24.950001 0 255 0
14.490000 7.600000 1.790000 0 255 255
14.350000 7.660000 1.040000 0 255 255
14.330000 6.420000 22.410000 0 255 0
14.190000 8.190000 9.750000 0 255 0
12.900000 7.870000 0.470000 0 255 255
14.235700 7.494300 2.062900 0 255 255
14.250000 7.120000 17.323299 0 255 0
13.825000 8.480000 2.115000 0 255 255
14.083800 8.618800 9.402500 0 255 0
13.696700 7.666700 11.616700 255 0 0
13.703000 7.581300 5.058300 255 0 0
13.694700 7.634700 1.912900 255 0 0
13.590000 7.650000 1.380000 0 255 0
13.643200 8.134700 1.961100 0 255 255
13.700000 8.070000 1.860000 0 255 255
14.200000 7.390000 0.780000 0 255 0
14.196900 7.373300 2.807700 0 255 255
13.320000 7.240000 1.010000 0 255 255
13.345300 7.268300 4.254900 0 255 255
13.750000 7.445000 5.910000 255 0 0
13.735400 7.523600 12.656800 255 0 0
13.737100 7.477500 9.509600 255 0 0
13.737500 7.587500 15.815000 255 0 0
13.720000 7.350000 2.080000 0 255 0
13.755000 7.570000 18.155001 255 0 0
13.738900 7.533700 15.112100 255 0 0
13.753800 7.445000 8.371200 255 0 0
13.748700 7.485300 11.859300 255 0 0
12.828000 7.818000 3.610000 0 255 255
13.180000 7.266700 3.690000 0 255 255
13.186000 7.267300 3.659000 0 255 255
13.200000 7.300000 4.020000 0 255 255
13.970000 7.490000 0.445000 0 255 0
13.975000 7.675000 13.105000 255 0 0
13.980000 7.445000 3.800000 255 0 0
12.820000 7.040000 4.120000 0 255 255
12.841200 7.032700 3.966500 0 255 255
12.891400 7.773600 15.411800 0 255 0
13.940000 8.630000 2.590000 0 255 255
13.036700 7.173300 19.513300 0 255 0
12.649300 7.740000 1.011300 0 255 255
13.945700 6.638600 1.762100 0 255 255
13.931000 6.673000 4.901000 0 255 255
13.960000 6.770000 17.120001 0 255 0
13.936700 6.483300 23.360001 0 255 0
13.935000 6.945000 1.150000 0 255 255
13.938600 6.785700 17.054300 0 255 0
13.342400 8.229700 2.212800 0 255 255
14.000000 7.120000 24.530001 0 255 0
13.970000 7.380000 8.670000 255 0 0
13.984000 7.486000 2.366000 255 0 0
13.970000 7.440000 5.440000 255 0 0
13.982900 7.485700 2.415700 255 0 0
13.990000 7.740000 12.380000 0 255 0
13.981400 7.490500 2.865500 255 0 0
13.370000 8.430000 1.355000 0 255 255
14.620000 7.730000 17.610001 0 255 0
14.637500 7.800000 20.855000 0 255 0
14.610000 7.640000 9.590000 0 255 0
14.190000 7.190000 1.520000 0 255 255
13.560000 8.390000 1.810000 0 255 255
13.238200 6.976400 4.662400 0 255 255
13.710000 7.810000 2.140000 255 0 0
13.820000 6.490000 5.520000 0 255 255
13.795700 7.718600 11.062900 255 0 0
13.791400 7.769500 7.906200 255 0 0
13.794000 7.674000 14.406000 255 0 0
13.792500 7.736700 10.407500 255 0 0
13.785000 7.635000 16.700001 255 0 0
13.785000 7.580000 20.215000 255 0 0
13.792000 7.770400 7.158400 255 0 0
13.792500 7.684400 13.462500 255 0 0
14.090000 8.426700 2.446700 0 255 255
13.940000 8.065000 9.905000 0 255 0
13.940000 8.120000 16.090000 0 255 0
13.932500 8.025000 9.612500 0 255 0
13.936700 8.343300 2.666700 0 255 255
12.970000 8.160000 18.250000 0 255 0
12.980000 8.430400 2.595000 0 255 255
13.696000 7.528000 19.320000 255 0 0
13.449200 6.775200 4.506000 0 255 255
13.724100 7.680900 2.214400 255 0 0
13.734600 7.732600 5.464600 255 0 0
13.756700 7.773300 8.723300 255 0 0
14.742100 7.531500 9.459500 0 255 0
14.939600 7.628800 13.113100 0 255 0
14.936000 7.581000 9.863000 0 255 0
13.687500 7.492500 6.612500 255 0 0
13.697000 7.579000 13.112000 255 0 0
13.698100 7.625600 9.856300 255 0 0
14.741100 7.227800 13.005600 0 255 0
14.680000 7.550000 9.270000 0 255 0
13.097500 7.340000 0.517500 0 255 255
13.470000 8.400000 3.450000 0 255 255
13.540000 8.360000 1.625000 0 255 255
14.635000 7.630000 15.565000 0 255 0
14.287500 7.682500 2.202500 0 255 255
14.880000 7.780000 13.240000 0 255 0
13.392000 7.970000 17.468000 0 255 0
14.750000 7.870000 1.665000 0 255 255
13.234400 7.569400 1.560600 0 255 255
13.260000 7.760000 15.080000 0 255 0
13.237500 7.833300 18.218300 0 255 0
14.460000 7.870000 24.764999 0 255 0
14.270000 7.170000 0.210000 0 255 255
14.730000 7.030000 2.170000 0 255 255
14.430000 6.640000 1.316700 0 255 255
13.650000 6.840000 17.799999 0 255 0
13.240000 8.083300 16.466700 0 255 0
13.960000 7.350000 21.110001 0 255 0
13.960000 7.600000 10.830000 255 0 0
13.949100 7.527300 7.664500 255 0 0
13.936800 7.492400 4.307600 255 0 0
12.735000 7.972500 1.310000 0 255 255
12.750000 8.010000 3.260000 0 255 255
12.725000 7.835000 16.330000 0 255 0
13.645000 7.510000 9.515000 255 0 0
13.660000 7.650000 2.990000 255 0 0
13.650000 7.670000 19.290001 0 255 0
14.010000 8.080000 24.879999 0 255 0
13.781000 7.294000 0.255000 0 255 255
13.810000 7.000000 18.250000 0 255 0
14.300000 7.750000 21.360001 0 255 0
14.020000 7.410000 18.180000 0 255 0
13.580000 7.580000 25.070000 0 255 0
13.596000 7.430000 9.650000 0 255 0
14.350000 7.710000 18.240000 0 255 0
13.880000 7.690000 14.620000 255 0 0
13.831400 7.812900 5.060000 255 0 0
12.876200 7.089500 3.499000 0 255 255
13.870000 8.620000 0.480000 0 255 255
12.795800 7.075800 4.769200 0 255 255
13.955000 6.795000 1.210000 0 255 255
13.930000 6.780000 1.166700 0 255 255
13.923300 6.420000 4.913300 0 255 255
13.928900 6.775600 1.710000 0 255 255
13.840000 6.980000 0.560000 0 255 255
13.844000 6.542000 23.507999 0 255 0
13.545700 8.387100 1.961400 0 255 255
13.300000 8.383300 2.980000 0 255 255
13.746700 7.873300 0.513300 0 255 0
13.800000 7.800000 0.510000 0 255 0
13.775000 7.640000 10.180000 255 0 0
13.780000 7.660000 7.030000 255 0 0
13.776000 7.738000 3.670000 255 0 0
13.770000 7.565000 13.155000 255 0 0
13.585000 8.179000 18.705000 0 255 0
13.590000 8.310000 22.709999 0 255 0
14.680000 8.380000 1.775000 0 255 255
13.486300 8.335600 1.914800 0 255 255
13.730000 7.893300 1.950000 0 255 0
13.782200 7.791700 1.963900 255 0 0
13.770000 7.450000 24.559999 0 255 0
13.803300 7.576700 15.006700 255 0 0
13.793300 7.526700 18.253300 255 0 0
13.786000 7.744000 5.210000 255 0 0
13.780000 7.637500 11.510000 255 0 0
13.536000 7.730000 1.961000 0 255 0
14.050000 6.770000 4.820000 0 255 255
14.040000 6.922000 1.556000 0 255 255
