7.193800 -16.504999 -6.591200 0 255 255
8.070000 -15.830000 13.155000 0 255 0
8.088500 -15.918500 6.863500 0 255 0
8.850000 -16.740000 9.160000 0 255 0
8.847100 -16.577900 5.802900 0 255 0
8.844000 -16.556000 9.056000 0 255 0
8.844000 -16.624701 5.811300 0 255 0
8.935000 -16.299999 12.110000 0 255 0
7.500000 -16.860001 11.266700 0 255 0
8.120000 -16.730000 22.490000 0 255 0
7.494300 -16.309999 -6.381400 0 255 0
7.188300 -16.771700 19.559999 0 255 0
7.680900 -16.330900 -2.440000 255 0 0
6.927500 -16.027500 18.997499 0 255 0
8.750000 -15.880000 20.670000 0 255 0
8.760000 -16.459999 7.205000 0 255 0
8.486200 -16.965700 -1.550000 0 255 0
8.140000 -15.015600 13.851100 0 255 0
8.050000 -15.390000 7.030000 0 255 0
8.030000 -15.010000 22.629999 0 255 0
8.070000 -15.330000 -6.160000 0 255 255
8.090000 -15.230000 0.140000 0 255 0
8.096000 -17.170000 13.654000 0 255 0
8.100000 -16.719999 -6.710000 0 255 255
8.890000 -16.850000 7.230000 0 255 0
7.410000 -15.510000 18.170000 0 255 0
7.385000 -15.560000 20.745001 0 255 0
7.710000 -16.200001 7.480000 255 0 0
7.688200 -16.168200 4.311200 255 0 0
8.680000 -16.910000 14.540000 0 255 0
7.880000 -15.760000 8.800000 0 255 0
7.590500 -16.168100 -5.140300 255 0 0
7.603100 -16.218399 -1.885500 255 0 0
8.190000 -15.930000 0.230000 0 255 0
8.190000 -16.200001 19.830000 0 255 0
8.192500 -16.025801 6.764200 0 255 0
7.735000 -16.775000 11.261700 0 255 0
8.025000 -16.117500 7.755000 255 0 0
8.036700 -16.067801 10.898900 255 0 0
7.744700 -16.219299 7.713300 255 0 0
8.320000 -15.330000 14.810000 0 255 0
8.930000 -16.004999 12.125000 0 255 0
7.635000 -16.230000 1.161700 255 0 0
7.653600 -16.172300 4.411800 255 0 0
7.642500 -16.074499 -1.893400 255 0 0
7.635800 -16.118700 -5.139200 255 0 0
6.940500 -15.362500 6.219500 0 255 0
6.920000 -16.026699 -6.290000 0 255 255
7.480000 -16.709999 22.420000 0 255 0
7.505000 -16.230000 2.825000 255 0 0
7.800000 -16.150000 4.910000 255 0 0
7.792500 -16.102501 1.757500 255 0 0
7.782900 -16.217100 8.255700 255 0 0
7.798200 -16.067301 -1.239100 255 0 0
7.780000 -16.035999 -4.396000 255 0 0
7.180000 -16.330000 -6.335000 0 255 255
8.040000 -16.620001 19.170000 0 255 0
8.028000 -16.874001 15.862000 0 255 0
8.055000 -17.014999 -6.800000 0 255 255
7.942500 -15.323800 9.266200 0 255 0
7.610000 -16.360001 3.520000 255 0 0
7.570000 -16.639999 -5.870000 0 255 0
7.605000 -16.299999 0.480000 255 0 0
7.603800 -16.259199 -2.783800 255 0 0
7.791100 -15.682200 7.261100 0 255 0
8.710000 -15.370000 23.080000 0 255 0
8.337500 -16.327499 16.802500 0 255 0
8.790000 -15.970000 7.600000 0 255 0
8.090000 -16.726299 -6.791300 0 255 255
7.680000 -16.320000 1.470000 255 0 0
7.692000 -16.412001 -5.040500 255 0 0
7.690000 -16.868601 11.254300 0 255 0
7.596300 -16.173201 -4.890000 255 0 0
7.601500 -16.220600 -1.742600 255 0 0
7.701000 -16.128300 4.860700 255 0 0
7.690600 -16.058701 1.710600 255 0 0
7.680000 -16.235001 -1.655000 255 0 0
8.720000 -16.650000 -1.340000 0 255 0
8.745000 -16.815001 14.965000 0 255 0
8.335000 -16.125000 5.052500 0 255 0
7.691700 -16.032400 -0.943800 255 0 0
7.653300 -16.410000 -3.750000 255 0 0
7.640000 -16.350000 -0.570000 255 0 0
8.120000 -15.470000 -0.030000 0 255 0
8.136700 -15.213300 16.150000 0 255 0
8.150000 -15.100000 22.900000 0 255 0
8.133300 -15.466700 -6.520000 0 255 255
8.140900 -15.370800 -0.036200 0 255 0
7.820000 -16.190001 13.190000 255 0 0
7.838100 -16.078699 6.464400 255 0 0
7.840000 -15.980000 0.160000 255 0 0
7.905000 -16.205000 12.920000 255 0 0
7.893300 -15.978300 10.011700 255 0 0
7.878600 -16.081400 3.502900 255 0 0
7.883300 -16.020000 0.253300 255 0 0
8.040000 -15.180000 16.070000 0 255 0
8.046700 -15.428000 0.156700 0 255 0
8.050000 -17.209999 -6.640000 0 255 255
8.030000 -15.160000 16.190001 0 255 0
8.042100 -15.420400 0.010700 0 255 0
7.877800 -16.081100 3.558900 255 0 0
7.900000 -16.030001 0.400000 255 0 0
7.950000 -16.260000 13.540000 255 0 0
7.950000 -15.935000 10.160000 0 255 0
7.927800 -15.968900 7.021100 0 255 0
7.940000 -16.070000 0.525000 255 0 0
8.033100 -15.910800 13.015400 0 255 0
8.020000 -16.139999 0.770000 255 0 0
7.691700 -16.355000 -2.687100 255 0 0
7.710000 -16.320000 7.060000 255 0 0
7.680000 -16.267500 3.800000 255 0 0
7.750000 -16.070000 10.890000 0 255 0
7.760000 -16.129999 7.660000 255 0 0
7.721700 -16.165001 4.418300 255 0 0
7.750000 -16.129999 7.790000 255 0 0
7.760000 -16.080000 10.950000 0 255 0
7.726700 -16.160000 4.661100 255 0 0
7.755000 -16.120001 7.975000 255 0 0
7.735700 -16.154301 4.910000 255 0 0
7.741700 -16.122000 5.163500 255 0 0
7.790000 -15.590000 22.469999 0 255 0
7.793800 -16.169201 9.006900 255 0 0
7.791300 -16.068899 2.664200 255 0 0
7.790000 -16.023100 -0.487200 255 0 0
7.785600 -16.113899 5.860600 255 0 0
7.684000 -16.351999 -1.090000 255 0 0
7.697800 -16.268700 5.410900 255 0 0
8.031400 -15.116800 6.357300 0 255 0
7.830000 -16.020000 10.370000 255 0 0
7.830000 -16.180000 13.380000 255 0 0
7.834200 -16.080799 7.205000 255 0 0
7.835700 -15.071400 -5.982900 0 255 255
7.840000 -16.160000 13.830000 255 0 0
7.840000 -16.077499 7.462500 255 0 0
7.848600 -16.081400 7.608600 255 0 0
7.850000 -16.190001 14.330000 255 0 0
7.846000 -15.062000 -6.090000 0 255 255
7.845000 -16.030001 11.000000 255 0 0
7.846200 -16.082500 7.751300 255 0 0
7.886700 -15.910000 11.756700 0 255 0
7.897100 -16.077101 8.505900 0 255 0
7.892500 -15.910000 11.672500 0 255 0
7.890000 -16.076200 8.604700 255 0 0
7.990000 -15.350000 22.299999 0 255 0
7.900000 -16.200001 18.260000 0 255 0
7.888200 -16.022699 5.610500 255 0 0
7.893300 -16.071699 8.760000 255 0 0
8.810000 -16.570000 7.240000 0 255 0
7.933300 -16.030001 8.803300 255 0 0
7.932400 -16.070900 5.564100 255 0 0
8.482500 -17.067499 -6.507500 0 255 255
7.910000 -16.290001 -0.580000 255 0 0
7.900000 -16.230000 -3.730000 255 0 0
7.910000 -16.160000 5.700000 255 0 0
7.886700 -16.117100 2.556200 255 0 0
7.604300 -16.217300 -1.936300 255 0 0
7.591100 -16.168400 -5.090500 255 0 0
8.882500 -16.020000 20.097500 0 255 0
7.948000 -15.221000 6.259000 0 255 0
7.960000 -16.020000 14.720000 255 0 0
7.960000 -15.990000 17.950001 255 0 0
7.933600 -16.065701 11.462900 255 0 0
8.885000 -16.680000 14.507500 0 255 0
8.910000 -16.719999 20.830000 0 255 0
8.870000 -16.160000 5.060000 0 255 0
8.750000 -16.129999 5.160000 0 255 0
7.890000 -17.110001 15.940000 0 255 0
7.790500 -15.316500 8.961500 0 255 0
7.800000 -16.100000 2.115000 255 0 0
7.783000 -16.035999 -4.042000 255 0 0
7.790000 -16.170000 5.370000 255 0 0
7.798200 -16.059099 -0.793600 255 0 0
7.784600 -16.222300 8.605400 255 0 0
8.510000 -16.889999 11.260000 0 255 0
7.790000 -15.160000 22.040001 0 255 0
8.835000 -16.719999 12.400000 0 255 0
7.700000 -15.030000 9.220000 0 255 0
7.434300 -15.468600 18.065701 0 255 0
7.145000 -15.985000 -6.225000 0 255 0
7.210000 -16.340000 20.219999 0 255 0
7.970000 -16.180000 2.560000 255 0 0
7.990000 -16.218800 5.801300 255 0 0
7.990000 -15.983300 15.610000 255 0 0
7.995000 -16.035000 18.860001 255 0 0
7.539500 -16.717800 8.457000 0 255 0
8.133300 -15.961700 14.366700 255 0 0
7.880000 -16.180000 9.060000 255 0 0
7.902500 -16.272499 2.567500 255 0 0
7.890000 -16.200001 -0.705000 255 0 0
7.888100 -16.111000 5.806800 0 255 0
8.005000 -15.410000 -6.195000 0 255 255
7.980000 -15.050000 22.959999 0 255 0
7.980000 -15.516700 0.123300 0 255 0
7.898000 -16.160000 -4.790000 255 0 0
7.900000 -15.380000 22.280001 0 255 0
7.887300 -15.164500 9.213600 0 255 0
7.984500 -15.018200 13.863600 0 255 0
7.980000 -15.140000 20.180000 0 255 0
7.910000 -15.170000 23.150000 0 255 0
8.810000 -15.525000 14.900000 0 255 0
7.640000 -16.770000 11.312500 0 255 0
7.628000 -16.959999 -1.322000 0 255 0
7.510000 -15.330000 18.430000 0 255 0
7.683100 -16.058001 -1.141000 255 0 0
8.170000 -16.070000 16.870001 0 255 0
8.185000 -15.970000 10.890000 0 255 0
8.190000 -16.075001 16.805000 0 255 0
8.820000 -15.430000 19.830000 0 255 0
8.040000 -16.100000 5.890000 255 0 0
8.030000 -16.083300 9.160000 255 0 0
8.040000 -15.930000 18.969999 255 0 0
7.960000 -16.283800 -3.733800 255 0 0
7.940000 -16.220699 -0.593600 255 0 0
7.927100 -16.171400 2.562900 255 0 0
7.937100 -16.114700 5.710000 255 0 0
8.188800 -15.671700 0.210000 0 255 0
8.950000 -16.518299 -5.553300 0 255 255
8.180000 -17.219999 11.960000 0 255 0
8.132500 -16.832500 -6.372500 0 255 255
8.180000 -15.170000 9.180000 0 255 0
8.170000 -15.280000 16.150000 0 255 0
7.546000 -16.313999 10.156000 0 255 0
7.097800 -15.314400 -5.936700 0 255 255
8.185000 -16.323299 -6.596700 0 255 0
7.956700 -15.220000 16.160000 0 255 0
6.736700 -16.413300 -6.356700 0 255 255
8.286000 -16.205999 8.610000 0 255 0
8.280000 -16.290001 11.850000 0 255 0
8.270000 -16.299999 2.290000 0 255 0
6.935000 -16.510000 9.015000 0 255 0
7.180000 -16.235001 15.195000 0 255 0
8.850000 -15.560000 18.590000 0 255 0
7.440000 -15.370000 14.420000 0 255 0
7.460000 -15.380000 14.270000 0 255 0
7.970000 -16.100000 12.105000 255 0 0
7.972200 -16.265301 -3.691700 255 0 0
7.980000 -16.010000 5.790000 255 0 0
7.986700 -16.081699 8.961700 255 0 0
7.972000 -16.267200 -3.640000 255 0 0
8.000000 -15.860000 22.480000 0 255 0
8.010000 -15.760000 15.960000 0 255 0
7.986700 -16.076700 9.008300 255 0 0
8.800000 -16.120001 12.080000 0 255 0
7.030000 -16.764999 -5.960000 0 255 255
7.086000 -16.466000 15.056000 0 255 0
7.610000 -16.139999 4.340000 255 0 0
7.605000 -16.083300 1.208300 255 0 0
7.980000 -16.139999 -4.930000 255 0 0
7.870000 -15.350000 6.420000 0 255 0
7.883300 -15.170000 -6.236700 0 255 255
7.886700 -15.030000 22.858299 0 255 0
7.900000 -15.000000 22.370001 0 255 0
7.891100 -15.418900 -6.392200 0 255 255
8.850000 -15.666000 18.006001 0 255 0
7.455000 -17.173300 -1.336700 0 255 0
8.935000 -15.680000 23.105000 0 255 0
7.650000 -16.216000 4.951000 255 0 0
7.629800 -16.116600 -1.338300 0 255 0
7.648100 -16.075399 1.910300 255 0 0
7.510000 -16.600000 -6.810000 0 255 0
7.850000 -16.510000 14.140000 0 255 0
7.836700 -16.363300 -1.745000 255 0 0
8.180000 -17.129999 -6.460000 0 255 255
8.170000 -16.129999 10.690000 255 0 0
7.008000 -15.926000 -6.240000 0 255 255
7.960000 -15.120000 22.709999 0 255 0
7.935900 -17.115601 -0.995200 0 255 0
8.840000 -15.285000 18.670000 0 255 0
7.930000 -15.340000 22.990000 0 255 0
7.941200 -17.016001 -0.942300 0 255 0
7.680000 -15.275000 22.045000 0 255 0
8.880000 -15.770000 11.560000 0 255 0
7.790000 -15.240000 8.970000 0 255 0
7.792700 -17.266899 -1.089600 0 255 0
7.740000 -16.090000 6.670000 255 0 0
7.741000 -16.025000 10.058000 0 255 0
7.746000 -16.105000 3.512000 255 0 0
7.884300 -16.225700 11.858600 255 0 0
7.878000 -16.034000 -0.788000 255 0 0
7.891400 -15.975700 8.655700 0 255 0
7.887100 -16.085699 2.367100 255 0 0
7.760000 -16.400000 3.370000 255 0 0
7.733300 -16.963301 18.753300 0 255 0
7.728000 -16.209999 5.070000 255 0 0
7.746700 -16.173300 8.310000 255 0 0
7.770000 -15.920000 6.220000 0 255 0
7.030000 -16.340000 -6.380000 0 255 255
8.050000 -16.270000 22.760000 0 255 0
7.040000 -15.350000 -6.170000 0 255 255
8.870000 -16.325001 14.460000 0 255 0
8.890000 -16.219999 20.740000 0 255 0
8.050000 -15.270000 13.340000 0 255 0
8.045400 -15.022300 16.056200 0 255 0
8.000000 -15.150000 20.150000 0 255 0
7.550000 -16.176701 2.210000 255 0 0
7.503700 -16.125000 -6.347500 0 255 0
9.143300 -16.213301 13.573300 0 255 0
8.850000 -15.540000 14.950000 0 255 0
8.050000 -16.860001 18.969999 0 255 0
8.060000 -16.629999 22.450001 0 255 0
8.036700 -16.213301 5.476700 255 0 0
8.040000 -15.960000 21.350000 255 0 0
8.036200 -16.168800 8.713800 255 0 0
8.032500 -16.027500 18.094999 255 0 0
6.695000 -15.625000 -5.972500 0 255 255
6.683300 -15.636700 -5.846700 0 255 255
8.094600 -15.021500 9.512300 0 255 0
6.996000 -16.164000 -6.238000 0 255 255
6.980000 -16.889999 -5.880000 0 255 255
6.689300 -15.684300 -5.740000 0 255 255
8.426000 -15.082000 16.708000 0 255 0
8.505000 -16.459999 -6.540000 0 255 255
6.982500 -15.305000 -5.992500 0 255 255
8.100000 -17.280001 11.940000 0 255 0
8.092500 -16.725000 -6.837500 0 255 255
8.090000 -16.549999 -6.390000 0 255 0
8.085000 -16.369301 6.657900 0 255 0
8.070000 -16.459999 -6.610000 0 255 0
7.042500 -16.717501 15.355000 0 255 0
8.292300 -16.216499 4.410800 0 255 0
8.043300 -16.530001 11.530000 0 255 0
8.035700 -16.374300 8.248600 255 0 0
8.090000 -16.477501 -1.092500 0 255 0
8.085000 -16.375000 5.215000 0 255 0
8.142500 -15.235000 -6.190000 0 255 255
7.886700 -16.323299 8.973300 255 0 0
8.680000 -16.639999 -1.400000 0 255 0
8.680000 -16.870001 14.800000 0 255 0
7.639200 -16.316200 1.565400 255 0 0
7.644000 -16.268000 4.706000 255 0 0
8.186400 -15.609100 -6.486400 0 255 255
8.195700 -15.711400 0.017100 0 255 0
8.030000 -16.129999 17.860001 255 0 0
8.050000 -16.270000 8.380000 255 0 0
8.040000 -16.017500 11.355000 255 0 0
8.186400 -15.971400 10.861400 0 255 0
7.629700 -16.161900 2.961900 255 0 0
7.653600 -16.085501 -3.343600 255 0 0
7.630000 -16.221701 -0.188300 255 0 0
8.170000 -16.070000 18.059999 255 0 0
8.195000 -16.084999 17.995001 0 255 0
8.040000 -16.100000 10.890000 255 0 0
8.045000 -16.056700 14.161700 255 0 0
7.938300 -16.661699 19.161699 0 255 0
8.034000 -15.817000 7.054500 0 255 0
7.510000 -16.299999 -6.190000 0 255 0
7.698600 -15.914300 -6.627100 0 255 0
8.180000 -17.028299 13.565000 0 255 0
8.180000 -15.940000 17.299999 0 255 0
7.810000 -15.990000 4.280000 255 0 0
8.795000 -16.805000 5.815000 0 255 0
8.770000 -15.600000 11.470000 0 255 0
8.794000 -15.704000 17.958000 0 255 0
7.736700 -17.123301 -1.330000 0 255 0
7.880000 -17.304001 -1.142000 0 255 0
7.701700 -16.111700 1.963300 255 0 0
7.684900 -16.060699 -1.191200 255 0 0
7.690000 -16.209999 -4.325000 255 0 0
7.900000 -16.264999 2.925000 255 0 0
7.888800 -16.112499 6.264400 255 0 0
7.890000 -16.200001 -0.220000 255 0 0
7.706700 -16.126699 5.355000 255 0 0
7.688000 -16.063200 2.212200 255 0 0
7.700000 -16.160000 -4.083300 255 0 0
7.700000 -16.020000 2.960000 255 0 0
7.681000 -16.107201 -3.788600 255 0 0
8.080000 -16.023300 12.963300 255 0 0
7.742000 -16.028200 -0.536000 255 0 0
7.736300 -16.059799 -3.540200 255 0 0
7.740000 -16.520000 -4.090000 0 255 0
7.755000 -16.355000 5.825000 255 0 0
8.144000 -16.070000 8.760000 255 0 0
7.795000 -16.860001 22.809999 0 255 0
7.740000 -15.900000 6.500000 0 255 0
7.739500 -16.027599 0.011300 255 0 0
7.741700 -16.058701 -3.288500 255 0 0
7.800000 -15.970000 -6.210000 0 255 0
7.781400 -16.158600 6.851400 255 0 0
7.806300 -16.216200 9.910000 255 0 0
7.791300 -16.063101 0.112500 255 0 0
7.790000 -16.107500 3.610000 255 0 0
7.785100 -16.032200 -3.136900 255 0 0
7.770000 -16.150000 6.590000 255 0 0
7.807500 -16.209999 9.755000 255 0 0
7.795000 -16.120001 3.465000 255 0 0
7.793700 -16.064199 0.261100 255 0 0
7.788600 -16.030300 -2.893500 255 0 0
7.833300 -16.216700 10.156700 255 0 0
7.840000 -16.160000 0.620000 255 0 0
7.840000 -16.117201 3.858800 255 0 0
7.841900 -16.028500 -2.488900 255 0 0
8.010000 -16.059999 -1.760000 255 0 0
7.810000 -16.879999 -1.210000 0 255 0
7.920000 -16.299999 14.940000 0 255 0
7.942700 -16.968000 -0.848000 0 255 0
7.670000 -16.780001 19.030001 0 255 0
7.670000 -16.389999 -6.310000 0 255 0
7.681000 -16.332001 3.454000 255 0 0
7.693300 -16.910000 15.716700 0 255 0
7.690000 -16.260000 0.200000 255 0 0
7.650000 -16.090000 3.710000 255 0 0
7.634600 -16.113501 0.460800 255 0 0
7.635000 -16.075001 3.810000 255 0 0
7.633600 -16.118500 0.562700 255 0 0
7.687700 -16.062300 -2.538500 255 0 0
7.675000 -16.100000 0.710000 255 0 0
7.700000 -15.990000 -1.960000 255 0 0
7.694100 -16.035299 1.210000 255 0 0
7.676700 -16.123301 -5.346700 255 0 0
7.728000 -16.101999 -4.792000 255 0 0
7.735600 -16.051100 -1.640000 255 0 0
7.740400 -16.034599 1.560000 255 0 0
7.770000 -16.230000 14.850000 0 255 0
7.786700 -15.976700 -1.546700 255 0 0
7.794000 -16.125299 8.360000 255 0 0
7.790300 -16.077900 4.954800 0 255 0
7.786700 -16.027800 1.814400 255 0 0
7.839500 -16.119499 8.813200 255 0 0
7.843800 -16.058800 -1.086900 255 0 0
7.827500 -16.027500 2.070000 255 0 0
7.833300 -16.153299 5.500000 255 0 0
7.845000 -16.061899 -1.042200 255 0 0
7.841200 -16.115000 8.760000 255 0 0
7.837900 -16.030701 2.207100 255 0 0
7.910000 -16.100000 18.840000 255 0 0
7.890000 -16.222500 12.362500 255 0 0
7.870000 -15.930000 5.810000 0 255 0
7.890000 -16.084999 2.460000 255 0 0
7.880000 -16.032499 -0.697500 255 0 0
7.890000 -15.070000 -5.746700 0 255 255
7.885700 -16.080500 5.714800 255 0 0
7.890000 -16.040001 2.440000 255 0 0
7.880000 -16.209999 12.470000 255 0 0
7.890000 -16.040001 -0.585000 255 0 0
7.881800 -15.920000 5.707300 0 255 0
7.885000 -16.075001 2.557500 0 255 0
7.645000 -16.352501 0.665000 255 0 0
7.953300 -16.026699 9.216700 255 0 0
7.923300 -16.086700 5.970000 255 0 0
7.930000 -16.010000 5.850000 255 0 0
7.940000 -16.076700 2.720000 255 0 0
7.636300 -16.112600 1.460300 255 0 0
7.620000 -15.480000 -6.310000 0 255 255
7.654600 -16.122299 4.004600 255 0 0
8.506700 -16.073299 -6.590000 0 255 255
8.480000 -15.165000 0.150000 0 255 0
7.653300 -16.036699 0.656700 255 0 0
7.681600 -16.381701 -3.791900 0 255 0
7.696000 -16.316000 5.760000 0 255 0
7.844300 -15.022700 6.325700 0 255 0
7.675500 -16.331499 -2.290000 255 0 0
8.830000 -15.300000 14.880000 0 255 0
7.290000 -15.235000 14.460000 0 255 0
7.780000 -16.035000 -5.180000 255 0 0
7.770000 -16.150000 4.090000 255 0 0
7.800000 -16.250000 10.620000 255 0 0
7.806700 -16.110001 0.960000 255 0 0
7.795000 -16.059299 -2.038600 255 0 0
7.786300 -16.219999 7.462500 255 0 0
7.820000 -16.020000 -4.830000 255 0 0
7.845400 -16.109200 1.306900 255 0 0
7.840000 -16.040001 4.830000 255 0 0
7.847500 -16.112499 10.960000 255 0 0
7.841200 -16.074499 1.558800 255 0 0
7.836700 -16.157801 7.712200 255 0 0
7.704000 -16.181999 6.416000 255 0 0
7.923300 -16.263300 2.456700 255 0 0
7.956700 -16.209999 5.623300 0 255 0
7.920000 -16.115000 11.900000 255 0 0
7.940000 -16.155001 8.760000 255 0 0
7.880000 -17.100000 18.969999 0 255 0
7.893600 -15.031800 -5.799100 0 255 255
7.885600 -16.016701 5.664400 255 0 0
7.890000 -16.080000 8.903600 0 255 0
8.147500 -15.072500 13.777500 0 255 0
8.132900 -15.071400 9.374300 0 255 0
8.136700 -15.115000 6.208900 0 255 0
8.590000 -17.018801 11.315000 0 255 0
7.600500 -16.270399 -4.237900 0 255 0
7.590000 -16.309999 -1.092500 255 0 0
7.590000 -16.350000 2.280000 255 0 0
9.142900 -16.167101 11.907100 0 255 0
8.940000 -15.460000 22.090000 0 255 0
7.475000 -16.514999 -6.745000 0 255 0
8.850000 -15.690000 14.450000 0 255 0
7.878900 -15.271100 16.112200 0 255 0
8.790000 -15.450000 11.450000 0 255 0
8.935000 -15.980000 17.700001 0 255 0
7.660000 -16.299999 5.570000 255 0 0
7.630000 -16.370001 15.190000 0 255 0
8.888300 -16.588301 9.053300 0 255 0
8.403300 -16.373301 -6.756700 0 255 0
8.920000 -16.500000 20.889999 0 255 0
8.840000 -15.530000 14.160000 0 255 0
8.860000 -16.610001 18.740000 0 255 0
8.842000 -16.826000 6.096000 0 255 0
7.602500 -16.084999 -1.430000 255 0 0
7.597600 -16.126200 1.807200 255 0 0
8.081700 -15.561700 13.153300 0 255 0
7.986700 -16.500000 -6.606700 0 255 0
7.936400 -15.010900 13.856400 0 255 0
6.898300 -15.675000 -6.543300 0 255 255
7.844400 -14.963300 16.158899 0 255 0
7.780000 -15.086000 16.224001 0 255 0
7.680600 -16.213699 4.555600 255 0 0
7.570000 -15.530000 20.930000 0 255 0
8.200000 -16.830000 13.470000 0 255 0
8.772500 -15.325000 21.625000 0 255 0
8.200000 -15.760000 16.410000 0 255 0
8.187500 -17.075001 13.661200 0 255 0
8.188000 -17.059999 13.710000 0 255 0
7.980000 -16.650000 11.330000 0 255 0
7.841700 -16.356701 -1.690000 255 0 0
7.850000 -16.540001 14.110000 0 255 0
8.100000 -16.150000 19.889999 0 255 0
7.652500 -16.222500 5.112500 255 0 0
7.631700 -16.114599 -1.389100 255 0 0
7.641500 -16.074600 1.760000 0 255 0
7.927600 -16.078800 -2.590000 255 0 0
7.930000 -16.155001 16.770000 255 0 0
7.930000 -16.215000 13.630000 255 0 0
8.810000 -16.690001 17.200001 0 255 0
7.740000 -16.115000 0.695000 255 0 0
7.742600 -16.078100 3.862100 255 0 0
8.898600 -15.927100 7.605700 0 255 0
7.775000 -16.965000 18.959999 0 255 0
7.780900 -16.925501 15.706400 0 255 0
7.610000 -15.210000 23.090000 0 255 0
7.546700 -16.626699 -6.730000 0 255 0
7.860000 -16.200001 11.100000 255 0 0
7.850000 -16.160000 1.650000 255 0 0
7.832900 -16.080000 -5.084300 255 0 0
7.834700 -16.029400 -1.941300 255 0 0
7.840700 -16.113001 4.813000 255 0 0
7.840000 -16.150000 -4.750000 255 0 0
7.860000 -16.100000 -1.585000 255 0 0
8.429700 -16.112801 5.108600 0 255 0
8.453300 -15.106700 18.946699 0 255 0
8.440000 -16.209999 11.390000 0 255 0
7.910000 -16.170000 8.050000 255 0 0
7.887500 -16.272499 1.547500 255 0 0
7.890300 -16.112900 4.807100 255 0 0
7.955000 -16.025000 17.014999 255 0 0
7.937300 -16.067301 13.760000 255 0 0
6.940000 -16.309999 -6.380000 0 255 255
7.880000 -16.840000 18.950001 0 255 0
7.830000 -15.890000 10.190000 0 255 0
7.844300 -15.718100 7.156200 0 255 0
7.250000 -16.809999 -5.960000 0 255 255
7.787200 -15.672000 8.756400 0 255 0
8.030000 -16.219999 5.280000 255 0 0
8.035000 -16.172501 8.515000 255 0 0
8.040000 -16.010000 18.320000 255 0 0
8.050000 -16.260000 14.740000 255 0 0
8.050000 -15.990000 20.920000 255 0 0
8.030000 -16.225000 5.125000 255 0 0
8.035700 -16.160000 8.264300 255 0 0
8.040000 -15.966700 16.546700 255 0 0
8.044000 -16.025999 13.310000 255 0 0
8.027500 -16.215000 6.965000 255 0 0
7.810000 -15.420000 18.100000 0 255 0
7.791100 -17.215700 -1.043600 0 255 0
8.840000 -16.730000 14.705000 0 255 0
8.840000 -16.584999 11.450000 0 255 0
8.832300 -16.771099 -1.634300 0 255 0
7.094400 -16.218901 15.100000 0 255 0
8.139000 -15.378000 -6.486000 0 255 255
8.150000 -15.290000 0.240000 0 255 0
8.135000 -15.073300 13.310800 0 255 0
8.025000 -16.010000 15.605000 255 0 0
8.033300 -16.183300 5.803300 255 0 0
8.040000 -15.990000 18.840000 255 0 0
7.245000 -15.730000 20.700001 0 255 0
8.400000 -15.120000 14.910000 0 255 0
7.200000 -16.469999 22.500000 0 255 0
7.090000 -15.900000 18.879999 0 255 0
8.933300 -15.456700 18.563299 0 255 0
7.895000 -16.160000 4.165000 255 0 0
7.895000 -16.215000 -5.390000 255 0 0
7.894500 -16.118601 0.911400 255 0 0
8.030000 -16.030001 10.100000 255 0 0
8.040000 -16.260000 7.210000 255 0 0
8.040000 -16.129999 16.615000 255 0 0
8.030000 -16.080000 19.840000 255 0 0
8.050000 -15.980000 13.370000 255 0 0
7.850000 -17.049999 20.420000 0 255 0
7.035000 -15.685000 -6.330000 0 255 255
7.040000 -15.670000 -6.291700 0 255 255
8.630000 -15.330000 18.610001 0 255 0
6.594000 -15.964000 -6.134000 0 255 255
8.837300 -16.621799 5.758200 0 255 0
8.860000 -16.410000 6.480000 0 255 0
8.840000 -16.722500 5.922500 0 255 0
8.835000 -16.680000 9.145000 0 255 0
8.035000 -17.066401 -0.952000 0 255 0
7.745000 -16.825001 15.920000 0 255 0
8.140000 -16.309999 7.040000 0 255 0
7.680000 -16.020000 2.890000 255 0 0
7.682900 -16.107599 -3.842400 255 0 0
7.690000 -15.980000 -0.730000 255 0 0
7.695700 -16.038601 2.415700 255 0 0
7.678500 -16.110399 -4.140600 0 255 0
8.987800 -15.768900 9.760000 0 255 0
7.943600 -16.024500 11.608200 255 0 0
7.934400 -16.080000 8.356700 255 0 0
7.940000 -16.321199 3.908700 255 0 0
7.390000 -15.510000 18.260000 0 255 0
7.734000 -16.374001 2.058000 255 0 0
7.740000 -16.280001 8.365000 255 0 0
7.736300 -16.327499 5.107500 255 0 0
7.744000 -16.454000 -4.982000 255 0 0
7.743300 -16.381701 1.166700 255 0 0
7.746000 -16.274000 7.663300 255 0 0
8.725000 -16.615000 22.905001 0 255 0
8.735000 -16.665001 18.615000 0 255 0
7.050000 -16.430000 -6.480000 0 255 255
7.137700 -15.922300 -6.135400 0 255 0
7.295000 -16.125000 22.775000 0 255 0
6.832500 -16.665001 8.867500 0 255 0
6.983300 -16.013300 -6.183300 0 255 255
7.980000 -16.120001 2.210000 255 0 0
7.986700 -15.870000 11.713300 0 255 0
7.970000 -16.070000 -0.960000 255 0 0
8.090000 -15.050000 6.530000 0 255 0
6.686400 -15.610900 -5.790900 0 255 255
8.500000 -16.280001 5.070000 0 255 0
6.700000 -15.630000 -6.080000 0 255 255
7.092800 -16.322201 15.101700 0 255 0
8.500000 -15.473300 14.018300 0 255 0
8.020000 -17.205000 -1.080000 0 255 0
8.030000 -15.220000 20.219999 0 255 0
8.020000 -15.520000 19.900000 0 255 0
8.790000 -16.150000 21.820000 0 255 0
8.790000 -16.420000 12.020000 0 255 0
7.030000 -16.090000 15.150000 0 255 0
7.040000 -16.027500 18.952499 0 255 0
8.035000 -15.000000 22.715000 0 255 0
7.040000 -16.170000 15.147500 0 255 0
7.030000 -16.100000 15.220000 0 255 0
8.300000 -16.410000 -6.650000 0 255 0
8.284000 -16.624001 6.423000 0 255 0
8.096700 -14.963300 22.809999 0 255 0
8.078000 -15.272000 6.302000 0 255 0
8.080000 -15.220000 16.070000 0 255 0
8.092400 -15.368200 0.159700 0 255 0
7.020000 -15.970000 -6.570000 0 255 255
8.085000 -16.372499 13.050000 0 255 0
7.103300 -16.160000 -6.110000 0 255 255
7.136700 -16.620001 -6.443300 0 255 255
7.160000 -16.600000 -6.480000 0 255 255
7.060000 -16.799999 -6.550000 0 255 255
7.970000 -16.180000 16.860001 255 0 0
8.775000 -15.565000 14.815000 0 255 0
8.845000 -15.600000 11.445000 0 255 0
8.880000 -16.740000 11.400000 0 255 0
9.087500 -16.167500 12.055000 0 255 0
7.776700 -16.906700 -1.200000 0 255 0
8.180000 -15.060000 16.290001 0 255 0
7.690000 -16.350000 5.800000 255 0 0
7.480000 -16.715000 15.045000 0 255 0
8.200000 -16.972500 13.607500 0 255 0
8.170000 -16.020000 13.910000 255 0 0
8.190000 -16.059999 17.049999 0 255 0
7.540000 -15.660000 14.450000 0 255 0
7.595000 -15.600000 -6.370000 0 255 255
7.596400 -16.170500 2.707400 255 0 0
7.603800 -16.127899 -0.640300 255 0 0
7.610000 -16.090000 -1.290000 255 0 0
7.598300 -16.124701 1.860300 255 0 0
7.610000 -16.139999 -4.310000 0 255 0
7.593300 -16.218000 2.008700 255 0 0
7.598700 -16.170700 -1.244400 0 255 0
7.601700 -16.129700 -1.142800 255 0 0
7.592400 -16.166700 2.009400 255 0 0
8.040000 -16.290001 8.570000 0 255 0
8.020000 -16.020000 11.940000 255 0 0
8.030000 -16.330000 5.390000 255 0 0
8.030000 -16.120001 18.465000 255 0 0
8.040000 -15.970000 15.090000 255 0 0
8.030000 -15.740000 22.250000 0 255 0
7.670000 -16.100000 -0.640000 255 0 0
7.691600 -16.077801 -3.789700 255 0 0
7.790000 -15.340000 22.480000 0 255 0
7.794000 -15.226000 16.101999 0 255 0
7.580600 -16.163300 -5.489200 255 0 0
7.590000 -16.036699 10.313300 0 255 0
7.603700 -16.218800 -2.337300 255 0 0
7.687300 -16.064800 -2.286800 255 0 0
7.683300 -16.110001 0.846700 255 0 0
7.680000 -16.240000 -5.630000 255 0 0
7.980000 -16.315001 6.575000 255 0 0
7.975000 -16.179300 -3.087900 255 0 0
7.986700 -16.080000 16.456699 255 0 0
7.990000 -16.018801 13.117500 255 0 0
7.640000 -16.156700 -5.326700 255 0 0
7.692400 -16.035000 1.658500 255 0 0
7.683100 -16.107901 -4.891400 255 0 0
8.000000 -15.840000 20.190001 0 255 0
7.977500 -16.065001 11.217500 255 0 0
7.970000 -16.250000 -1.900000 255 0 0
8.010000 -16.110001 14.290000 255 0 0
7.990000 -16.061701 11.161700 255 0 0
7.730000 -16.490000 22.240000 0 255 0
7.690000 -15.975000 -1.050000 255 0 0
7.703100 -16.034401 2.115600 255 0 0
7.680300 -16.106100 -4.636700 255 0 0
7.740000 -16.023800 -1.188500 255 0 0
7.739500 -16.067801 -4.490600 255 0 0
7.495000 -16.370001 -6.330000 0 255 0
7.785000 -16.860001 22.760000 0 255 0
7.741000 -16.025499 0.060800 255 0 0
7.740000 -16.059500 -3.338000 255 0 0
7.775000 -16.235001 5.415000 255 0 0
7.780000 -16.129999 -1.070000 255 0 0
7.790000 -16.266399 8.663600 255 0 0
7.787500 -16.065599 -3.988700 255 0 0
7.800000 -16.100000 2.610000 255 0 0
7.775000 -16.155001 5.857500 255 0 0
7.793000 -16.212999 8.905000 255 0 0
7.800000 -16.057301 -0.488000 255 0 0
7.790000 -16.035999 -3.742000 255 0 0
7.836000 -16.219000 9.966000 255 0 0
7.842900 -16.114300 3.660500 255 0 0
7.836200 -16.035400 -3.092300 255 0 0
7.870000 -16.209999 9.710000 255 0 0
7.883000 -16.074499 0.311500 255 0 0
7.874600 -16.032301 -2.938500 255 0 0
7.870000 -15.990000 6.690000 0 255 0
7.880000 -16.074200 0.403300 255 0 0
7.883000 -16.032000 -2.838000 0 255 0
7.955000 -16.129999 16.780001 255 0 0
7.940000 -16.183300 13.510000 255 0 0
7.940000 -15.970000 0.470000 0 255 0
7.940000 -16.030001 -2.595000 255 0 0
7.930000 -16.170000 13.346700 255 0 0
7.955000 -16.125000 16.490000 255 0 0
7.946700 -16.010000 -2.446700 255 0 0
7.670000 -16.230000 3.120000 255 0 0
7.670000 -16.190001 -0.120000 255 0 0
6.692000 -15.728000 -6.094000 0 255 255
7.688600 -16.064899 -2.891500 255 0 0
7.685000 -16.112499 0.257500 255 0 0
8.210000 -15.990000 16.080000 255 0 0
8.210000 -15.910000 12.810000 0 255 0
8.188600 -15.722400 0.157900 0 255 0
8.137600 -15.666300 0.257100 0 255 0
7.720000 -16.100000 -5.680000 255 0 0
7.790000 -16.809999 18.815001 0 255 0
7.741700 -16.033501 0.859100 255 0 0
7.735600 -16.051701 -2.541100 255 0 0
7.760000 -17.040001 18.889999 0 255 0
7.810000 -16.160000 10.630000 255 0 0
7.792700 -16.070000 4.257500 255 0 0
7.793500 -16.125900 7.454700 255 0 0
7.782900 -16.031700 1.110800 255 0 0
7.935700 -15.280000 -6.337100 0 255 255
7.933300 -15.303300 16.053301 0 255 0
6.938300 -15.773300 19.003300 0 255 0
7.950000 -15.940000 16.030001 255 0 0
7.925000 -16.084999 6.260000 255 0 0
7.920000 -16.035000 9.500000 255 0 0
7.723100 -16.433100 -4.938500 255 0 0
7.740000 -16.365999 -1.788000 255 0 0
7.741000 -16.971001 11.250000 0 255 0
7.745000 -16.275000 4.515000 255 0 0
7.750700 -16.170000 7.759300 255 0 0
7.750000 -16.209999 4.630000 255 0 0
7.727000 -16.166000 4.760000 255 0 0
7.810000 -16.219999 10.660000 255 0 0
7.788200 -16.110001 4.160000 255 0 0
7.785000 -16.168301 7.305000 255 0 0
7.795700 -16.064301 1.162400 255 0 0
7.789200 -16.026699 -1.990200 255 0 0
7.770000 -15.990000 -1.050000 255 0 0
7.802500 -16.129999 8.862500 255 0 0
7.790000 -16.033001 2.113000 255 0 0
7.793500 -16.082500 5.259000 255 0 0
7.498800 -16.680000 15.010000 0 255 0
8.400000 -15.120000 18.780001 0 255 0
8.795000 -15.515000 18.660000 0 255 0
7.890000 -15.050000 -5.660000 0 255 255
7.900000 -16.020000 2.550000 255 0 0
7.885900 -16.077101 5.805900 255 0 0
7.880000 -15.070000 -5.890000 0 255 255
7.893300 -16.030001 2.800000 255 0 0
7.890000 -16.071501 5.957700 255 0 0
8.894000 -16.459999 -6.192000 0 255 255
8.880000 -16.290001 6.470000 0 255 0
7.940000 -16.030001 17.120001 255 0 0
7.937500 -16.071199 13.866300 255 0 0
7.942500 -16.077499 16.407499 255 0 0
7.980000 -16.635000 -6.555000 0 255 0
8.145700 -15.270000 9.411400 0 255 0
7.935000 -16.068300 15.116700 255 0 0
7.920000 -16.020000 18.280001 255 0 0
8.940000 -16.620001 5.850000 0 255 0
8.940000 -16.350000 19.270000 0 255 0
7.742500 -16.915001 -6.280000 0 255 255
8.790000 -16.139999 12.010000 0 255 0
8.790000 -15.890000 21.830000 0 255 0
8.000000 -16.090000 -3.390000 255 0 0
7.390000 -16.090000 22.879999 0 255 0
8.680000 -16.370001 14.100000 0 255 0
8.970000 -16.190001 4.780000 0 255 0
8.990000 -16.700001 15.050000 0 255 0
7.980000 -16.200001 18.090000 0 255 0
8.425000 -16.580000 -6.725000 0 255 255
8.923300 -16.316700 11.966700 0 255 0
8.933800 -16.424999 5.816200 0 255 0
7.790000 -15.405000 18.055000 0 255 0
8.337500 -15.267500 14.927500 0 255 0
8.340000 -15.870000 -6.676700 0 255 255
8.210000 -15.740000 18.610001 0 255 0
7.585000 -15.625000 18.010000 0 255 0
7.930000 -16.266899 -0.583800 255 0 0
7.932500 -16.213800 2.662500 255 0 0
7.948000 -16.167999 5.700000 255 0 0
7.938200 -16.112700 8.955500 255 0 0
8.188000 -15.468000 -6.236000 0 255 255
7.624000 -16.222900 -2.539000 0 255 0
7.637900 -16.076200 -5.789600 255 0 0
7.632500 -16.163799 0.702500 255 0 0
6.987600 -15.265000 -5.794100 0 255 255
8.843300 -16.770000 18.713301 0 255 0
7.140000 -15.800000 14.330000 0 255 0
7.200000 -15.770000 14.390000 0 255 0
7.210000 -15.870000 20.730000 0 255 0
8.920000 -16.299999 22.570000 0 255 0
7.870000 -15.900000 8.750000 0 255 0
7.886700 -16.209999 14.906700 255 0 0
7.886700 -16.030001 2.256700 255 0 0
7.886900 -16.080299 5.516900 255 0 0
7.990000 -15.185000 21.520000 0 255 0
8.320000 -15.660000 -6.480000 0 255 255
8.350000 -16.100000 16.440001 0 255 0
7.600000 -16.250000 4.900000 255 0 0
7.623300 -16.278299 1.716700 255 0 0
7.644400 -16.318800 -1.437600 255 0 0
7.936700 -16.118601 -1.845700 255 0 0
7.932500 -16.172501 -5.090000 255 0 0
7.440000 -16.940001 -6.805000 0 255 255
7.830000 -15.120000 -6.260000 0 255 255
7.860000 -15.300000 6.410000 0 255 0
8.860000 -16.889999 6.340000 0 255 0
7.145000 -15.930000 22.965000 0 255 0
7.190000 -16.275000 -6.375000 0 255 0
7.080000 -15.374000 -6.086000 0 255 255
8.038900 -15.865600 6.917800 0 255 0
7.641100 -16.664400 11.259400 0 255 0
6.932000 -16.326000 14.970000 0 255 0
7.180000 -16.180000 -6.220000 0 255 0
7.173300 -16.936701 11.203300 0 255 0
8.010000 -16.559999 19.190001 0 255 0
7.990000 -16.910000 15.790000 0 255 0
8.933300 -16.760000 9.256700 0 255 0
8.920000 -16.639999 18.770000 0 255 0
8.946400 -16.823601 6.105500 0 255 0
8.188800 -15.124800 6.307600 0 255 0
8.200000 -15.160000 9.560000 0 255 0
7.680000 -15.980000 2.210000 255 0 0
7.720000 -16.500000 22.139999 0 255 0
7.693500 -16.078800 -3.939600 255 0 0
7.741700 -16.167500 6.407900 255 0 0
7.590000 -16.376699 15.106700 0 255 0
7.950000 -16.370001 5.590000 255 0 0
6.940000 -16.290001 -6.430000 0 255 255
6.928600 -16.070000 18.969999 0 255 0
8.950000 -16.475000 11.700000 0 255 0
8.940000 -16.620001 7.105000 0 255 0
7.995000 -15.760000 19.770000 0 255 0
7.973800 -16.222799 -3.089700 0 255 0
7.993300 -16.113300 16.473301 255 0 0
7.980000 -16.059999 13.212000 255 0 0
7.990000 -15.260000 21.600000 0 255 0
7.798900 -15.822200 8.674400 0 255 0
7.845700 -16.879999 18.914301 0 255 0
7.835000 -15.125000 -5.936400 0 255 255
8.090000 -15.125000 21.645000 0 255 0
8.077500 -15.277500 6.257500 0 255 0
8.100000 -15.120000 21.629999 0 255 0
8.090000 -15.320000 9.355000 0 255 0
8.810000 -15.670000 11.370000 0 255 0
6.938000 -16.181999 -6.196000 0 255 255
7.210000 -16.465000 22.570000 0 255 0
7.170000 -16.830000 -6.030000 0 255 255
6.934000 -16.757999 -6.036000 0 255 255
8.946700 -15.865000 9.803300 0 255 0
7.546400 -17.222900 -1.142000 0 255 0
8.890000 -16.535000 -1.697500 0 255 0
8.092000 -16.628000 -6.142000 0 255 255
8.946700 -16.126699 21.820000 0 255 0
8.930000 -16.273300 12.296700 0 255 0
6.685000 -16.282499 -6.545000 0 255 255
7.860000 -16.440001 -1.140000 0 255 0
7.620000 -15.030000 -5.920000 0 255 255
8.488300 -16.918301 15.046700 0 255 0
7.996700 -15.920000 6.963300 0 255 0
8.070000 -15.930000 18.930000 255 0 0
8.080000 -16.030001 12.580000 255 0 0
8.180000 -16.014999 17.045000 255 0 0
7.970000 -16.030001 -0.260000 255 0 0
8.000000 -16.320000 -6.390000 0 255 0
7.981000 -16.125999 6.261000 255 0 0
8.320000 -16.000000 17.770000 0 255 0
8.148300 -17.020000 -6.643300 0 255 255
7.860000 -15.740000 11.820000 0 255 0
7.845000 -15.765000 8.675000 0 255 0
7.900000 -16.120001 -1.750000 255 0 0
7.896200 -16.167500 1.411300 255 0 0
7.778800 -15.815000 8.748800 0 255 0
7.850000 -16.879999 19.008900 0 255 0
8.280000 -15.590000 0.160000 0 255 0
7.870000 -16.260000 14.570000 255 0 0
7.890000 -16.173300 21.080000 0 255 0
7.900000 -16.235001 11.305000 255 0 0
7.886200 -16.075001 1.900000 255 0 0
7.885000 -16.028700 -1.343800 255 0 0
7.489200 -17.016199 11.220800 0 255 0
7.740000 -16.559999 -6.796700 0 255 0
7.745000 -16.365000 6.260000 255 0 0
7.720000 -16.280001 -4.270000 255 0 0
6.942800 -15.474100 -5.681600 0 255 255
7.150000 -16.424999 20.100000 0 255 0
7.132500 -16.400000 20.070000 0 255 0
7.130000 -16.809999 -6.050000 0 255 255
7.025000 -15.330000 -6.090000 0 255 255
8.840000 -16.922001 5.952000 0 255 0
7.100000 -16.570000 20.129999 0 255 0
8.876700 -15.410000 18.690001 0 255 0
7.105000 -16.610001 20.174999 0 255 0
7.080000 -17.030001 -5.960000 0 255 255
8.092500 -16.972500 -6.745000 0 255 255
7.970000 -16.139999 -4.150000 255 0 0
6.980000 -15.980000 -6.590000 0 255 255
8.593300 -16.366699 6.463300 0 255 0
6.675000 -15.713300 -6.230000 0 255 255
8.110000 -17.180000 13.300000 0 255 0
8.880000 -16.703300 7.013300 0 255 0
6.925000 -16.010000 -6.210000 0 255 255
8.800000 -15.190000 21.770000 0 255 0
8.900000 -16.170000 17.750000 0 255 0
8.894500 -16.462999 -1.572000 0 255 0
7.995000 -15.270000 9.160000 0 255 0
8.845000 -15.965000 21.950001 0 255 0
8.840000 -16.322500 12.267500 0 255 0
6.850000 -15.440000 -5.540000 0 255 255
8.097500 -15.672500 5.702500 0 255 0
8.190000 -15.180000 20.990000 0 255 0
7.700000 -17.065001 15.915000 0 255 0
7.643300 -16.356701 2.916700 255 0 0
7.640000 -16.950001 15.960000 0 255 0
7.628300 -16.270700 -3.390700 255 0 0
8.147500 -16.764999 11.405000 0 255 0
8.133300 -15.983300 18.023300 255 0 0
8.810000 -15.480000 14.900000 0 255 0
7.700000 -16.219999 7.425000 255 0 0
7.681700 -16.168900 4.162800 255 0 0
8.830000 -15.820000 16.020000 0 255 0
7.380000 -15.685000 -6.485000 0 255 255
8.930000 -16.250000 7.300000 0 255 0
8.942500 -16.275000 7.377500 0 255 0
8.192500 -16.584999 -6.575000 0 255 0
8.181500 -16.763100 6.463100 0 255 0
7.840000 -16.200001 -5.050000 255 0 0
8.340000 -15.774400 10.965600 0 255 0
8.841700 -15.678300 9.808300 0 255 0
7.840000 -17.299999 -1.060000 0 255 0
7.790000 -16.834999 15.760000 0 255 0
7.790000 -16.855000 19.004999 0 255 0
7.738400 -16.030199 -2.588600 255 0 0
7.740700 -16.072700 -5.482700 255 0 0
7.777100 -16.270000 7.407100 0 255 0
7.785900 -16.079500 -5.240900 255 0 0
7.795000 -16.105000 2.002500 255 0 0
7.781500 -16.218500 8.305400 255 0 0
7.773300 -16.153299 5.256700 255 0 0
7.797300 -16.059999 -1.491800 255 0 0
7.782500 -16.032499 -4.740000 255 0 0
7.790000 -16.150000 4.960000 255 0 0
7.785000 -16.115000 1.697500 255 0 0
7.772000 -16.218000 8.220000 255 0 0
7.794200 -16.055799 -1.192500 255 0 0
7.783800 -16.037500 -4.430000 255 0 0
7.883100 -16.078501 1.007700 255 0 0
7.875000 -16.215000 10.820000 255 0 0
7.885000 -16.025000 -2.251700 255 0 0
7.850000 -16.115000 2.816700 255 0 0
7.860000 -15.510000 15.860000 0 255 0
7.838000 -16.034000 -3.930000 255 0 0
7.829100 -16.215500 9.112700 255 0 0
7.830000 -16.209999 12.340000 255 0 0
7.840000 -16.266001 9.112000 255 0 0
7.839500 -16.035500 -0.689500 255 0 0
7.836200 -16.110800 6.061500 0 255 0
7.838200 -16.068800 -3.941400 0 255 0
7.843300 -16.111300 2.714000 255 0 0
7.835000 -16.217501 9.222500 255 0 0
7.840000 -16.032499 -3.840000 255 0 0
7.930000 -16.110001 15.755000 255 0 0
7.927500 -16.160000 12.497500 255 0 0
7.920000 -16.030001 -3.200000 255 0 0
8.045000 -17.125000 -1.100000 0 255 0
7.937100 -16.872900 -0.940000 0 255 0
7.670000 -15.940000 18.650000 0 255 0
7.670000 -16.156700 -3.546700 255 0 0
7.701700 -16.129999 6.015000 255 0 0
7.689800 -16.077200 2.761700 255 0 0
7.670000 -16.209999 -0.300000 255 0 0
7.700000 -16.219999 3.190000 255 0 0
7.670000 -16.160000 -0.050000 255 0 0
7.675000 -16.030001 6.230000 255 0 0
7.670000 -16.120001 0.070000 255 0 0
7.690300 -16.068899 -3.087900 0 255 0
7.635600 -16.221901 3.463000 255 0 0
7.637500 -16.120001 -3.037800 255 0 0
7.643300 -16.071699 0.209700 0 255 0
8.195400 -15.720800 0.199600 0 255 0
7.720000 -16.100000 -5.500000 255 0 0
7.739400 -16.028400 0.662200 255 0 0
7.796700 -16.830000 19.010000 0 255 0
7.736000 -16.059000 -2.343000 255 0 0
7.800000 -15.990000 -2.320000 255 0 0
7.788300 -16.078699 4.164000 0 255 0
7.800400 -16.129101 7.560900 255 0 0
7.791000 -16.033001 1.013000 255 0 0
7.776000 -15.980000 -1.792000 0 255 0
7.792100 -16.126400 8.010700 255 0 0
7.789000 -16.080299 4.508600 255 0 0
7.786100 -16.027201 1.258300 255 0 0
7.950000 -16.040001 5.025000 255 0 0
7.945000 -16.280001 14.815000 255 0 0
7.930000 -16.070000 1.760000 255 0 0
7.636700 -16.116301 2.410200 255 0 0
7.780000 -16.440001 -4.890000 255 0 0
7.705000 -15.625000 -6.200000 0 255 255
7.697500 -16.219999 7.262500 255 0 0
7.686200 -16.165001 4.111500 255 0 0
7.730000 -16.160000 0.980000 255 0 0
7.745000 -16.018299 10.865000 0 255 0
7.743600 -15.964500 14.013600 0 255 0
7.739200 -16.107800 4.310500 255 0 0
7.730000 -16.110001 1.310000 255 0 0
7.720000 -16.150000 -2.040000 255 0 0
7.760000 -16.000000 7.470000 0 255 0
7.746200 -16.084600 4.461500 255 0 0
7.790000 -16.205000 14.757500 0 255 0
7.790000 -16.163300 11.593300 255 0 0
7.797100 -16.125700 8.460000 255 0 0
7.781000 -16.035999 1.711000 255 0 0
7.792800 -16.076700 4.855600 255 0 0
7.890000 -16.120001 21.670000 0 255 0
7.870000 -15.960000 11.750000 0 255 0
7.884300 -16.078600 5.258600 255 0 0
7.973300 -16.275000 -4.281700 255 0 0
7.985000 -16.100000 11.925000 255 0 0
7.988000 -16.076000 8.764000 255 0 0
7.975000 -16.011299 5.607500 255 0 0
7.942100 -16.273199 -2.187900 255 0 0
7.926000 -16.222000 1.066000 255 0 0
7.932700 -16.165300 4.109300 255 0 0
7.940000 -16.120001 7.350000 255 0 0
8.980000 -16.639999 20.690001 0 255 0
8.976700 -16.389999 5.850000 0 255 0
7.903700 -16.160000 -0.181200 255 0 0
7.903300 -16.107500 -3.333300 255 0 0
7.891700 -15.672800 5.960600 0 255 0
7.886000 -15.822000 5.806000 0 255 0
7.930000 -15.715000 6.055000 0 255 0
7.691300 -15.181300 6.258800 0 255 0
7.576000 -15.858000 6.156000 0 255 0
7.594600 -16.173000 -0.589500 255 0 0
7.603300 -16.126699 -3.750000 255 0 0
7.592400 -16.222401 2.558600 255 0 0
8.150000 -16.825001 -6.300000 0 255 255
8.830000 -16.730000 -6.110000 0 255 255
8.820000 -16.410000 5.680000 0 255 0
7.605900 -16.176300 -3.139300 255 0 0
7.590000 -16.220301 0.103900 255 0 0
7.893600 -15.923600 11.710000 0 255 0
7.890000 -16.080700 8.558500 255 0 0
7.680000 -15.817500 -6.150000 0 255 0
7.770000 -15.960000 -6.350000 0 255 0
7.790500 -16.216999 10.058000 255 0 0
7.796200 -16.108801 3.562500 255 0 0
7.796700 -16.158300 6.716700 255 0 0
7.793300 -16.059999 0.168300 255 0 0
7.790300 -16.031401 -2.989100 255 0 0
7.971900 -16.270000 -4.195000 255 0 0
7.983300 -16.082199 8.848900 255 0 0
8.880000 -16.108000 12.162000 0 255 0
7.380000 -15.475000 -6.135000 0 255 255
8.890000 -16.555000 -1.720000 0 255 0
7.450000 -16.500000 -6.340000 0 255 0
8.933300 -16.316700 12.250000 0 255 0
7.080000 -16.010000 -6.220000 0 255 0
8.886700 -16.725599 6.016700 0 255 0
8.690000 -15.180000 16.920000 0 255 0
8.685000 -15.155000 16.860001 0 255 0
8.840000 -15.676700 17.920000 0 255 0
8.880000 -16.730000 15.003300 0 255 0
7.740000 -16.270000 14.550000 0 255 0
7.750000 -16.955000 20.500000 0 255 0
7.756700 -16.366699 8.253300 255 0 0
7.886700 -16.170000 12.303300 255 0 0
7.900000 -16.209999 2.865000 255 0 0
7.885700 -16.113600 9.158600 255 0 0
8.190000 -16.020000 20.900000 255 0 0
8.187500 -15.967500 18.105000 0 255 0
7.890000 -16.629999 19.080000 0 255 0
7.910000 -16.320000 12.490000 0 255 0
8.160000 -16.820000 13.290000 0 255 0
7.535000 -15.760000 -6.325000 0 255 255
7.535000 -16.115000 22.105000 0 255 0
7.830000 -15.130000 21.959999 0 255 0
8.845000 -16.665001 7.210000 0 255 0
7.830000 -16.219999 7.365000 255 0 0
7.850000 -16.040001 -5.300000 255 0 0
7.841400 -16.111401 1.055700 255 0 0
7.895000 -16.080000 14.825000 255 0 0
7.900000 -16.020000 11.555000 255 0 0
7.900000 -15.950000 21.100000 0 255 0
8.360000 -14.940000 19.100000 0 255 0
8.350000 -16.230000 11.350000 0 255 0
6.800000 -16.571699 8.961700 0 255 0
8.885000 -15.480000 22.065001 0 255 0
8.900000 -15.600000 18.480000 0 255 0
8.892500 -16.017500 -6.035000 0 255 255
9.170000 -16.209999 20.740000 0 255 0
9.183300 -16.170000 17.596701 0 255 0
6.840000 -16.940001 -5.870000 0 255 255
7.680000 -16.209999 3.160000 255 0 0
7.670000 -16.170000 0.005000 255 0 0
8.000000 -16.280001 3.800000 255 0 0
7.971500 -16.176201 -2.695400 255 0 0
8.000000 -16.090000 16.879999 255 0 0
7.990800 -16.025801 13.503300 255 0 0
7.996700 -16.156700 16.413300 255 0 0
7.970000 -16.290001 22.730000 0 255 0
7.990000 -15.880000 11.810000 0 255 0
7.980000 -16.125000 1.905000 255 0 0
7.780000 -15.160000 23.166700 0 255 0
7.585000 -16.275000 22.375000 0 255 0
7.560000 -16.160000 -2.930000 255 0 0
7.540000 -16.135000 0.215000 255 0 0
7.840000 -16.200001 -4.740000 255 0 0
7.547500 -16.219999 -5.540000 0 255 0
7.550000 -16.750000 -6.110000 0 255 255
6.885700 -15.361400 -5.884300 0 255 255
8.494200 -15.366700 9.360800 0 255 0
8.480000 -15.280000 14.960000 0 255 0
7.906700 -16.020000 14.063300 255 0 0
7.930000 -16.037500 12.595000 255 0 0
7.937300 -16.074699 9.356700 255 0 0
7.937500 -15.925000 17.660000 0 255 0
7.928300 -16.033300 11.355000 255 0 0
7.938600 -16.076401 8.205700 255 0 0
7.736700 -16.421101 -4.241100 255 0 0
7.746900 -16.369200 -1.093100 255 0 0
7.731700 -16.263300 5.411700 255 0 0
8.940000 -15.870000 17.809999 0 255 0
8.210000 -16.770000 22.469999 0 255 0
7.960000 -15.930000 19.590000 255 0 0
7.920000 -16.040001 13.120000 255 0 0
7.960000 -15.990000 16.350000 255 0 0
7.940000 -16.071100 9.861100 255 0 0
7.570000 -16.309999 -6.340000 0 255 0
6.700000 -15.965000 -6.170000 0 255 255
7.510000 -16.010000 10.270000 0 255 0
8.800000 -16.230000 20.860001 0 255 0
7.880000 -16.030001 -3.775000 255 0 0
7.887900 -15.973600 5.657900 0 255 0
7.887200 -16.073099 -0.643400 255 0 0
7.725000 -16.340000 -1.535000 255 0 0
7.760000 -16.930000 11.115000 0 255 0
7.971400 -16.223301 -4.091000 255 0 0
7.990000 -15.980000 5.300000 0 255 0
7.985000 -16.115000 15.080000 255 0 0
8.002000 -16.062000 11.814000 255 0 0
8.640000 -16.299999 11.940000 0 255 0
7.502500 -16.780001 -6.837500 0 255 255
7.610000 -16.350000 -0.620000 255 0 0
7.604700 -16.313200 -3.787900 255 0 0
8.781600 -16.859501 -1.640000 0 255 0
8.797500 -16.580000 5.930000 0 255 0
7.990000 -15.510000 22.430000 0 255 0
7.610000 -16.725000 8.560000 0 255 0
7.639300 -16.216101 3.661800 255 0 0
7.644600 -16.071800 0.410900 255 0 0
7.636100 -16.116501 -2.838300 255 0 0
8.195000 -15.425000 18.674999 0 255 0
8.197100 -16.627100 -6.585700 0 255 0
6.895000 -15.570000 -6.080000 0 255 255
7.957000 -16.216999 -4.235000 255 0 0
7.945400 -16.171499 -0.993800 255 0 0
7.937100 -16.129999 2.254300 255 0 0
7.541800 -17.278200 -1.004700 0 255 0
7.750000 -16.017500 13.995000 0 255 0
7.720000 -16.150000 4.200000 255 0 0
7.747500 -16.129999 7.465000 255 0 0
8.948800 -15.567500 11.367500 0 255 0
7.460000 -15.940000 18.665001 0 255 0
7.590000 -15.155000 -5.695000 0 255 255
7.744500 -16.067301 -5.394500 255 0 0
7.740300 -16.025600 -1.887500 255 0 0
7.820000 -15.960000 18.139999 0 255 0
7.480000 -15.410000 5.950000 0 255 0
7.638300 -17.170799 -1.142500 0 255 0
6.730000 -15.480000 -5.960000 0 255 255
7.192500 -16.222500 15.057500 0 255 0
7.870000 -16.170000 2.780000 255 0 0
7.880000 -15.630000 6.280000 0 255 0
7.898100 -16.118099 -0.494400 255 0 0
7.888600 -15.568600 15.818600 0 255 0
7.875000 -15.825000 20.365000 0 255 0
7.894300 -16.165701 4.515700 255 0 0
7.886900 -16.121201 1.362300 255 0 0
7.646700 -16.313801 -0.684200 255 0 0
7.632000 -16.270000 2.563000 255 0 0
7.975000 -16.105000 16.045000 255 0 0
7.970000 -16.290001 -0.240000 255 0 0
7.980000 -16.056700 12.810000 255 0 0
7.979400 -16.213900 -3.493400 0 255 0
8.856700 -16.070000 12.060000 0 255 0
8.825000 -15.915000 21.955000 0 255 0
8.050000 -15.700000 19.049999 0 255 0
8.037300 -15.818100 0.123100 0 255 0
8.060000 -15.580000 15.750000 0 255 0
8.105000 -17.155001 13.465000 0 255 0
8.783300 -16.823299 6.006700 0 255 0
8.786000 -16.618000 18.664000 0 255 0
7.980900 -15.912300 0.150600 0 255 0
7.897500 -15.432500 -6.245000 0 255 255
7.895000 -15.067500 23.010000 0 255 0
7.990000 -15.405000 13.170000 0 255 0
7.970000 -15.160000 23.080000 0 255 0
8.025000 -16.434999 8.350000 0 255 0
8.541100 -15.180000 9.406700 0 255 0
8.080000 -15.750000 15.870000 0 255 0
8.070000 -15.920000 13.180000 0 255 0
8.110000 -16.129999 0.500000 0 255 0
8.085000 -16.014999 7.015000 0 255 0
8.941300 -16.072500 12.063800 0 255 0
8.080000 -16.273300 -6.706700 0 255 0
8.096000 -16.110001 9.500000 255 0 0
8.080000 -16.014999 16.017500 255 0 0
8.080000 -16.219999 15.610000 255 0 0
8.110000 -16.280001 5.860000 255 0 0
7.230000 -16.520000 -6.730000 0 255 255
7.186700 -16.070000 18.903299 0 255 0
8.110000 -16.080000 15.300000 255 0 0
8.090000 -16.160000 9.180000 255 0 0
8.080000 -16.115000 18.555000 255 0 0
8.090000 -16.320000 5.930000 0 255 0
8.180000 -15.210000 22.500000 0 255 0
7.855000 -16.160000 0.715000 255 0 0
7.841100 -16.114201 3.955300 255 0 0
7.837900 -16.028601 -2.587900 0 255 0
7.820000 -16.260000 7.200000 255 0 0
7.994300 -15.167900 9.307100 0 255 0
7.990000 -14.990000 21.570000 0 255 0
7.998600 -15.222900 6.265000 0 255 0
7.993100 -15.276200 9.311500 0 255 0
8.120000 -15.860000 16.590000 0 255 0
8.138600 -16.018200 6.814100 0 255 0
8.795000 -15.570000 14.170000 0 255 0
8.800000 -15.920000 11.450000 0 255 0
7.880000 -16.110001 21.250000 0 255 0
7.890000 -16.215000 14.767500 255 0 0
7.892000 -16.080000 4.853000 255 0 0
