1.941700 -5.220000 -2.978300 0 255 255
3.110000 -5.530000 -0.330000 255 0 0
3.081300 -5.557900 2.908700 255 0 0
4.090000 -5.230000 15.145000 0 255 0
2.573300 -6.460000 25.716700 0 255 0
3.897500 -4.517500 -2.937500 0 255 255
2.790000 -5.090000 25.580000 0 255 0
2.792000 -5.026000 -2.942000 0 255 0
2.852500 -6.072500 -3.250000 0 255 255
2.570000 -6.370000 9.480000 0 255 0
3.900000 -5.175000 -3.090000 0 255 255
2.000000 -5.360000 -2.510000 0 255 255
2.000000 -5.770000 23.590000 0 255 0
2.392000 -4.616000 -2.684000 0 255 255
2.720000 -6.040000 23.360001 0 255 0
3.130000 -5.507700 -2.835400 0 255 0
2.138000 -5.108000 9.754000 0 255 0
3.860000 -6.210000 21.150000 0 255 0
2.735000 -6.465000 15.110000 0 255 0
3.305000 -6.010000 18.504999 0 255 0
3.820000 -6.110000 20.910000 0 255 0
2.690000 -5.000000 25.830000 0 255 0
2.685000 -4.980000 9.600000 0 255 0
3.140000 -6.070000 26.013300 0 255 0
3.910000 -6.220000 21.969999 0 255 0
3.492000 -5.166000 20.242001 0 255 0
3.470000 -4.870000 13.530000 0 255 0
3.830000 -5.112000 12.462000 0 255 0
2.560000 -5.910000 20.139999 0 255 0
3.380000 -5.720000 12.550000 0 255 0
3.380000 -5.900000 25.600000 0 255 0
3.072500 -5.612500 18.170000 255 0 0
2.940000 -5.930000 -3.237500 0 255 255
3.400000 -4.220000 -2.845000 0 255 255
2.750000 -5.570000 16.059999 255 0 0
3.730800 -5.818500 14.123800 0 255 0
2.090000 -5.210000 7.355000 0 255 0
3.132900 -5.510000 7.614300 255 0 0
3.120000 -5.600000 1.290000 255 0 0
3.700000 -6.140000 -3.230000 0 255 255
3.248000 -5.086000 13.602000 0 255 0
3.222500 -5.320000 -2.290000 255 0 0
2.688300 -5.961700 -3.240000 0 255 255
2.677500 -6.162500 9.807500 0 255 0
2.200000 -5.980000 25.980000 0 255 0
2.550000 -6.360000 15.050000 0 255 0
3.490000 -5.822500 17.462500 0 255 0
2.590000 -5.020000 9.740000 0 255 0
3.496000 -6.018000 17.268000 0 255 0
2.510000 -6.210000 15.000000 0 255 0
3.392500 -5.772500 14.550000 0 255 0
2.690000 -5.360000 26.000000 0 255 0
2.346200 -5.373800 -2.936300 0 255 255
2.340000 -5.600000 6.850000 0 255 0
2.730000 -5.300000 26.209999 0 255 0
2.738600 -5.028600 20.077101 0 255 0
2.170000 -5.355000 4.265000 0 255 0
3.781400 -5.771400 17.209999 0 255 0
3.990000 -5.615000 17.155001 0 255 0
3.990800 -5.569200 14.013100 0 255 0
3.353300 -5.416700 18.506701 0 255 0
3.360000 -5.530000 12.230000 0 255 0
3.345000 -6.220000 17.160000 0 255 0
2.535000 -5.885000 25.945000 0 255 0
2.560000 -6.130000 9.660000 0 255 0
3.875000 -6.230000 21.730000 0 255 0
3.904000 -5.754000 13.902000 0 255 0
3.883200 -6.022700 17.212700 0 255 0
2.150000 -5.066700 21.059999 0 255 0
3.590000 -5.003300 22.510000 0 255 0
3.733300 -4.650000 -2.903300 0 255 255
3.537000 -5.823000 17.318001 0 255 0
3.950000 -6.040000 21.290001 0 255 0
3.472500 -5.280000 -2.600000 0 255 0
3.732900 -6.314300 -3.082900 0 255 255
3.120000 -5.730000 14.600000 0 255 0
3.140200 -5.522200 1.560200 255 0 0
3.134500 -5.555000 -1.589100 255 0 0
2.920000 -5.700000 21.190001 255 0 0
2.937500 -5.828800 14.702500 0 255 0
3.591400 -6.021400 -2.485700 0 255 255
1.930000 -5.360000 -2.626700 0 255 255
3.070000 -6.210000 17.639999 0 255 0
3.020000 -5.080000 22.219999 0 255 0
2.755000 -5.070000 9.655000 0 255 0
2.050000 -6.065600 -2.586700 0 255 255
3.444000 -6.372000 24.250000 0 255 0
2.946700 -5.106700 -3.046700 0 255 0
2.540000 -6.303300 25.906700 0 255 0
4.027500 -5.915000 13.770000 0 255 0
2.660000 -5.310000 9.530000 0 255 0
2.835000 -5.660000 17.270000 255 0 0
2.830000 -5.770000 23.770000 255 0 0
2.960000 -6.610000 22.000000 0 255 0
2.290000 -4.800000 9.810000 0 255 0
3.436700 -5.628300 -3.185000 0 255 0
3.035000 -5.630000 12.145000 255 0 0
3.060000 -5.540000 5.880000 255 0 0
3.027800 -5.653300 9.014400 255 0 0
3.040600 -5.570200 2.709000 255 0 0
3.397500 -5.218800 15.063800 0 255 0
3.888900 -4.465600 -2.935600 0 255 255
3.175000 -6.775000 21.315001 0 255 0
3.845000 -5.265800 17.715799 0 255 0
3.340000 -4.976000 20.164000 0 255 0
2.740000 -6.575000 23.709999 0 255 0
3.120000 -5.650000 18.129999 0 255 0
2.260000 -6.170000 20.100000 0 255 0
3.940000 -6.069300 17.309999 0 255 0
2.743300 -5.690000 23.266701 255 0 0
2.751700 -5.461700 10.606700 255 0 0
2.750000 -5.513300 7.253300 255 0 0
2.746000 -5.728000 19.912001 255 0 0
2.555000 -5.880000 25.895000 0 255 0
2.560000 -6.110000 9.690000 0 255 0
4.146200 -5.480800 12.255400 0 255 0
3.144000 -6.612000 21.302000 0 255 0
1.895000 -4.915000 -2.160000 0 255 255
1.893300 -4.860000 7.408300 0 255 0
2.410000 -5.560000 25.469999 0 255 0
2.540000 -6.075000 13.272500 0 255 0
3.848000 -6.370000 20.712000 0 255 0
3.841400 -6.214300 17.411400 0 255 0
3.590000 -5.880000 14.075000 0 255 0
3.578300 -5.961700 20.561701 0 255 0
3.595000 -5.923300 17.308300 0 255 0
3.300000 -5.650000 18.209999 0 255 0
2.683300 -6.306700 15.146700 0 255 0
2.748200 -5.273600 18.507299 0 255 0
2.860000 -5.230000 -2.970000 0 255 0
3.680000 -6.190000 20.260000 0 255 0
3.680000 -6.330000 17.280001 0 255 0
3.847500 -6.169200 17.215799 0 255 0
3.030000 -4.685000 22.870001 0 255 0
3.286700 -5.716700 25.503300 0 255 0
3.245000 -5.685000 12.555000 0 255 0
3.630000 -5.790000 14.580000 0 255 0
2.383300 -4.720000 -2.846700 0 255 255
3.484000 -5.622700 20.122000 0 255 0
2.310000 -6.200000 20.129999 0 255 0
2.196700 -5.463300 -2.786700 0 255 255
4.000000 -5.500000 14.880000 0 255 0
2.950000 -6.380000 25.900000 0 255 0
2.850000 -6.160000 13.580000 0 255 0
2.852500 -5.552500 1.315000 255 0 0
3.080000 -6.560000 14.940000 0 255 0
3.389000 -6.171000 17.410000 0 255 0
3.150000 -6.440000 13.540000 0 255 0
2.040000 -6.172000 20.309999 0 255 0
3.610000 -5.180000 -2.990000 0 255 0
2.670000 -5.910000 14.800000 0 255 0
3.360000 -5.810000 14.920000 0 255 0
3.980000 -5.885000 14.340000 0 255 0
3.570000 -5.630000 -3.150000 0 255 0
3.146100 -5.529200 -1.339700 0 255 0
2.860000 -5.550000 0.370000 255 0 0
2.860000 -5.620000 -2.910000 0 255 0
2.845000 -6.227500 9.755000 0 255 0
3.290000 -4.990000 22.280001 0 255 0
3.280000 -5.030000 25.510000 0 255 0
3.300000 -5.380000 -3.060000 0 255 0
3.290000 -5.850000 -3.140000 0 255 0
2.130000 -5.120000 -2.600000 0 255 255
2.290000 -5.370000 26.049999 0 255 0
2.305000 -5.720000 -3.170000 0 255 255
3.930000 -5.900000 21.930000 0 255 0
2.290000 -5.000000 25.340000 0 255 0
3.750000 -5.725000 -2.570000 0 255 255
3.100000 -5.487500 -2.490000 255 0 0
3.082500 -5.027500 20.455000 0 255 0
3.810000 -6.040000 20.530001 0 255 0
3.785700 -5.971400 17.271400 0 255 0
3.256700 -4.200000 -2.596700 0 255 255
3.696700 -5.713300 18.763300 0 255 0
4.050000 -5.570000 14.210000 0 255 0
4.042500 -5.725000 17.258301 0 255 0
2.845000 -5.930000 14.855000 0 255 0
3.750000 -5.325000 12.640000 0 255 0
3.430000 -5.410000 20.120001 0 255 0
3.442500 -5.167500 -2.842500 0 255 0
3.560000 -6.110000 24.160000 0 255 0
3.543700 -5.816300 18.410000 0 255 0
2.320000 -5.030000 7.340000 0 255 0
3.885000 -5.785000 13.750000 0 255 0
3.887800 -6.026700 17.362200 0 255 0
2.196400 -5.769100 14.814500 0 255 0
2.850000 -5.020000 20.809999 0 255 0
3.530000 -5.810000 20.559999 0 255 0
3.533300 -5.876700 17.316700 0 255 0
3.987000 -5.768000 17.410000 0 255 0
2.450000 -5.460000 9.650000 0 255 0
4.082900 -5.162900 14.247100 0 255 0
2.830000 -4.920000 20.620001 0 255 0
3.070000 -4.530000 -2.650000 0 255 255
3.820000 -6.030000 21.629999 0 255 0
3.820000 -5.240000 12.370000 0 255 0
3.340000 -6.160000 25.955000 0 255 0
4.073300 -5.760000 13.866700 0 255 0
3.297500 -5.327500 20.120001 0 255 0
2.485000 -6.005000 26.120001 0 255 0
3.894000 -5.626000 17.063999 0 255 0
3.275000 -5.775000 -2.595000 0 255 0
3.184300 -6.370000 21.221399 0 255 0
3.595000 -5.620000 17.400000 0 255 0
2.630000 -5.440000 18.660000 0 255 0
3.890000 -5.760000 12.570000 0 255 0
3.100000 -5.527000 4.365500 255 0 0
3.084400 -5.564400 7.609400 255 0 0
2.870000 -5.870000 9.530000 0 255 0
3.193300 -6.723300 20.956699 0 255 0
2.390000 -4.970000 25.540001 0 255 0
3.400000 -4.870000 12.820000 0 255 0
2.750000 -6.240000 25.650000 0 255 0
3.272500 -5.720000 -2.780000 0 255 0
2.780000 -4.740000 20.330000 0 255 0
3.610000 -6.370000 24.440001 0 255 0
2.182500 -5.625000 -2.875000 0 255 255
3.680000 -4.310000 -2.560000 0 255 255
2.742500 -5.800000 21.062500 255 0 0
2.390000 -5.740000 -3.190000 0 255 255
2.387100 -5.504300 9.460000 0 255 0
3.246700 -5.823300 -3.140000 0 255 0
2.160000 -5.530000 3.465000 0 255 0
2.148800 -5.621300 -2.835000 0 255 255
2.730000 -5.500000 26.139999 0 255 0
1.870000 -6.270000 22.559999 0 255 0
2.230000 -5.763300 -2.906700 0 255 255
1.930000 -5.860000 4.705000 0 255 0
3.210000 -5.960000 13.660000 0 255 0
2.350000 -5.600000 25.549999 0 255 0
2.640000 -5.540000 10.640000 0 255 0
2.437500 -4.818700 -2.896300 0 255 255
2.650000 -6.072000 9.750000 0 255 0
2.650000 -6.150000 -2.960000 0 255 255
2.450000 -4.710000 -2.920000 0 255 255
3.550000 -5.920000 14.100000 0 255 0
3.530000 -5.872000 17.448000 0 255 0
3.450000 -4.880000 12.470000 0 255 0
3.436700 -4.910000 22.216700 0 255 0
2.660000 -6.113300 -2.990000 0 255 255
3.580000 -5.760000 20.158899 0 255 0
3.610000 -5.720000 17.010000 0 255 0
2.680000 -5.700000 -2.940000 0 255 255
2.684800 -5.971000 13.269500 0 255 0
2.606000 -5.664000 23.398001 0 255 0
3.240000 -5.572500 -2.650000 0 255 0
3.280000 -5.813300 18.520000 0 255 0
3.340000 -4.410000 -2.460000 0 255 255
2.520000 -5.590000 25.920000 0 255 0
2.535000 -5.080000 14.850000 0 255 0
3.380000 -5.700000 -3.120000 0 255 0
3.387500 -6.022500 -3.402500 0 255 255
3.331700 -4.733300 22.713301 0 255 0
3.123300 -5.570000 9.463300 255 0 0
3.141700 -5.725000 25.378300 0 255 0
3.030000 -6.310000 -3.160000 0 255 255
3.830000 -6.010000 21.680000 0 255 0
2.088500 -5.718500 15.051500 0 255 0
2.350000 -5.515000 -2.895000 0 255 255
3.740000 -6.187500 20.462500 0 255 0
3.750000 -6.206700 17.209999 0 255 0
3.320000 -5.350000 -0.910000 0 255 0
3.547500 -6.567500 20.967501 0 255 0
3.330900 -5.016400 21.965500 0 255 0
2.983300 -5.336700 23.856701 0 255 0
2.190000 -5.115000 7.360000 0 255 0
2.186700 -4.966700 -2.530000 0 255 255
2.010000 -5.180000 7.100000 0 255 0
3.440000 -5.564300 21.158600 0 255 0
3.442000 -5.466000 14.670000 0 255 0
3.885000 -6.115000 21.157499 0 255 0
3.590000 -6.016700 18.603300 0 255 0
3.090000 -6.210000 26.120001 0 255 0
3.510000 -6.020000 18.469999 0 255 0
2.832000 -6.473000 -3.094000 0 255 255
2.425000 -6.060000 26.065001 0 255 0
3.120000 -5.520000 10.260000 255 0 0
3.120000 -5.605000 3.765000 255 0 0
3.133300 -5.563300 7.106700 255 0 0
3.138000 -6.120000 -3.192000 0 255 255
2.670000 -6.400000 25.950001 0 255 0
2.690000 -6.350000 9.740000 0 255 0
2.480000 -5.600000 10.840000 0 255 0
2.330000 -5.870000 13.380000 0 255 0
1.990000 -6.415000 25.254999 0 255 0
2.960000 -6.035000 9.770000 0 255 0
4.060000 -4.800000 -2.840000 0 255 255
1.970000 -5.550000 4.690000 0 255 0
3.346700 -5.560000 23.496700 0 255 0
3.800000 -6.263300 20.503300 0 255 0
3.797800 -6.223300 17.260000 0 255 0
3.670000 -5.900000 18.559999 0 255 0
2.240000 -5.503300 18.516701 0 255 0
3.280000 -5.360000 0.230000 255 0 0
3.303300 -5.523300 -3.156700 0 255 0
2.643300 -5.780000 23.346701 0 255 0
3.690700 -6.070000 20.550699 0 255 0
1.938700 -5.622500 -2.557500 0 255 255
2.040000 -5.261700 -2.588300 0 255 255
2.788000 -6.316000 9.746000 0 255 0
2.796700 -6.526700 -2.900000 0 255 255
3.470000 -5.610000 20.629999 0 255 0
3.490000 -5.780000 17.267500 0 255 0
3.098000 -5.534000 -2.986000 0 255 0
3.086800 -5.555200 0.161400 255 0 0
3.892000 -5.366000 14.956000 0 255 0
3.080000 -4.580000 13.475000 0 255 0
2.970000 -5.670000 15.360000 255 0 0
2.980000 -5.780000 21.700001 255 0 0
2.996700 -5.614400 12.203300 255 0 0
2.400000 -5.780000 14.850000 0 255 0
2.260000 -6.220000 -3.040000 0 255 255
3.550000 -6.180000 21.930000 0 255 0
3.683300 -6.053300 21.853300 0 255 0
2.780000 -4.590000 13.470000 0 255 0
2.410000 -4.900000 -2.840000 0 255 255
2.395000 -5.720000 -3.120000 0 255 255
4.125000 -5.685000 12.810000 0 255 0
3.640000 -5.820000 -2.900000 0 255 255
3.290000 -4.690000 22.620001 0 255 0
3.340000 -6.383300 21.016701 0 255 0
3.298000 -5.772000 18.606001 0 255 0
3.210000 -6.160000 22.209999 0 255 0
3.190000 -5.328000 -3.084000 0 255 0
3.190000 -4.940000 22.209999 0 255 0
3.750000 -5.706700 16.965000 0 255 0
3.260000 -6.030000 9.400000 0 255 0
2.170000 -5.160000 7.370000 0 255 0
2.175000 -5.030000 -2.455000 0 255 255
3.210000 -4.660000 22.059999 0 255 0
2.750000 -5.520000 7.780000 255 0 0
2.720000 -5.650000 23.549999 255 0 0
2.760000 -5.460000 10.930000 255 0 0
3.630000 -5.705000 17.110001 0 255 0
3.633300 -5.680000 20.350000 0 255 0
2.530000 -5.870000 26.004999 0 255 0
2.560000 -6.115000 9.830000 0 255 0
2.600000 -6.420000 15.190000 0 255 0
2.720000 -4.940000 20.320000 0 255 0
2.757100 -4.630000 13.750000 0 255 0
2.741300 -5.628800 9.558700 0 255 0
2.746700 -5.966700 13.450000 0 255 0
3.345000 -6.280000 17.129999 0 255 0
3.160000 -6.640000 20.969999 0 255 0
2.640000 -5.100000 20.190001 0 255 0
1.980000 -5.380000 -2.740000 0 255 255
2.745000 -5.425000 12.452500 255 0 0
2.744000 -5.470000 9.318000 255 0 0
2.755000 -5.675000 21.950001 255 0 0
1.970000 -5.820000 -2.690000 0 255 255
2.430000 -5.440000 15.140000 0 255 0
2.100000 -5.765000 26.010000 0 255 0
3.793700 -4.470000 -2.790000 0 255 255
3.286700 -6.370000 -3.207800 0 255 255
2.470000 -4.900000 -2.860000 0 255 0
3.742000 -6.426000 22.910000 0 255 0
2.510000 -6.026700 23.896700 0 255 0
2.585000 -4.755000 23.900000 0 255 0
3.550000 -5.910000 20.160000 0 255 0
2.491700 -6.471700 -3.030000 0 255 255
2.820000 -6.570000 25.709999 0 255 0
4.003300 -5.715000 -3.356700 0 255 255
3.590000 -6.058000 -3.044000 0 255 255
3.360000 -5.770000 18.160000 0 255 0
1.970000 -5.820000 -2.750000 0 255 255
3.755000 -5.227500 -3.042500 0 255 255
2.432500 -6.140000 26.022499 0 255 0
3.130000 -6.050000 17.370001 0 255 0
3.790000 -6.160000 -3.210000 0 255 255
2.780000 -6.036700 23.416700 0 255 0
2.760000 -5.630000 25.350000 0 255 0
2.750000 -5.510000 5.990000 255 0 0
2.742500 -5.422500 12.302500 255 0 0
2.740000 -5.455000 9.080000 255 0 0
2.748000 -5.676000 22.101999 255 0 0
2.200000 -5.140000 9.410000 0 255 0
3.300000 -5.530000 17.379999 0 255 0
3.470000 -6.120000 25.969999 0 255 0
2.095000 -5.770000 -2.935000 0 255 255
2.080000 -5.115000 -2.605000 0 255 255
2.880000 -4.860000 13.700000 0 255 0
3.270000 -4.780000 13.260000 0 255 0
3.283300 -5.103300 -2.946700 0 255 0
2.410000 -6.000000 -3.150000 0 255 255
2.393300 -5.668300 25.518299 0 255 0
2.810000 -5.090000 25.650000 0 255 0
3.810000 -4.990000 12.680000 0 255 0
3.800000 -5.140000 22.180000 0 255 0
3.500000 -6.270000 22.299999 0 255 0
3.445700 -4.861400 22.914301 0 255 0
2.246000 -4.712000 20.820000 0 255 0
3.770000 -5.390000 17.690001 0 255 0
2.770000 -4.970000 20.330000 0 255 0
3.210000 -5.910000 20.280001 0 255 0
3.184000 -5.422000 12.300000 255 0 0
3.183600 -6.567300 21.113600 0 255 0
3.100000 -6.576000 21.313999 0 255 0
3.588600 -6.468600 25.154301 0 255 0
2.600000 -4.263300 -2.686700 0 255 255
2.498600 -6.160000 13.400000 0 255 0
3.270000 -5.780000 18.330000 0 255 0
2.130000 -6.073300 22.396700 0 255 0
3.480000 -5.665000 21.125000 0 255 0
3.500000 -5.630000 17.879999 0 255 0
2.960000 -5.740000 20.379999 255 0 0
3.099500 -5.536400 -0.036400 255 0 0
3.079400 -5.563800 3.209400 255 0 0
1.885000 -5.530000 -3.045000 0 255 255
3.430000 -5.425000 18.600000 0 255 0
3.630000 -6.410000 24.450001 0 255 0
3.160000 -6.730000 18.959999 0 255 0
3.137500 -5.875000 -2.937500 0 255 0
2.353300 -5.206700 20.216700 0 255 0
3.725000 -4.775000 -2.960000 0 255 255
1.870000 -5.590000 -2.870000 0 255 255
2.745000 -5.465000 5.850000 255 0 0
2.753300 -5.423300 9.103300 255 0 0
2.491700 -6.475000 -2.875000 0 255 255
3.190000 -5.040000 15.050000 0 255 0
3.180000 -5.186000 -0.346000 255 0 0
2.390000 -5.880000 26.000000 0 255 0
3.630000 -6.280000 23.120001 0 255 0
3.633300 -5.876700 -2.980000 0 255 255
2.760000 -5.635000 22.100000 255 0 0
2.750000 -5.490000 5.920000 255 0 0
2.760000 -5.420000 9.055000 255 0 0
3.520000 -5.530000 18.709999 0 255 0
3.120000 -4.640000 13.780000 0 255 0
2.760000 -5.330000 12.280000 255 0 0
3.550000 -5.320000 21.959999 0 255 0
3.970000 -5.370000 14.650000 0 255 0
2.360000 -4.580000 9.560000 0 255 0
2.340000 -5.166700 -2.676700 0 255 255
3.681200 -6.071300 21.812500 0 255 0
2.050000 -5.586700 -2.533300 0 255 255
3.042000 -5.604000 0.018000 0 255 0
3.882900 -5.715700 21.554300 0 255 0
3.180000 -4.650000 22.000000 0 255 0
3.195000 -6.677500 21.305000 0 255 0
3.293300 -4.806700 13.660000 0 255 0
3.620000 -6.160000 21.860001 0 255 0
2.750000 -6.128000 -3.249000 0 255 255
3.040000 -5.640000 -0.730000 255 0 0
2.290000 -5.330000 25.879999 0 255 0
2.850000 -5.710000 20.565001 255 0 0
2.853300 -5.676700 23.803301 255 0 0
2.730000 -5.520000 14.500000 255 0 0
2.710000 -5.560000 16.879999 255 0 0
2.710000 -5.500000 13.700000 255 0 0
2.700000 -5.472500 23.365000 0 255 0
2.685000 -5.266000 14.712000 0 255 0
2.650000 -4.820000 20.850000 0 255 0
2.960000 -5.575000 11.110000 255 0 0
2.934300 -5.625700 7.955700 255 0 0
2.937300 -5.484500 17.613600 255 0 0
3.779100 -6.067300 17.167299 0 255 0
3.290800 -5.172900 14.763300 0 255 0
2.970000 -5.340000 22.139999 0 255 0
3.810000 -6.100000 18.730000 0 255 0
2.620000 -5.375000 26.215000 0 255 0
3.486000 -5.685000 -2.676000 0 255 0
3.133800 -6.418700 -3.235000 0 255 255
3.380000 -5.760000 18.510000 0 255 0
2.770000 -4.630000 -2.530000 0 255 255
3.097500 -6.627500 21.344999 0 255 0
2.270000 -5.200000 4.280000 0 255 0
2.310000 -4.900000 -2.500000 0 255 255
2.720000 -6.110000 -2.690000 0 255 255
2.760000 -6.520000 21.830000 0 255 0
1.920000 -5.480000 3.490000 0 255 0
2.150000 -5.460000 26.030001 0 255 0
3.420000 -4.950000 18.480000 0 255 0
3.130000 -5.565000 3.005000 255 0 0
3.128200 -5.514500 6.156400 255 0 0
2.690000 -4.628600 -2.847100 0 255 255
3.280000 -5.810000 25.469999 0 255 0
3.450000 -5.020000 12.300000 0 255 0
3.291400 -5.718600 -2.750000 0 255 0
2.950000 -5.750000 14.820000 0 255 0
2.942500 -5.715000 17.860001 255 0 0
2.940000 -5.680000 21.129999 0 255 0
3.530000 -5.707500 20.125000 0 255 0
3.896000 -6.170000 21.056000 0 255 0
2.696700 -5.526700 14.810000 255 0 0
2.702500 -5.520000 9.480000 255 0 0
3.845000 -5.515000 -3.245000 0 255 255
3.589300 -5.167100 22.059999 0 255 0
3.820000 -6.162000 -3.190000 0 255 255
3.873300 -5.370000 -2.956700 0 255 255
3.520000 -6.330000 25.049999 0 255 0
2.783300 -5.063300 25.620001 0 255 0
3.430000 -5.680000 -3.270000 0 255 0
3.576700 -6.606700 21.093300 0 255 0
2.870000 -5.650000 13.880000 255 0 0
2.900000 -5.720000 17.115000 255 0 0
2.876000 -5.576000 20.608000 255 0 0
2.350000 -5.010000 25.740000 0 255 0
3.660000 -5.615000 -2.990000 0 255 255
2.945000 -5.725000 18.820000 255 0 0
2.930000 -5.616700 25.373301 0 255 0
2.935000 -5.673300 21.959999 255 0 0
1.795000 -5.575000 21.577499 0 255 0
2.251700 -5.731700 14.776700 0 255 0
3.240000 -5.718000 17.658001 0 255 0
3.352500 -6.672500 20.969999 0 255 0
3.400000 -5.730000 18.379999 0 255 0
3.390000 -5.615000 11.855000 0 255 0
3.410000 -5.630000 12.650000 0 255 0
2.660000 -4.510000 20.650000 0 255 0
2.150000 -4.540000 -2.820000 0 255 255
2.830000 -5.860000 -2.540000 0 255 255
3.840000 -5.590000 17.139999 0 255 0
3.850000 -5.670000 23.674999 0 255 0
3.860000 -5.430000 14.180000 0 255 0
3.680000 -5.720000 12.280000 0 255 0
2.396700 -5.620000 25.860001 0 255 0
3.370000 -6.090000 13.320000 0 255 0
3.650000 -5.800000 14.510000 0 255 0
3.480000 -5.000000 22.770000 0 255 0
3.740000 -5.190000 14.150000 0 255 0
3.720000 -5.080000 20.480000 0 255 0
3.537500 -5.975000 -2.540000 0 255 255
3.035000 -4.680000 22.549999 0 255 0
3.384000 -5.616000 -2.836000 0 255 0
2.240000 -5.165000 9.810000 0 255 0
3.530000 -5.620000 -3.170000 0 255 0
2.240000 -6.100000 16.775000 0 255 0
3.993300 -4.563300 -2.826700 0 255 255
3.138000 -5.414000 20.158001 0 255 0
3.133800 -5.279200 4.253800 255 0 0
3.085000 -4.985000 22.915001 0 255 0
3.338000 -4.714000 23.048000 0 255 0
2.080000 -6.220000 17.080000 0 255 0
2.895000 -4.963300 22.263300 0 255 0
2.544000 -5.474000 25.809999 0 255 0
2.730000 -6.150000 9.790000 0 255 0
2.744000 -5.962000 -3.244000 0 255 255
3.390000 -5.565000 26.115000 0 255 0
3.240000 -5.740000 17.360001 0 255 0
3.433300 -5.078300 -3.125000 0 255 0
3.440000 -5.465000 22.150000 0 255 0
2.630000 -4.720000 23.760000 0 255 0
2.710000 -5.170000 20.065001 0 255 0
3.270000 -5.910000 9.780000 0 255 0
3.270000 -6.100000 -2.910000 0 255 255
2.480000 -5.760000 25.959999 0 255 0
3.290000 -4.640000 21.940001 0 255 0
3.341100 -5.872200 20.254999 0 255 0
2.040000 -4.910000 9.860000 0 255 0
2.200000 -6.310000 -2.680000 0 255 255
2.950000 -5.760000 17.400000 0 255 0
3.233300 -5.626700 21.203300 0 255 0
3.480000 -6.460000 22.980000 0 255 0
4.080000 -5.315000 17.740000 0 255 0
3.037100 -5.168600 21.965700 0 255 0
3.992500 -5.971200 14.352500 0 255 0
3.970000 -6.060000 20.860001 0 255 0
3.770000 -6.060000 21.790001 0 255 0
3.950000 -6.050000 12.740000 0 255 0
3.930000 -5.930000 22.209999 0 255 0
3.547500 -5.622500 17.059999 0 255 0
3.536900 -5.966900 20.251900 0 255 0
3.055000 -6.375000 14.715000 0 255 0
3.382900 -5.765700 25.548599 0 255 0
4.085000 -5.667500 12.405000 0 255 0
3.342900 -5.877100 18.507099 0 255 0
3.247500 -5.117500 15.002500 0 255 0
2.510000 -5.650000 14.580000 0 255 0
2.590000 -5.130000 21.070000 0 255 0
3.040000 -6.120000 26.049999 0 255 0
3.036400 -5.913600 13.406400 0 255 0
3.990000 -6.014300 13.895700 0 255 0
2.650000 -6.460000 25.660000 0 255 0
2.420000 -4.690000 9.820000 0 255 0
2.640000 -5.916700 -3.226700 0 255 255
2.640800 -6.124200 9.805800 0 255 0
2.040000 -4.560000 -2.610000 0 255 255
2.046000 -5.154000 9.670000 0 255 0
2.556700 -6.216700 15.013300 0 255 0
3.090000 -5.090000 -2.690000 0 255 0
2.836700 -6.275600 15.011100 0 255 0
3.585000 -6.225000 21.860001 0 255 0
3.242500 -5.372500 22.070000 0 255 0
1.960000 -5.940000 18.809999 0 255 0
3.540000 -5.022000 20.266001 0 255 0
3.730000 -5.355000 15.070000 0 255 0
2.930000 -5.705000 24.815001 255 0 0
2.945000 -5.827500 18.306299 0 255 0
3.090000 -4.922200 20.404400 0 255 0
3.490000 -5.630000 18.700001 0 255 0
3.500000 -5.730000 12.400000 0 255 0
3.297500 -5.315000 12.560000 0 255 0
2.793700 -6.258800 14.813700 0 255 0
2.847500 -5.528800 18.661301 255 0 0
2.685000 -5.030000 9.540000 0 255 0
2.083300 -5.113300 7.410000 0 255 0
3.720000 -5.650000 20.719999 0 255 0
3.736400 -5.721600 17.550400 0 255 0
2.201200 -5.022500 25.205000 0 255 0
3.295000 -5.517500 12.557500 0 255 0
3.680000 -6.330000 22.879999 0 255 0
2.410000 -4.620000 -2.870000 0 255 255
3.948800 -5.311300 15.015000 0 255 0
2.490000 -5.526700 26.103300 0 255 0
2.590000 -5.290000 26.090000 0 255 0
2.485000 -5.865000 -3.130000 0 255 255
3.040000 -4.576700 20.496700 0 255 0
3.460000 -5.030000 25.540001 0 255 0
3.246000 -5.625000 18.466999 0 255 0
4.040000 -4.853300 -2.896700 0 255 255
3.270000 -4.720000 21.110001 0 255 0
2.595000 -5.915000 22.025000 0 255 0
3.450000 -5.060000 12.150000 0 255 0
4.080000 -5.810000 12.460000 0 255 0
3.236000 -4.680000 -2.944000 0 255 255
2.240000 -5.190000 25.139999 0 255 0
2.530000 -5.910000 25.889999 0 255 0
3.790000 -5.550000 12.200000 0 255 0
3.770000 -5.650000 18.500000 0 255 0
3.190000 -5.360000 20.379999 0 255 0
3.680000 -5.920000 18.520000 0 255 0
2.270000 -6.300000 -2.580000 0 255 255
2.880000 -4.940000 25.540001 0 255 0
2.890000 -4.860000 22.389999 0 255 0
3.705000 -6.465000 23.010000 0 255 0
3.840000 -5.390000 12.490000 0 255 0
3.126700 -5.516700 18.260000 0 255 0
3.580000 -5.270000 14.816700 0 255 0
3.582200 -5.608900 11.911100 0 255 0
2.955000 -5.965000 9.700000 0 255 0
3.700000 -5.720000 21.980000 0 255 0
3.691700 -5.668300 18.721701 0 255 0
3.690000 -5.780000 12.420000 0 255 0
2.740000 -5.720000 20.455000 255 0 0
2.755000 -5.520000 7.810000 255 0 0
2.747500 -5.465000 10.865000 255 0 0
3.620000 -4.300000 -2.360000 0 255 255
2.041400 -5.758600 15.060000 0 255 0
2.544300 -4.778600 9.462900 0 255 0
2.892500 -5.218800 22.156200 0 255 0
2.590000 -4.950000 21.139999 0 255 0
3.300000 -6.256700 17.453300 0 255 0
2.800000 -5.530000 19.330000 255 0 0
2.790000 -5.790000 9.606700 0 255 0
2.794000 -5.462000 16.164000 255 0 0
2.746700 -5.516700 9.706700 255 0 0
2.753300 -5.468300 12.963300 255 0 0
2.740000 -5.590000 9.730000 255 0 0
2.760000 -5.700000 25.500000 0 255 0
2.750000 -5.756700 22.353300 255 0 0
2.752500 -5.520000 12.866200 255 0 0
2.351100 -5.517800 15.048900 0 255 0
2.740000 -5.470000 7.680000 255 0 0
2.760000 -5.600000 23.570000 255 0 0
3.070000 -5.610000 3.980000 255 0 0
3.080000 -5.710000 23.500000 0 255 0
3.084400 -5.522200 10.466700 255 0 0
4.093300 -5.576700 -3.183300 0 255 255
2.460000 -5.790000 13.510000 0 255 0
2.450000 -5.640000 23.389999 0 255 0
2.430000 -5.855000 20.004999 0 255 0
3.180000 -5.750000 -2.700000 0 255 0
3.640000 -5.860000 20.995001 0 255 0
3.893300 -6.110000 21.313299 0 255 0
3.740000 -5.570000 -2.990000 0 255 255
3.350000 -5.465000 25.969999 0 255 0
2.820000 -6.750000 23.730000 0 255 0
2.690000 -5.720000 22.070000 255 0 0
3.795000 -4.455000 -2.997500 0 255 255
2.746700 -6.176700 23.410000 0 255 0
2.840000 -5.570000 -2.990000 0 255 0
2.833300 -5.910000 13.443300 0 255 0
3.350000 -4.710000 20.540001 0 255 0
2.543300 -4.880000 -2.733300 0 255 0
3.890000 -5.620000 13.990000 0 255 0
3.886000 -5.674000 17.257999 0 255 0
3.345000 -5.550000 18.590000 0 255 0
3.588500 -4.981500 12.461500 0 255 0
3.398300 -4.763300 23.003300 0 255 0
3.380000 -4.640000 13.580000 0 255 0
3.340000 -4.788000 13.372000 0 255 0
2.940000 -5.276700 20.126699 0 255 0
2.920000 -5.400000 10.370000 255 0 0
2.936700 -5.376700 13.606700 255 0 0
3.141800 -5.915900 14.705300 0 255 0
3.982500 -5.572500 17.552500 0 255 0
3.030000 -5.440000 -0.820000 255 0 0
3.041500 -5.074000 22.011499 0 255 0
2.445000 -5.915000 -3.185000 0 255 255
3.286700 -5.870000 -3.250000 0 255 0
2.343600 -5.778200 -2.828200 0 255 255
3.430000 -5.660000 -3.150000 0 255 0
3.670000 -5.300000 14.120000 0 255 0
3.830000 -5.926700 12.700000 0 255 0
1.840000 -5.810000 15.100000 0 255 0
2.890000 -4.950000 -2.943300 0 255 0
2.220000 -4.790000 7.290000 0 255 0
2.840000 -6.210000 -3.120000 0 255 255
4.085000 -5.705000 12.845000 0 255 0
3.635000 -5.090000 14.970000 0 255 0
4.045000 -5.710000 12.845000 0 255 0
2.970000 -4.620000 13.740000 0 255 0
3.490000 -5.290000 12.600000 0 255 0
2.630000 -5.480000 4.300000 0 255 0
2.643300 -5.573300 10.823300 0 255 0
2.290000 -5.340000 25.990000 0 255 0
3.546700 -5.180000 20.376699 0 255 0
2.860000 -5.780000 22.900000 255 0 0
2.833300 -5.666700 16.606701 255 0 0
2.842700 -5.720000 13.359100 255 0 0
3.447500 -5.222500 12.600000 0 255 0
3.440000 -5.505000 20.360001 0 255 0
3.430000 -5.970000 24.059999 0 255 0
3.430000 -5.810000 20.730000 0 255 0
3.446700 -5.860000 17.546700 0 255 0
3.842300 -6.167300 17.259100 0 255 0
3.939100 -6.070000 13.807000 0 255 0
3.791700 -5.965000 14.455000 0 255 0
3.790000 -6.055000 20.950001 0 255 0
3.394300 -5.367900 18.505699 0 255 0
3.747500 -5.227500 14.152500 0 255 0
2.478300 -4.681700 23.763300 0 255 0
2.860000 -5.560000 25.330000 0 255 0
2.835000 -5.521700 15.855000 255 0 0
2.850000 -5.620000 22.153999 255 0 0
3.390000 -5.560000 -3.290000 0 255 0
3.300000 -5.370000 22.125000 0 255 0
2.740000 -5.420000 2.450000 255 0 0
2.760000 -5.605000 15.105000 255 0 0
3.610000 -5.230000 -3.060000 0 255 255
3.398000 -6.018000 17.504000 0 255 0
4.000000 -5.730000 12.860000 0 255 0
2.745000 -5.750000 22.600000 255 0 0
2.746000 -5.572000 9.560000 255 0 0
2.741700 -5.533300 12.808300 255 0 0
4.040000 -5.873300 21.106701 0 255 0
2.750000 -5.003300 25.990000 0 255 0
3.446000 -5.668000 14.710000 0 255 0
3.460000 -5.640000 17.850000 0 255 0
2.750000 -5.610000 18.423300 255 0 0
2.740000 -5.490000 2.620000 255 0 0
2.760000 -5.440000 5.750000 255 0 0
3.593300 -5.118900 12.605600 0 255 0
2.693600 -4.630000 20.322700 0 255 0
2.740000 -5.850000 24.820000 0 255 0
2.760000 -5.420000 2.670000 255 0 0
3.250000 -4.850000 20.520000 0 255 0
2.760000 -5.660000 19.350000 255 0 0
2.757500 -5.425000 9.461300 255 0 0
2.750000 -5.470000 6.310000 255 0 0
2.740000 -5.500000 3.140000 255 0 0
2.360000 -5.600000 25.469999 0 255 0
2.337100 -5.462900 9.550000 0 255 0
3.790000 -5.114000 12.408000 0 255 0
2.760000 -5.760000 22.690001 255 0 0
2.733300 -5.525000 13.313300 255 0 0
3.610000 -5.140000 -2.870000 0 255 255
3.110000 -5.390000 3.560000 255 0 0
3.090000 -5.050000 22.540001 0 255 0
2.440000 -4.715000 20.870001 0 255 0
2.884300 -6.411400 21.905701 0 255 0
2.760000 -5.400000 6.140000 255 0 0
3.110000 -5.560000 13.680000 255 0 0
3.080000 -5.870000 20.209999 0 255 0
3.090000 -5.607500 4.012500 255 0 0
3.086200 -5.515000 10.513100 255 0 0
2.096000 -4.982000 -2.790000 0 255 255
3.285000 -5.228300 26.004999 0 255 0
3.995000 -5.075000 15.110000 0 255 0
3.495000 -4.510000 -2.805000 0 255 255
2.480000 -4.810000 25.090000 0 255 0
2.760000 -5.460000 2.855000 255 0 0
2.720000 -5.620000 18.750000 255 0 0
2.760000 -5.680000 15.500000 255 0 0
2.753300 -5.423300 6.116700 255 0 0
3.984600 -5.975000 -3.035000 0 255 255
3.660000 -6.240000 20.559999 0 255 0
3.643800 -6.065000 17.212500 0 255 0
3.745000 -5.830000 -2.690000 0 255 255
2.720000 -5.230000 20.940001 0 255 0
3.623300 -4.653300 -2.856700 0 255 255
1.906700 -4.870000 9.743300 0 255 0
3.480000 -6.230000 22.410000 0 255 0
2.760000 -5.610000 15.140000 255 0 0
2.755000 -5.430000 2.500000 255 0 0
2.760000 -5.860000 25.360001 0 255 0
3.760000 -6.330000 21.770000 0 255 0
2.590000 -5.440000 4.370000 0 255 0
2.592500 -5.510000 10.670000 0 255 0
2.510000 -4.960000 23.700001 0 255 0
2.560000 -6.080000 9.790000 0 255 0
2.530000 -5.812500 25.915001 0 255 0
2.740000 -5.860000 -3.160000 0 255 255
3.800000 -6.330000 17.510000 0 255 0
2.150000 -5.150000 -2.770000 0 255 255
2.155000 -5.020000 7.020000 0 255 0
2.810000 -5.620000 8.470000 255 0 0
2.810000 -5.560000 5.220000 255 0 0
2.802000 -5.506000 1.946000 255 0 0
2.810000 -5.410000 -0.060000 255 0 0
2.790000 -5.773300 25.309999 0 255 0
3.288000 -5.671000 12.548000 0 255 0
3.910000 -6.010000 14.450000 0 255 0
2.420000 -6.020000 -3.270000 0 255 255
2.445000 -5.565000 25.962500 0 255 0
2.690000 -6.076700 15.056700 0 255 0
3.389400 -4.871200 13.597500 0 255 0
3.295000 -5.525000 12.590000 0 255 0
2.700000 -5.800000 23.469999 255 0 0
2.687800 -5.616100 10.799400 0 255 0
3.190600 -5.618900 17.707800 0 255 0
3.689000 -5.135000 12.058000 0 255 0
2.541700 -5.576700 10.606700 0 255 0
2.588400 -6.563700 -2.791600 0 255 255
3.400000 -6.110000 25.969999 0 255 0
3.370000 -5.060000 20.299999 0 255 0
2.920000 -5.815000 23.059999 255 0 0
2.730000 -5.070000 25.879999 0 255 0
2.850000 -5.700000 17.355000 255 0 0
2.832500 -5.672500 20.607500 255 0 0
2.391700 -5.718300 -3.045000 0 255 255
2.390000 -5.485300 6.859300 0 255 0
3.007500 -6.327500 14.770000 0 255 0
4.040000 -5.185000 17.520000 0 255 0
4.052500 -5.202500 14.247500 0 255 0
2.283300 -5.053300 25.670000 0 255 0
2.835000 -4.620000 21.260000 0 255 0
2.945000 -4.820000 20.865000 0 255 0
3.720000 -6.310000 20.370001 0 255 0
3.030000 -5.320000 23.900000 0 255 0
2.236700 -4.713300 -2.256700 0 255 255
3.306700 -5.470000 17.370001 0 255 0
2.750000 -5.660000 9.690000 0 255 0
2.745000 -5.800000 26.010000 0 255 0
2.845000 -6.590000 25.764999 0 255 0
2.850600 -6.017200 9.562800 0 255 0
4.130000 -5.290000 -2.880000 0 255 255
2.795000 -5.460000 17.160000 255 0 0
2.400000 -5.990000 26.100000 0 255 0
2.730000 -4.540000 20.850000 0 255 0
2.995000 -5.175000 24.360001 0 255 0
2.337500 -5.072500 25.110001 0 255 0
3.296000 -5.706000 12.510000 0 255 0
3.377500 -5.315000 22.055000 0 255 0
3.150000 -5.500000 18.459999 0 255 0
2.435000 -6.010000 25.965000 0 255 0
2.750000 -5.535000 6.050000 255 0 0
2.753300 -5.440000 12.570000 255 0 0
2.750000 -5.475000 9.410000 255 0 0
2.760000 -5.610000 25.200001 0 255 0
3.835000 -5.825000 17.225000 0 255 0
2.850000 -5.650000 10.870000 255 0 0
2.820000 -5.540000 20.370001 255 0 0
2.143800 -5.066300 -2.643700 0 255 255
3.600000 -5.930000 20.150000 0 255 0
3.025000 -5.335000 23.945000 0 255 0
2.720000 -5.290000 4.440000 0 255 0
2.943300 -5.620000 19.459999 255 0 0
2.930000 -5.510000 25.770000 0 255 0
2.590000 -5.380000 18.559999 0 255 0
2.492500 -5.423800 18.559999 0 255 0
2.600000 -5.527500 25.955000 0 255 0
2.229600 -6.313500 -2.580400 0 255 255
3.483300 -5.571100 11.956700 0 255 0
3.840000 -4.575000 -2.985000 0 255 255
3.594400 -5.475000 20.268801 0 255 0
3.590000 -4.372000 -2.690000 0 255 255
2.240000 -4.910000 -2.430000 0 255 255
3.790000 -6.023700 17.261101 0 255 0
3.746700 -5.126700 -3.183300 0 255 255
3.742500 -5.582500 18.758699 0 255 0
3.570000 -5.530000 25.969999 0 255 0
3.586000 -5.020000 20.209999 0 255 0
4.050000 -5.684300 17.211399 0 255 0
4.035700 -5.727100 13.951400 0 255 0
2.740000 -6.090000 15.250000 0 255 0
4.000000 -5.855000 22.014999 0 255 0
3.205000 -5.167500 26.045000 0 255 0
2.190000 -5.240000 9.770000 0 255 0
2.830000 -6.132500 -3.232500 0 255 255
2.835000 -5.925000 9.795000 0 255 0
3.243300 -5.568900 13.354400 0 255 0
3.280000 -5.290000 -0.340000 255 0 0
3.300000 -5.120000 15.050000 0 255 0
2.630000 -5.380000 14.706000 0 255 0
2.930000 -6.400000 -3.140000 0 255 255
2.888000 -5.376000 15.212000 255 0 0
2.894500 -5.428200 18.363600 255 0 0
2.230000 -5.240000 9.800000 0 255 0
3.360000 -5.760000 -3.290000 0 255 0
3.393300 -4.826700 22.816700 0 255 0
2.147500 -5.625000 -2.937500 0 255 255
2.137000 -6.022000 22.356001 0 255 0
2.000000 -6.420000 25.355000 0 255 0
3.800000 -6.400000 20.709999 0 255 0
3.936700 -5.311700 14.151700 0 255 0
3.948300 -5.670000 17.145000 0 255 0
4.038000 -5.320000 14.214000 0 255 0
3.750000 -6.155000 17.245001 0 255 0
3.726700 -6.126700 20.518299 0 255 0
2.280000 -5.715000 -2.887500 0 255 255
3.625000 -4.485000 -2.870000 0 255 255
2.690000 -6.015000 9.527500 0 255 0
2.480000 -4.625000 9.555000 0 255 0
2.605400 -6.171500 9.551500 0 255 0
3.282500 -6.410000 21.012501 0 255 0
2.740000 -4.580000 20.930000 0 255 0
2.570000 -4.823300 23.753300 0 255 0
2.386700 -5.563300 4.503300 0 255 0
2.190000 -5.107100 25.510000 0 255 0
2.690000 -6.025700 -3.277100 0 255 255
3.750000 -5.600000 23.660000 0 255 0
3.540000 -5.220000 -2.985000 0 255 0
2.555000 -5.925000 25.995001 0 255 0
2.431700 -5.180000 -2.695000 0 255 0
2.642500 -5.965000 25.865000 0 255 0
2.550000 -4.820000 23.969999 0 255 0
3.183300 -5.190000 -0.436700 255 0 0
3.180000 -5.075000 18.315001 0 255 0
3.195000 -5.035000 14.955000 0 255 0
2.535000 -6.216300 -2.648800 0 255 255
3.460000 -6.130000 17.820000 0 255 0
2.695000 -5.067500 20.155001 0 255 0
3.492700 -5.913600 -2.851800 0 255 255
2.620000 -5.060000 25.830000 0 255 0
2.370000 -5.360000 3.300000 0 255 0
2.410000 -5.470000 9.590000 0 255 0
3.342000 -4.778000 22.618000 0 255 0
3.044200 -5.116700 20.110800 0 255 0
3.940000 -5.475000 14.797500 0 255 0
2.533300 -5.215800 14.768300 0 255 0
3.280000 -5.600000 12.300000 0 255 0
3.280000 -4.990000 -2.780000 0 255 255
2.185000 -4.472500 -2.438800 0 255 255
3.250000 -5.705000 17.754999 0 255 0
2.200000 -5.940000 -3.060000 0 255 255
2.190000 -5.300000 9.590000 0 255 0
2.287500 -6.052500 -2.790000 0 255 255
2.298600 -5.464300 9.460000 0 255 0
2.650000 -4.618000 20.618000 0 255 0
2.650900 -4.369100 -2.457300 0 255 255
2.685000 -5.405000 25.969999 0 255 0
2.700000 -5.220000 18.520000 0 255 0
3.243000 -5.819000 18.506001 0 255 0
3.790000 -5.760000 17.167500 0 255 0
2.060000 -5.070000 9.830000 0 255 0
2.300000 -5.750000 18.590000 0 255 0
3.110000 -6.340000 21.139999 0 255 0
3.093300 -6.414200 14.852500 0 255 0
3.130000 -4.580000 -2.760000 0 255 255
2.480000 -4.886700 20.956699 0 255 0
2.485000 -4.987500 14.812500 0 255 0
2.710000 -5.530000 12.760000 255 0 0
2.690000 -5.700000 25.813299 0 255 0
3.796700 -5.973300 17.216700 0 255 0
3.787500 -6.012500 20.567499 0 255 0
3.800000 -5.910000 14.070000 0 255 0
2.690000 -5.030000 25.969999 0 255 0
2.710000 -4.950000 9.465000 0 255 0
3.110000 -5.430000 4.390000 255 0 0
3.095900 -5.464700 7.667100 255 0 0
3.085000 -5.185000 0.895000 255 0 0
3.630000 -5.925000 25.764999 0 255 0
2.695000 -4.725000 13.765000 0 255 0
2.036200 -4.910000 9.795000 0 255 0
3.750000 -6.010000 21.113300 0 255 0
2.637100 -6.477100 -2.922900 0 255 255
2.640000 -4.860000 20.320000 0 255 0
4.055000 -5.475000 17.754999 0 255 0
3.896700 -5.420000 14.313300 0 255 0
3.930000 -5.710000 -2.920000 0 255 255
3.880000 -5.470000 17.480000 0 255 0
3.896700 -5.763300 13.820000 0 255 0
3.885000 -6.014300 17.306400 0 255 0
2.746700 -5.576700 15.453300 255 0 0
2.400000 -5.340000 25.910000 0 255 0
2.756700 -5.573300 14.150000 255 0 0
2.240000 -5.750000 -3.160000 0 255 255
2.040000 -5.327100 -2.732900 0 255 255
2.477500 -4.415000 -2.592500 0 255 255
2.336000 -4.618000 -2.298000 0 255 255
3.170000 -5.550000 11.120000 255 0 0
3.787100 -6.030700 -3.035000 0 255 255
3.743300 -5.620000 -2.923300 0 255 255
3.135000 -5.230000 26.025000 0 255 0
3.335000 -6.072500 -3.397500 0 255 255
3.550000 -5.850000 -3.130000 0 255 255
3.590000 -5.880000 20.500000 0 255 0
2.760000 -5.550000 14.430000 255 0 0
2.922000 -5.470000 -0.440000 255 0 0
2.380000 -6.282500 24.062500 0 255 0
2.960000 -5.600000 2.820000 255 0 0
2.932500 -5.575000 6.055000 255 0 0
2.340000 -4.520000 -2.850000 0 255 255
3.850000 -5.480000 14.190000 0 255 0
3.920000 -5.475000 17.750000 0 255 0
3.787100 -5.711400 17.162901 0 255 0
2.590000 -5.226700 9.753300 0 255 0
2.470000 -5.190000 25.090000 0 255 0
2.741700 -5.561700 23.356701 0 255 0
2.750000 -6.072500 -3.190000 0 255 255
2.410000 -5.120000 9.450000 0 255 0
3.885700 -6.220000 21.751400 0 255 0
3.590000 -5.870000 13.790000 0 255 0
3.346800 -5.621800 20.113199 0 255 0
3.241000 -5.876000 17.563000 0 255 0
3.242500 -5.610000 21.167500 0 255 0
2.750000 -5.490000 16.090000 255 0 0
2.754000 -5.517000 12.956000 255 0 0
3.440000 -5.517300 14.811300 0 255 0
3.291000 -5.164000 20.253000 0 255 0
3.270000 -5.360000 22.330000 0 255 0
3.530000 -4.527100 -2.938600 0 255 255
3.800000 -5.933300 -3.470000 0 255 255
3.106700 -5.536700 4.113300 255 0 0
3.080000 -5.559400 7.258300 255 0 0
3.230000 -5.506700 -0.700000 255 0 0
3.240000 -5.315000 12.352500 0 255 0
3.724000 -6.220000 20.424000 0 255 0
2.136700 -5.418300 4.605000 0 255 0
3.485700 -5.021400 12.367100 0 255 0
2.737500 -5.707500 18.299999 0 255 0
2.760000 -5.600000 24.809999 0 255 0
2.720000 -5.690000 21.680000 255 0 0
2.760000 -5.520000 5.670000 255 0 0
2.750000 -5.423300 12.173300 255 0 0
2.752500 -5.467500 9.007500 255 0 0
2.750000 -5.740000 20.910000 255 0 0
2.740000 -5.500000 7.870000 255 0 0
2.756700 -5.480000 11.220000 255 0 0
2.238300 -5.516700 15.051700 0 255 0
4.030000 -5.410000 17.770000 0 255 0
3.285000 -6.372500 21.272499 0 255 0
2.040000 -5.630000 25.820000 0 255 0
3.850000 -5.786700 14.063300 0 255 0
3.844000 -5.720000 17.304001 0 255 0
3.145000 -5.555000 20.305000 0 255 0
2.083300 -5.620000 -2.940000 0 255 255
2.095700 -6.030000 22.364300 0 255 0
2.445000 -6.160000 -3.285000 0 255 255
2.345000 -5.225000 25.097500 0 255 0
3.193300 -4.520000 -2.886700 0 255 255
3.433300 -5.580000 20.253300 0 255 0
3.341700 -5.821700 20.165800 0 255 0
3.490000 -5.480000 16.900000 0 255 0
3.428300 -6.080000 -2.945000 0 255 255
2.760000 -4.640000 20.900000 0 255 0
2.230000 -5.170000 25.740000 0 255 0
3.594500 -5.569100 -3.248200 0 255 255
3.680000 -5.560000 -3.205000 0 255 255
3.243300 -5.366700 20.080000 0 255 0
2.140000 -4.790000 -2.740000 0 255 255
2.140000 -4.560000 9.910000 0 255 0
2.603300 -6.016700 -3.033300 0 255 255
2.060000 -5.160000 9.740000 0 255 0
2.750000 -4.840000 18.620001 0 255 0
3.550000 -5.400000 -2.640000 0 255 0
3.400000 -5.920000 18.600000 0 255 0
2.600000 -5.170000 21.120001 0 255 0
3.155000 -6.130000 17.555000 0 255 0
2.290000 -5.523300 4.653300 0 255 0
2.540000 -5.110000 23.559999 0 255 0
3.240000 -4.905000 20.410000 0 255 0
1.975000 -4.910000 -2.855000 0 255 255
3.342000 -6.014000 20.205999 0 255 0
3.700000 -5.230000 22.570000 0 255 0
2.760000 -5.530000 10.260000 255 0 0
2.755000 -5.460000 13.590000 255 0 0
2.742200 -5.706700 23.313299 255 0 0
2.740000 -5.750000 20.150000 255 0 0
3.440000 -5.817800 20.117800 0 255 0
3.340000 -6.030000 9.370000 0 255 0
3.341400 -5.865700 18.462900 0 255 0
2.757500 -5.565000 13.812500 255 0 0
2.740000 -5.780000 22.040001 255 0 0
2.740000 -5.560000 9.390000 255 0 0
2.749200 -5.519200 12.552500 255 0 0
2.450000 -4.970000 23.629999 0 255 0
2.704000 -4.962000 13.422000 0 255 0
2.380000 -5.210000 9.520000 0 255 0
2.380000 -5.070000 25.809999 0 255 0
2.280000 -5.615000 18.660000 0 255 0
3.140000 -6.330000 13.540000 0 255 0
3.130000 -6.375000 13.540000 0 255 0
2.745000 -5.520000 16.055000 255 0 0
2.755000 -5.575000 12.912500 255 0 0
1.880000 -5.740000 18.719999 0 255 0
1.897500 -5.477500 15.105000 0 255 0
3.341700 -4.370000 -2.705000 0 255 255
3.080000 -5.160000 22.389999 0 255 0
3.150000 -5.620000 8.250000 255 0 0
3.120000 -5.535000 14.560000 255 0 0
3.120000 -5.550000 11.390000 255 0 0
3.140000 -5.820000 20.930000 0 255 0
3.131200 -5.867500 17.748800 0 255 0
2.750000 -5.563300 14.463300 255 0 0
3.640000 -4.910000 22.129999 0 255 0
3.645000 -5.078700 12.310000 0 255 0
3.170000 -4.720000 22.209999 0 255 0
3.229000 -5.368000 24.917000 0 255 0
3.246000 -5.228000 20.266001 0 255 0
3.230000 -5.450000 1.780000 255 0 0
3.230000 -5.520000 -1.410000 255 0 0
3.240000 -4.970000 20.549999 0 255 0
3.243200 -5.266400 14.807300 0 255 0
3.989400 -5.975900 21.160000 0 255 0
2.177100 -5.302900 4.652900 0 255 0
2.610000 -5.310000 14.620000 0 255 0
2.470000 -5.250000 20.150000 0 255 0
3.850000 -6.190000 20.730000 0 255 0
2.750000 -5.460000 16.660000 255 0 0
2.750000 -5.765000 23.410000 255 0 0
2.760000 -5.555000 10.360000 255 0 0
2.751700 -5.525000 13.611700 0 255 0
2.692500 -5.062500 9.515000 0 255 0
2.250000 -5.590000 15.200000 0 255 0
2.057500 -4.665000 9.572500 0 255 0
2.633300 -5.060000 25.910000 0 255 0
2.745000 -5.570000 14.510000 255 0 0
3.344000 -5.662000 12.368000 0 255 0
2.440000 -4.686700 9.763300 0 255 0
2.441400 -4.872900 -2.905700 0 255 255
2.645800 -6.124200 9.760400 0 255 0
2.810000 -5.800000 20.610001 255 0 0
4.075000 -5.830000 -2.940000 0 255 255
2.105000 -5.410000 -2.695000 0 255 255
4.150000 -5.650000 12.360000 0 255 0
3.110000 -5.490000 -2.550000 255 0 0
3.105000 -5.355000 3.770000 255 0 0
3.080000 -5.300000 0.500000 255 0 0
3.084400 -5.022200 20.302200 0 255 0
3.340000 -6.406700 21.356701 0 255 0
3.330000 -5.605000 -2.935000 0 255 0
3.510000 -5.950000 -2.680000 0 255 255
2.810000 -4.960000 -2.970000 0 255 0
2.792500 -5.412500 25.455000 0 255 0
2.210000 -5.970000 20.160000 0 255 0
2.180000 -5.186700 9.766700 0 255 0
3.482000 -5.608000 21.160000 0 255 0
3.485000 -5.666700 -2.800000 0 255 0
3.685000 -5.718300 18.658300 0 255 0
3.580000 -5.770000 -3.243300 0 255 255
2.830000 -5.740000 24.209999 255 0 0
3.150000 -5.530000 16.860001 0 255 0
2.740000 -5.073300 26.013300 0 255 0
2.800000 -5.256700 25.959999 0 255 0
3.660000 -5.200000 15.100000 0 255 0
3.345000 -5.265000 14.905000 0 255 0
3.536000 -6.434000 20.962000 0 255 0
3.435900 -5.421200 17.522400 0 255 0
2.990000 -5.280000 23.905001 0 255 0
3.855000 -5.330000 14.500000 0 255 0
3.835700 -5.467100 17.755699 0 255 0
2.946700 -5.630000 16.966700 255 0 0
2.935700 -5.664300 13.558600 255 0 0
2.752000 -5.024000 -2.948000 0 255 0
2.940000 -5.580000 20.110001 255 0 0
2.920000 -5.850000 -3.160000 0 255 255
3.092000 -4.580000 21.148001 0 255 0
3.090000 -5.530000 17.040001 255 0 0
3.100000 -5.555000 20.305000 0 255 0
2.730000 -5.490000 16.860001 255 0 0
2.760000 -5.550000 10.560000 255 0 0
2.730000 -5.766000 23.218000 255 0 0
2.748800 -5.516200 13.816200 255 0 0
2.425000 -6.165000 -3.360000 0 255 255
3.630000 -5.320000 22.110001 0 255 0
3.340000 -6.500000 24.160000 0 255 0
2.686000 -6.462000 -2.886700 0 255 255
2.396700 -5.383300 18.620001 0 255 0
3.291400 -5.520000 20.110001 0 255 0
3.343800 -6.018700 14.710000 0 255 0
3.338600 -5.921400 21.068600 0 255 0
1.932500 -5.555000 4.697500 0 255 0
3.006700 -5.570000 11.963300 255 0 0
2.980000 -5.715000 21.860001 255 0 0
3.340000 -4.740000 20.250000 0 255 0
2.035000 -5.975000 -2.630000 0 255 255
3.250000 -5.665000 25.924999 0 255 0
3.243300 -5.918300 9.703300 0 255 0
3.339200 -5.827500 20.201700 0 255 0
2.670000 -6.020000 -3.042500 0 255 255
2.995000 -6.605000 22.010000 0 255 0
3.100000 -6.440000 21.280001 0 255 0
2.290000 -5.120000 25.160000 0 255 0
4.190000 -5.470000 -2.930000 0 255 255
3.180000 -5.550000 6.370000 255 0 0
2.950000 -5.820000 17.730000 0 255 0
2.786200 -5.957500 -2.373800 0 255 255
2.887500 -5.613800 9.260000 255 0 0
2.887300 -5.576000 6.012700 255 0 0
2.400000 -4.825000 -2.560000 0 255 255
2.750000 -5.415000 22.155001 0 255 0
2.746700 -5.510000 15.663300 255 0 0
2.755000 -5.560000 12.522500 255 0 0
2.730000 -6.336000 -3.278000 0 255 255
2.150000 -5.520000 4.550000 0 255 0
2.940000 -5.610000 25.330000 0 255 0
2.926700 -5.670000 22.013300 255 0 0
2.920000 -5.710000 18.770000 255 0 0
3.450000 -6.020000 -3.035000 0 255 255
3.410000 -6.190000 25.030001 0 255 0
3.987500 -5.530000 -3.322500 0 255 255
2.381700 -4.275000 -2.725000 0 255 255
3.092500 -6.370000 9.655000 0 255 0
3.490000 -6.565000 22.910000 0 255 0
3.840000 -5.760000 21.379999 0 255 0
1.990000 -4.730000 -2.210000 0 255 255
3.030000 -4.665000 18.594999 0 255 0
2.710000 -4.550000 20.889999 0 255 0
2.090000 -5.150000 25.690001 0 255 0
2.076700 -4.706700 9.846700 0 255 0
2.410000 -5.820000 14.860000 0 255 0
3.655000 -5.465000 -2.645000 0 255 255
2.930000 -5.530000 -2.720000 0 255 0
2.950000 -5.850000 25.709999 0 255 0
2.510000 -6.120000 25.000000 0 255 0
2.920000 -5.760000 20.910000 255 0 0
3.690000 -6.080000 18.610001 0 255 0
2.780000 -6.750000 23.980000 0 255 0
4.080000 -5.830000 17.590000 0 255 0
3.670000 -5.680000 14.940000 0 255 0
3.688900 -4.563300 -2.937800 0 255 255
3.290000 -5.980000 -2.900000 0 255 255
3.800000 -5.340000 11.910000 0 255 0
3.800000 -5.350000 15.060000 0 255 0
3.390000 -5.760000 18.370001 0 255 0
2.440000 -5.465000 3.180000 0 255 0
2.146700 -6.370000 24.196699 0 255 0
2.120000 -5.026700 9.463300 0 255 0
3.179200 -5.510300 -1.440700 0 255 0
2.400000 -5.780000 26.150000 0 255 0
2.390000 -6.000000 16.680000 0 255 0
2.410000 -5.960000 13.520000 0 255 0
4.100000 -5.320000 13.880000 0 255 0
2.220000 -6.380000 -2.770000 0 255 255
2.240000 -5.735000 14.725000 0 255 0
3.220000 -6.730000 18.860001 0 255 0
3.642100 -5.421400 -3.242100 0 255 255
2.730000 -4.990000 9.630000 0 255 0
2.123300 -5.626700 -3.176700 0 255 255
3.860000 -6.060000 14.280000 0 255 0
3.826700 -6.020000 17.410000 0 255 0
3.688600 -5.673200 20.913200 0 255 0
3.933300 -5.580000 12.473300 0 255 0
2.685000 -6.065000 -3.326700 0 255 255
1.850000 -5.670000 -2.780000 0 255 255
3.430000 -6.170000 -3.233300 0 255 255
3.660000 -5.833300 18.553301 0 255 0
3.646700 -5.716700 12.256700 0 255 0
2.060000 -5.390000 -2.780000 0 255 255
2.270000 -5.020000 25.559999 0 255 0
4.130000 -4.900000 -2.950000 0 255 255
2.750000 -4.530000 21.058001 0 255 0
3.800000 -5.320000 -2.860000 0 255 255
3.990000 -5.720000 -3.003300 0 255 255
2.493300 -6.463300 -2.953300 0 255 255
3.300000 -5.540000 12.450000 0 255 0
2.180000 -5.140000 25.469999 0 255 0
2.843300 -5.773300 20.663300 255 0 0
3.290000 -5.210000 22.110001 0 255 0
3.670000 -6.380000 24.420000 0 255 0
2.420000 -5.220000 9.500000 0 255 0
2.660000 -5.600000 25.730000 0 255 0
2.660000 -5.450000 9.513300 0 255 0
2.440000 -4.980000 25.730000 0 255 0
3.080000 -5.760000 19.540001 0 255 0
3.095000 -5.530800 3.259200 255 0 0
3.090000 -5.571500 6.504200 255 0 0
3.600000 -5.540000 -2.880000 0 255 255
3.880000 -5.330000 -2.970000 0 255 255
2.005000 -5.012500 -2.495000 0 255 255
2.686400 -6.121800 -2.881800 0 255 255
3.540000 -5.110000 14.780000 0 255 0
3.487500 -5.222500 -3.072500 0 255 0
2.685000 -5.565000 10.850000 0 255 0
2.175000 -5.225000 9.815000 0 255 0
3.137500 -4.617500 20.545000 0 255 0
2.800000 -5.700000 22.100000 255 0 0
2.800000 -5.765000 25.344999 0 255 0
2.810000 -5.400000 0.110000 255 0 0
2.770000 -5.690000 18.850000 255 0 0
2.785000 -5.165000 9.520000 0 255 0
4.090000 -5.860000 17.629999 0 255 0
3.500000 -5.530000 14.540000 0 255 0
3.493300 -5.556700 17.696699 0 255 0
1.850000 -5.820000 18.879999 0 255 0
2.641700 -5.123300 9.651700 0 255 0
3.300000 -6.110000 18.600000 0 255 0
3.280000 -6.020000 24.889999 0 255 0
3.280000 -6.370000 21.010000 0 255 0
