-3.610000 -13.225000 4.930000 0 255 0
-3.613300 -13.080000 -4.730000 0 255 255
-2.580000 -15.335000 20.320000 0 255 0
-3.230000 -13.660000 -4.540000 0 255 255
-3.215000 -15.130000 13.855000 0 255 0
-3.214300 -13.615000 -4.296400 0 255 255
-2.640000 -14.025000 12.860000 0 255 0
-3.612800 -14.472200 6.556100 0 255 0
-2.660000 -14.350000 14.230000 255 0 0
-2.675200 -13.833600 -2.082400 0 255 0
-2.667000 -13.787800 1.156700 255 0 0
-1.560000 -14.171500 7.558100 0 255 0
-1.558300 -14.268300 12.761700 0 255 0
-1.565000 -14.162500 7.512500 0 255 0
-2.898800 -14.106200 7.552500 0 255 0
-2.904600 -13.969400 -1.842000 255 0 0
-3.110000 -13.350000 17.770000 0 255 0
-3.420000 -13.870000 18.980000 0 255 0
-2.609100 -14.017300 1.951800 255 0 0
-2.610000 -14.060000 5.105000 255 0 0
-2.621200 -13.970500 -1.385600 255 0 0
-2.720000 -13.310000 17.260000 0 255 0
-2.718800 -13.562500 -4.940000 0 255 0
-2.710000 -14.240000 16.410000 255 0 0
-2.710900 -14.164500 13.253600 255 0 0
-3.040000 -15.090000 8.450000 0 255 0
-3.056700 -13.656700 -3.803300 0 255 0
-2.613300 -13.614000 -3.289300 0 255 0
-3.030000 -13.730000 -4.720000 255 0 0
-3.005000 -14.020000 15.075000 0 255 0
-2.855000 -13.075000 -4.895000 0 255 255
-2.855000 -13.077500 -4.642500 0 255 255
-2.702000 -14.034000 -1.108000 255 0 0
-2.716700 -13.913300 5.410000 255 0 0
-2.730000 -13.890000 2.150000 255 0 0
-2.970000 -13.160000 -4.995000 0 255 255
-2.970000 -13.200000 4.800000 0 255 0
-2.945000 -13.238300 4.856700 0 255 0
-3.812200 -13.862200 -4.395600 0 255 255
-2.520000 -14.276700 19.520000 255 0 0
-2.520000 -14.265000 19.250000 255 0 0
-2.340000 -13.610000 -4.845000 0 255 255
-2.363300 -13.370000 11.460000 0 255 0
-2.298000 -15.368000 20.257999 0 255 0
-2.530000 -14.760000 17.190001 0 255 0
-2.260000 -14.710000 17.290001 0 255 0
-2.360000 -13.417500 7.502500 0 255 0
-1.900000 -13.390000 -4.170000 0 255 255
-2.280000 -13.415000 -4.445000 0 255 255
-2.200000 -14.110000 -4.460000 0 255 255
-2.270000 -13.910000 21.420000 0 255 0
-2.248800 -14.026300 15.270000 0 255 0
-2.120000 -13.240000 11.370000 0 255 0
-2.380000 -14.380000 19.160000 0 255 0
-2.814000 -13.816600 -1.389100 255 0 0
-2.806700 -13.768500 -4.541500 255 0 0
-2.562500 -14.172500 -4.305000 0 255 255
-2.564300 -14.067100 8.267100 255 0 0
-2.600000 -13.360000 20.950001 0 255 0
-2.550000 -13.890000 -4.410000 0 255 0
-2.551100 -13.915600 5.105600 255 0 0
-2.563300 -13.969500 1.961500 255 0 0
-3.046700 -13.833300 14.816700 0 255 0
-3.230000 -14.360000 -4.660000 0 255 255
-3.206300 -14.523900 4.812200 0 255 0
-3.160000 -13.850000 18.010000 0 255 0
-3.150000 -14.030000 -4.593800 0 255 0
-3.156000 -13.914000 14.762000 0 255 0
-3.014600 -13.874600 14.811500 0 255 0
-3.015000 -14.005000 14.995000 0 255 0
-3.010000 -13.710000 -4.590000 255 0 0
-3.263300 -14.230000 -4.450000 0 255 255
-3.260000 -13.890000 17.610001 0 255 0
-3.300000 -14.290000 11.500000 0 255 0
-3.462000 -14.564000 -4.502000 0 255 255
-3.450000 -14.320000 11.420000 0 255 0
-3.470000 -14.320000 11.340000 0 255 0
-3.270000 -14.910000 20.980000 0 255 0
-3.250000 -13.730000 -3.520000 0 255 255
-3.707000 -14.465000 11.515000 0 255 0
-3.080000 -13.750000 17.600000 0 255 0
-3.662500 -14.662500 -4.387500 0 255 255
-3.959200 -14.228300 -4.194200 0 255 255
-3.868800 -13.564100 -4.093500 0 255 255
-3.371000 -13.627000 -4.351000 0 255 255
-1.861500 -14.124600 14.117700 0 255 0
-3.400000 -13.690000 4.490000 0 255 0
-3.410000 -14.720000 20.879999 0 255 0
-2.120000 -14.710000 18.540001 0 255 0
-2.050000 -14.660000 5.710000 0 255 0
-2.757000 -13.923000 16.747999 0 255 0
-2.775300 -13.862400 1.907100 0 255 0
-2.760500 -13.957000 8.409000 255 0 0
-3.380000 -13.390000 14.870000 0 255 0
-3.350000 -13.115000 4.975000 0 255 0
-3.456700 -14.575000 1.555000 0 255 0
-3.462300 -14.473800 7.853100 0 255 0
-3.270000 -14.212000 -4.534000 0 255 255
-2.813000 -13.217000 -4.897000 0 255 255
-2.807400 -12.973500 4.910900 0 255 0
-2.770000 -14.000000 6.130000 255 0 0
-2.768000 -13.808000 19.152000 0 255 0
-2.767800 -14.981100 -4.584400 0 255 255
-2.760200 -13.869000 2.957600 255 0 0
-2.758000 -13.975300 9.256700 255 0 0
-2.775000 -13.900000 -0.180000 255 0 0
-2.778600 -13.920000 2.355700 255 0 0
-2.780000 -13.960000 11.930000 0 255 0
-2.767000 -14.011000 8.669000 255 0 0
-2.743300 -13.870000 5.603300 255 0 0
-3.630000 -13.780000 -4.210000 0 255 255
-3.600000 -14.120000 17.750000 0 255 0
-3.620000 -13.533300 5.100000 0 255 0
-3.006200 -12.922100 5.014500 0 255 0
-2.808200 -13.614400 -3.439100 0 255 0
-3.756000 -13.272000 -4.592000 0 255 255
-3.860000 -13.516700 -4.583300 0 255 255
-2.705000 -14.172500 -4.342500 0 255 0
-2.710000 -14.430000 -5.170000 0 255 255
-2.700000 -14.130000 13.958000 255 0 0
-2.708200 -14.060000 10.716400 255 0 0
-1.860000 -13.408000 -5.370000 0 255 255
-1.850000 -13.206700 7.676700 0 255 0
-2.746700 -14.573300 -4.196700 0 255 255
-2.766400 -14.019100 0.705500 255 0 0
-2.755000 -13.860000 -2.442500 255 0 0
-2.750900 -13.960000 3.855500 255 0 0
-2.765000 -14.035000 -1.520000 255 0 0
-2.765000 -13.972500 1.705000 255 0 0
-2.766200 -13.866200 -4.593100 255 0 0
-2.410000 -14.360000 19.500000 0 255 0
-3.310000 -13.335000 -4.760000 0 255 255
-2.080000 -14.320000 15.260000 0 255 0
-2.020000 -13.820000 21.160000 0 255 0
-1.930000 -14.270000 -4.173300 0 255 255
-1.900000 -14.670000 21.129999 0 255 0
-1.905000 -14.765000 14.808000 0 255 0
-2.308200 -15.017300 3.610900 0 255 0
-1.660000 -14.006700 17.713301 0 255 0
-1.662500 -14.570000 7.700000 0 255 0
-2.380000 -15.410000 20.170000 0 255 0
-3.111100 -14.464400 11.356700 0 255 0
-2.705000 -14.070000 -5.175000 0 255 0
-1.757500 -13.977500 -4.078800 0 255 255
-2.550000 -14.270000 12.860000 255 0 0
-2.570000 -14.140000 9.815000 255 0 0
-2.580000 -14.240000 16.129999 255 0 0
-2.020000 -13.700000 20.250000 0 255 0
-2.012100 -13.122100 8.020000 0 255 0
-2.310000 -13.770000 7.750000 0 255 0
-1.607800 -14.423300 7.514400 0 255 0
-2.357800 -13.370400 11.513900 0 255 0
-2.254000 -14.472000 -4.048000 0 255 255
-2.121400 -14.262900 -4.440000 0 255 255
-2.570000 -13.950000 -1.500000 255 0 0
-2.545000 -13.815000 -5.000000 0 255 0
-2.558000 -14.018000 8.058000 255 0 0
-2.554800 -13.918200 1.764200 0 255 0
-2.606700 -13.370000 11.603300 0 255 0
-3.452500 -13.773700 17.663799 0 255 0
-3.440000 -14.020000 11.600000 0 255 0
-3.457900 -13.474200 -4.738400 0 255 255
-3.310000 -13.570000 -3.920000 0 255 255
-2.750000 -14.890000 -4.670000 0 255 255
-2.750000 -13.915000 6.404000 255 0 0
-2.760000 -14.265000 14.305000 255 0 0
-2.756700 -13.823300 4.320000 255 0 0
-3.010800 -13.871500 14.960800 0 255 0
-3.150000 -15.090000 15.680000 0 255 0
-3.150000 -13.585000 -4.490000 0 255 255
-3.710000 -14.655000 11.675000 0 255 0
-3.215000 -13.875000 14.825000 0 255 0
-2.553300 -14.060000 15.366700 0 255 0
-2.571400 -13.977100 8.865700 255 0 0
-2.564800 -13.835700 5.467800 255 0 0
-2.562100 -13.871900 2.311000 255 0 0
-2.580000 -13.770000 -3.520000 0 255 0
-2.567000 -13.830000 6.013000 255 0 0
-2.548300 -14.070000 15.420000 0 255 0
-2.554600 -13.868400 2.759100 0 255 0
-3.490000 -14.410000 14.160000 0 255 0
-3.520000 -13.920000 -4.630000 0 255 255
-3.510000 -14.500000 8.015000 0 255 0
-3.504800 -14.623300 1.506900 0 255 0
-2.530000 -14.225000 13.825000 255 0 0
-3.556000 -13.326000 5.064000 0 255 0
-2.520000 -14.720000 13.580000 0 255 0
-2.510000 -14.230000 18.500000 255 0 0
-2.502500 -14.565000 3.665000 0 255 0
-3.460000 -14.570900 6.509100 0 255 0
-2.562000 -13.320000 -3.398000 0 255 255
-3.757100 -13.667100 4.965000 0 255 0
-3.265200 -13.071100 -4.895200 0 255 255
-3.410000 -14.926700 17.173300 0 255 0
-3.403600 -13.762700 -4.200900 0 255 255
-3.711400 -14.471400 6.612900 0 255 0
-3.160000 -13.040000 -4.620000 0 255 255
-3.158600 -13.071000 5.108000 0 255 0
-3.150000 -13.020000 -4.485700 0 255 255
-3.160000 -13.080000 4.950000 0 255 0
-3.723300 -13.623300 10.606700 0 255 0
-2.800000 -15.220000 17.990000 0 255 0
-2.790000 -14.450000 -5.000000 0 255 255
-2.480000 -13.850000 -4.710000 0 255 0
-2.460000 -14.060000 7.430000 255 0 0
-2.455000 -13.855000 -5.240000 0 255 0
-2.468000 -13.828000 -3.432000 0 255 0
-2.450000 -13.825000 -3.940000 0 255 0
-2.507500 -13.020000 -4.990000 0 255 255
-3.750000 -13.430000 -4.130000 0 255 255
-2.760000 -12.855000 -4.890000 0 255 255
-2.460000 -14.473300 -4.153300 0 255 255
-2.510000 -15.240000 13.210000 0 255 0
-2.509500 -15.070700 3.805900 0 255 0
-1.900000 -13.220000 -4.375000 0 255 255
-1.818200 -13.213600 -4.442700 0 255 255
-2.111700 -14.965600 5.608900 0 255 0
-2.113300 -14.976700 5.463300 0 255 0
-1.860000 -14.113300 17.520000 0 255 0
-1.712000 -14.417600 9.412800 0 255 0
-2.230000 -13.630000 -4.380000 0 255 255
-2.600000 -12.940000 -4.560000 0 255 255
-2.640000 -13.200000 -4.360000 0 255 255
-3.157100 -13.778600 14.902900 0 255 0
-3.125000 -14.315000 -4.510000 0 255 255
-3.090000 -14.035000 15.060000 0 255 0
-3.170000 -14.070000 14.990000 0 255 0
-3.270000 -13.690000 17.750000 0 255 0
-3.240000 -14.000000 -4.300000 0 255 0
-3.260000 -14.180000 11.604300 0 255 0
-3.259400 -14.020000 -4.228800 0 255 0
-3.260000 -14.170000 11.562000 0 255 0
-3.448300 -13.431700 -4.190000 0 255 255
-3.607500 -14.110000 -4.395000 0 255 255
-3.160000 -14.705000 -4.158300 0 255 255
-3.154400 -14.712200 -4.196700 0 255 255
-3.160000 -14.200000 -4.140000 0 255 255
-3.165000 -14.135000 15.400000 0 255 0
-3.940000 -13.300000 -4.250000 0 255 255
-3.675000 -13.475000 -4.240000 0 255 255
-3.760000 -13.870000 -3.980000 0 255 255
-3.865000 -13.715000 -3.987500 0 255 255
-4.005900 -14.121700 -4.243700 0 255 255
-3.700000 -13.850000 4.520000 0 255 0
-3.700000 -13.900000 -3.810000 0 255 255
-2.813000 -12.914500 9.360000 0 255 0
-2.267500 -13.702500 -4.650000 0 255 255
-2.250000 -13.455000 11.245000 0 255 0
-3.700000 -14.750000 -4.870000 0 255 255
-3.366700 -15.073300 11.656700 0 255 0
-3.353800 -14.815600 4.902500 0 255 0
-3.860000 -14.163300 -4.540000 0 255 255
-3.350000 -13.670000 19.090000 0 255 0
-3.361700 -14.030000 -3.845700 0 255 255
-2.705000 -15.130000 17.809999 0 255 0
-2.760000 -14.124300 12.008600 255 0 0
-2.740000 -14.430000 5.470000 0 255 0
-2.770000 -13.778700 -4.340900 255 0 0
-2.420000 -13.470000 -4.780000 0 255 255
-2.390000 -13.275000 7.860000 0 255 0
-1.960000 -14.710000 14.800000 0 255 0
-1.970000 -14.830000 21.090000 0 255 0
-3.380000 -13.690000 18.950001 0 255 0
-3.355700 -14.028700 -3.890300 0 255 255
-3.712500 -14.275000 6.545000 0 255 0
-2.710000 -14.110000 10.960000 255 0 0
-2.700000 -14.060000 9.690000 255 0 0
-2.700000 -14.124000 12.956000 255 0 0
-2.720000 -14.080000 8.840000 255 0 0
-2.690000 -14.260000 -4.200000 0 255 0
-2.710000 -14.122500 12.006200 255 0 0
-3.210000 -14.960000 14.890000 0 255 0
-3.330000 -14.150000 -3.810000 0 255 255
-3.665000 -14.515600 7.711300 0 255 0
-3.360000 -14.730000 -4.090000 0 255 255
-3.406700 -13.576700 15.060000 0 255 0
-2.252500 -14.617500 17.262501 0 255 0
-2.760000 -14.017300 -3.642700 255 0 0
-2.760000 -14.020000 0.058600 255 0 0
-2.752000 -13.868000 -2.986000 255 0 0
-2.762700 -13.966700 3.306000 255 0 0
-3.650000 -14.710000 -4.990000 0 255 255
-2.703300 -14.063300 9.766700 255 0 0
-2.708600 -14.123600 12.909300 255 0 0
-3.000000 -14.280000 -5.190000 0 255 0
-2.856500 -14.221800 -3.532900 0 255 0
-3.669200 -14.520800 7.759200 0 255 0
-3.562900 -14.660000 -4.237100 0 255 255
-1.752900 -14.114300 -4.477100 0 255 255
-2.663300 -14.086700 12.620000 255 0 0
-2.330000 -14.870000 -4.360000 0 255 255
-3.814200 -13.769500 4.820500 0 255 0
-2.750000 -14.390000 15.270000 0 255 0
-2.758900 -13.809300 -1.341100 255 0 0
-2.748600 -13.782900 1.815700 255 0 0
-2.756700 -13.815600 -3.682200 255 0 0
-2.761900 -13.779400 -0.439400 255 0 0
-1.930000 -14.340000 15.180000 0 255 0
-2.646700 -14.056700 2.926700 255 0 0
-2.762500 -13.317500 -3.127500 0 255 255
-2.470000 -14.060000 -4.950000 0 255 255
-2.480000 -13.910000 4.710000 255 0 0
-2.517500 -13.457500 11.652500 0 255 0
-2.200000 -14.205000 17.315001 0 255 0
-2.258300 -13.423300 11.361700 0 255 0
-1.943300 -14.456700 17.209999 0 255 0
-1.703300 -14.661700 14.805000 0 255 0
-2.003300 -14.180000 17.553301 0 255 0
-1.975000 -13.200000 -5.145000 0 255 255
-1.940000 -13.600000 20.940001 0 255 0
-2.522900 -13.870000 0.757100 255 0 0
-2.510000 -13.890000 0.690000 255 0 0
-1.640000 -14.040000 7.690000 0 255 0
-2.410000 -13.863300 -5.296700 0 255 0
-2.459200 -13.371500 7.354800 0 255 0
-1.560000 -13.930000 17.610001 0 255 0
-1.670000 -14.617500 14.655000 0 255 0
-3.013200 -13.676800 -3.395600 0 255 0
-2.993300 -13.661700 -3.331700 0 255 0
-2.825000 -13.868600 -0.437900 0 255 0
-2.820000 -13.950000 5.850000 255 0 0
-2.801700 -13.920000 2.816700 255 0 0
-2.800800 -14.011500 9.113100 255 0 0
-2.823300 -13.861100 -0.590000 255 0 0
-2.820000 -13.950000 5.730000 255 0 0
-2.803600 -13.921800 2.560900 255 0 0
-2.812000 -14.015000 8.866000 255 0 0
-2.800000 -13.780000 19.280001 0 255 0
-2.805000 -13.975000 6.200000 255 0 0
-2.801100 -13.906700 2.862200 255 0 0
-2.821400 -13.863600 -0.289300 255 0 0
-2.799200 -14.023100 9.363100 255 0 0
-1.660000 -14.620000 14.280000 0 255 0
-1.658700 -14.312000 7.514700 0 255 0
-1.800000 -14.380000 14.300000 0 255 0
-1.865200 -13.616300 -2.778900 0 255 255
-1.830000 -14.810000 9.380000 0 255 0
-3.280000 -14.280000 -4.430000 0 255 255
-1.940000 -13.390000 17.129999 0 255 0
-2.921600 -13.859400 -2.939700 0 255 0
-2.870000 -13.860000 16.860001 0 255 0
-2.854700 -13.785300 -2.691800 255 0 0
-2.890000 -13.560000 4.870000 0 255 0
-2.911100 -13.211100 -4.547800 0 255 255
-2.612000 -13.778000 4.406000 255 0 0
-2.515000 -14.225000 14.370000 255 0 0
-2.504000 -14.276000 17.612000 255 0 0
-3.310000 -12.940000 -4.260000 0 255 255
-3.314400 -13.976700 15.158900 0 255 0
-3.325000 -14.370000 -4.440000 0 255 255
-2.720000 -14.415000 12.225000 0 255 0
-2.705900 -13.805300 -0.033500 255 0 0
-2.706400 -13.770700 -3.297900 255 0 0
-2.696700 -14.263300 15.443300 255 0 0
-2.720000 -13.781000 -3.939000 255 0 0
-2.707500 -14.280000 14.602500 255 0 0
-2.704100 -13.806800 -0.788900 0 255 0
-2.690000 -14.290000 15.780000 255 0 0
-2.700600 -13.806900 -0.344400 255 0 0
-2.780000 -13.910000 1.380000 255 0 0
-2.762000 -14.006000 7.670000 255 0 0
-2.756000 -13.865400 4.610900 255 0 0
-2.757500 -14.010000 1.915000 255 0 0
-2.747500 -13.970000 5.065000 255 0 0
-2.747500 -13.921000 -4.390500 255 0 0
-3.330000 -13.460000 -4.000000 0 255 255
-3.320000 -13.470000 -4.020000 0 255 255
-2.512500 -15.190000 9.507500 0 255 0
-2.498000 -14.620000 13.520000 0 255 0
-3.203800 -14.920000 4.560000 0 255 0
-3.150000 -14.910000 13.860000 0 255 0
-3.180000 -14.870000 16.990000 0 255 0
-1.806700 -13.826700 -2.733300 0 255 255
-3.230000 -14.210000 13.060000 0 255 0
-2.860900 -14.967300 -4.740900 0 255 255
-3.665000 -14.756700 -4.125000 0 255 255
-3.450000 -14.070000 18.910000 0 255 0
-3.458300 -13.625000 -3.886700 0 255 255
-3.416700 -13.780000 -4.546700 0 255 255
-2.820000 -15.150000 12.440000 0 255 0
-2.800000 -13.865000 3.595000 255 0 0
-2.793300 -13.870000 3.466700 255 0 0
-3.715000 -14.525000 -4.795000 0 255 255
-3.606700 -13.464200 10.505800 0 255 0
-2.880000 -15.400000 16.650000 0 255 0
-3.412900 -13.427100 -4.079400 0 255 255
-2.350000 -13.820000 21.306700 0 255 0
-2.370000 -14.100000 14.900000 0 255 0
-2.490000 -13.830000 15.380000 0 255 0
-2.515000 -14.475000 6.355000 0 255 0
-2.530000 -13.820000 15.640000 0 255 0
-2.010000 -13.350000 -4.460000 0 255 255
-2.070000 -14.360000 15.210000 0 255 0
-3.070000 -13.200000 11.900000 0 255 0
-3.615400 -14.469200 7.808500 0 255 0
-2.456000 -15.066000 13.153000 0 255 0
-3.356400 -14.123600 -4.489100 0 255 255
-3.365700 -13.565700 4.995700 0 255 0
-3.355600 -13.772200 17.660000 0 255 0
-3.045000 -15.275000 18.004999 0 255 0
-3.170000 -15.080000 15.430000 0 255 0
-3.962000 -13.922000 -4.394000 0 255 255
-3.970000 -13.980000 -4.336700 0 255 255
-3.940000 -14.030000 -4.080000 0 255 255
-3.855200 -13.867100 -3.951400 0 255 255
-3.855000 -13.870000 -4.295000 0 255 255
-3.910000 -13.320000 -4.370000 0 255 255
-3.716700 -13.574400 -4.396700 0 255 255
-3.725000 -13.720000 4.650000 0 255 0
-3.710500 -13.568900 -4.337400 0 255 255
-3.730000 -14.200000 6.520000 0 255 0
-3.917500 -14.115000 -4.090000 0 255 255
-3.570000 -14.270000 14.965000 0 255 0
-3.352500 -13.820000 15.360000 0 255 0
-3.360000 -13.522400 -3.786200 0 255 255
-2.700000 -14.030000 6.850000 255 0 0
-2.706700 -13.983300 3.706700 255 0 0
-2.705000 -13.775000 16.775000 0 255 0
-2.817100 -12.928600 5.260000 0 255 0
-2.803300 -13.180000 -4.340000 0 255 255
-1.905000 -14.685000 -4.590000 0 255 255
-3.405000 -13.468800 14.966300 0 255 0
-3.392500 -13.272500 4.975000 0 255 0
-2.400000 -13.900000 2.810000 0 255 0
-2.440000 -13.410000 11.970000 0 255 0
-3.296700 -13.760000 -3.400000 0 255 255
-3.360000 -13.235000 -4.150000 0 255 255
-3.360000 -13.190000 -4.620000 0 255 255
-3.653500 -13.671800 -3.934700 0 255 255
-3.193300 -14.756700 15.360000 0 255 0
-3.352500 -14.070000 18.965000 0 255 0
-3.330000 -14.390000 -4.950000 0 255 255
-2.607700 -13.767700 -3.438500 255 0 0
-2.600000 -13.914000 6.466000 255 0 0
-2.601400 -13.855700 3.058600 255 0 0
-2.615000 -13.990000 9.600000 255 0 0
-2.617000 -13.824800 -0.088900 255 0 0
-3.203300 -15.163300 17.013300 0 255 0
-2.340000 -13.680000 7.520000 0 255 0
-2.015500 -13.315000 8.010500 0 255 0
-3.866000 -13.530000 -4.040000 0 255 255
-3.450000 -14.240000 15.200000 0 255 0
-3.556000 -13.060000 -4.390000 0 255 255
-3.530000 -13.230000 -4.450000 0 255 255
-2.480000 -13.480000 16.930000 0 255 0
-2.420000 -14.000000 -5.240000 0 255 255
-2.770000 -15.330000 16.459999 0 255 0
-3.305000 -14.325000 11.315000 0 255 0
-2.812500 -15.265000 19.014999 0 255 0
-3.755000 -13.923800 -4.493800 0 255 255
-1.920000 -14.540000 -4.420000 0 255 255
-2.758500 -13.784300 -0.639100 255 0 0
-2.747800 -13.807800 -3.890800 255 0 0
-1.852500 -14.087500 -3.427500 0 255 255
-2.380000 -12.910000 -4.500000 0 255 255
-2.267500 -14.110000 -5.427500 0 255 255
-2.015000 -14.475000 17.215000 0 255 0
-1.690000 -13.530000 -4.190000 0 255 255
-2.110000 -14.820000 18.559999 0 255 0
-2.308300 -12.810000 -5.035000 0 255 255
-2.350000 -14.060000 -3.820000 0 255 255
-2.370000 -14.230000 20.410000 0 255 0
-2.290000 -13.160000 -4.645000 0 255 255
-2.663300 -15.406700 17.816700 0 255 0
-2.480000 -13.930000 -4.780000 0 255 0
-2.527500 -14.175000 13.207500 255 0 0
-2.520000 -14.100000 9.950000 0 255 0
-3.007500 -13.480000 17.615000 0 255 0
-3.007500 -13.271000 4.961300 0 255 0
-2.320000 -14.316000 15.268000 0 255 0
-2.155000 -13.563300 -3.295800 0 255 255
-2.080000 -13.780000 -3.285000 0 255 255
-1.690000 -14.690000 14.550000 0 255 0
-2.563300 -13.560000 19.626699 0 255 0
-2.525000 -13.960000 1.455000 255 0 0
-3.360000 -14.065900 -3.480000 0 255 255
-3.362900 -14.057900 -3.435700 0 255 255
-2.390000 -15.300000 20.559999 0 255 0
-2.406000 -15.330000 20.312000 0 255 0
-2.900000 -14.920000 -4.440000 0 255 255
-3.197500 -14.770000 15.212500 0 255 0
-3.650000 -14.570000 -4.210000 0 255 255
-3.670000 -14.710000 11.700000 0 255 0
-3.640000 -14.670000 14.750000 0 255 0
-2.710000 -15.060000 18.610001 0 255 0
-2.575700 -14.121400 11.761400 255 0 0
-2.562900 -14.257100 14.910000 255 0 0
-3.000000 -14.610000 -4.180000 0 255 255
-3.000000 -14.600000 -4.900000 0 255 255
-2.957800 -13.468900 -3.494600 0 255 0
-2.800000 -13.570000 -3.175000 0 255 0
-3.410000 -13.530000 15.240000 0 255 0
-3.410000 -14.010000 -3.720000 0 255 255
-3.496700 -13.930000 15.080000 0 255 0
-3.754000 -14.524000 -4.146000 0 255 255
-3.158700 -13.777500 -4.642500 0 255 0
-3.160000 -13.610000 4.860000 0 255 0
-3.140000 -13.480000 -3.610000 0 255 255
-3.690000 -14.280000 -4.680000 0 255 255
-3.708000 -13.722000 4.956000 0 255 0
-1.695000 -13.570000 -4.660000 0 255 255
-2.717900 -13.028200 5.110300 0 255 0
-3.010000 -13.140000 11.900000 0 255 0
-2.865000 -13.122500 11.900000 0 255 0
-2.905000 -13.055000 -4.350000 0 255 255
-3.897500 -13.657500 -4.137500 0 255 255
-3.816700 -13.466700 -4.433300 0 255 255
-3.665000 -14.255000 17.504999 0 255 0
-3.650000 -14.313300 15.103300 0 255 0
-3.720000 -14.260000 13.290000 0 255 0
-2.970000 -13.370000 -3.500000 0 255 255
-3.762200 -14.115600 -4.495600 0 255 255
-3.110000 -15.160000 15.640000 0 255 0
-3.616700 -13.315000 -4.690000 0 255 255
-2.960000 -15.280000 13.370000 0 255 0
-2.950000 -15.212500 16.610001 0 255 0
-3.020000 -13.313600 -4.838200 0 255 255
-2.405000 -15.212500 13.010000 0 255 0
-2.630000 -13.980000 10.420000 255 0 0
-2.606700 -13.861700 3.860000 0 255 0
-2.609300 -13.906700 7.260000 255 0 0
-2.612900 -13.824300 0.711900 255 0 0
-3.610000 -13.210000 5.240000 0 255 0
-2.820000 -14.532500 20.552500 0 255 0
-3.300000 -14.550000 6.540000 0 255 0
-3.316000 -14.314000 11.516000 0 255 0
-2.800000 -13.470000 -3.060000 0 255 0
-3.310000 -13.110000 -4.240000 0 255 255
-3.195000 -15.170000 16.475000 0 255 0
-1.570000 -14.640000 14.640000 0 255 0
-2.700000 -14.190000 18.610001 0 255 0
-2.690000 -14.310000 15.720000 255 0 0
-2.710600 -13.822800 -3.438300 255 0 0
-3.524000 -14.606000 6.544000 0 255 0
-2.720000 -14.830000 19.600000 0 255 0
-3.445000 -14.062500 -3.427500 0 255 255
-2.819000 -13.068000 -4.646000 0 255 255
-2.801700 -13.221700 4.915000 0 255 0
-3.261400 -13.615700 -3.931400 0 255 255
-3.240000 -13.700000 15.400000 0 255 0
-1.793300 -13.576700 20.510000 0 255 0
-3.570000 -14.655000 11.605000 0 255 0
-3.390000 -14.240000 11.330000 0 255 0
-3.430000 -14.270000 11.320000 0 255 0
-3.415000 -13.532500 14.912500 0 255 0
-3.257300 -13.523300 -4.344000 0 255 255
-3.240000 -13.560000 -4.420000 0 255 255
-1.712300 -13.568500 -2.734400 0 255 255
-3.360000 -13.765000 -4.347500 0 255 255
-3.357500 -13.618800 -3.886200 0 255 255
-3.666000 -14.370000 15.006000 0 255 0
-3.663300 -13.874200 -3.986700 0 255 255
-3.655000 -14.320000 17.620001 0 255 0
-2.013300 -14.113300 19.230000 0 255 0
-2.920000 -15.370000 16.665001 0 255 0
-1.873300 -13.960000 15.453300 0 255 0
-2.560000 -13.267500 -5.137500 0 255 255
-2.956900 -13.426900 4.916200 0 255 0
-2.913300 -13.316700 -4.530000 0 255 0
-2.913300 -13.270000 5.015600 0 255 0
-3.460000 -13.950000 -3.440000 0 255 255
-3.465000 -14.525000 11.460000 0 255 0
-2.307800 -13.576100 7.667000 0 255 0
-2.375000 -13.005000 -4.845000 0 255 255
-2.025000 -14.530000 -4.840000 0 255 255
-1.510000 -14.190000 12.690000 0 255 0
-3.063300 -14.778300 14.811700 0 255 0
-3.064000 -14.866000 8.321000 0 255 0
-3.061500 -12.820800 4.914600 0 255 0
-3.055000 -12.972500 -4.890000 0 255 255
-3.063600 -14.226400 13.954500 0 255 0
-3.040000 -12.990000 -4.570000 0 255 255
-2.770000 -14.610000 14.390000 0 255 0
-2.755700 -14.574300 17.667101 0 255 0
-1.750000 -13.913300 12.816700 0 255 0
-1.968300 -14.773300 5.800000 0 255 0
-1.906700 -13.625000 -3.828300 0 255 255
-1.858600 -14.081400 14.162900 0 255 0
-1.895000 -13.625000 -4.197500 0 255 255
-2.163300 -14.466700 17.270000 0 255 0
-2.830000 -13.640000 17.040001 0 255 0
-2.823300 -13.620000 16.820000 0 255 0
-2.512000 -14.624000 -3.650000 0 255 255
-2.711700 -14.166700 13.361700 255 0 0
-3.230000 -13.750000 -4.600000 0 255 255
-3.208000 -13.722000 17.719999 0 255 0
-3.502000 -14.160000 -4.540000 0 255 255
-3.508600 -13.918600 17.657101 0 255 0
-3.156700 -13.726700 15.261700 0 255 0
-3.156400 -13.817900 -3.691400 0 255 0
-3.760000 -14.370000 13.260000 0 255 0
-3.360000 -14.410000 15.256700 0 255 0
-3.900000 -14.030000 -4.036700 0 255 255
-3.607500 -13.076200 -4.346300 0 255 255
-3.203800 -14.270000 15.212500 0 255 0
-2.310000 -13.680000 15.430000 0 255 0
-2.420000 -14.540000 -3.780000 0 255 255
-3.513000 -14.575000 6.509000 0 255 0
-3.167500 -14.368700 11.606300 0 255 0
-3.006700 -14.086700 -4.336700 0 255 0
-2.570000 -15.340000 20.410000 0 255 0
-2.465000 -13.985000 -4.075000 0 255 0
-2.650000 -14.520000 19.549999 0 255 0
-2.270000 -14.870000 9.430000 0 255 0
-2.559300 -14.921300 13.163300 0 255 0
-3.760000 -13.927500 -4.392500 0 255 255
-3.816700 -14.113300 -3.953300 0 255 255
-2.595000 -14.511700 -3.646700 0 255 255
-2.713600 -14.471800 -3.591400 0 255 255
-2.850000 -13.736700 -3.200000 255 0 0
-3.415700 -14.318600 -4.000000 0 255 255
-3.695000 -14.525000 -4.185000 0 255 255
-3.715000 -14.615000 14.745000 0 255 0
-3.480000 -14.660000 6.460000 0 255 0
-2.798600 -13.523800 -3.444300 0 255 0
-2.520000 -13.900000 -0.600000 255 0 0
-2.515000 -13.958800 2.660000 255 0 0
-2.704300 -13.322900 11.697100 0 255 0
-2.750000 -13.230000 -5.020000 0 255 255
-2.753300 -13.426700 11.860000 0 255 0
-2.756300 -13.470000 -3.280000 0 255 0
-2.660000 -14.230000 12.960000 255 0 0
-2.670000 -13.675000 -3.680000 0 255 0
-1.845000 -13.655000 -4.090000 0 255 255
-2.760000 -14.190000 9.890000 255 0 0
-2.702500 -14.060000 1.202500 255 0 0
-2.700000 -14.190000 -5.070000 0 255 0
-2.760000 -14.016700 4.220000 255 0 0
-2.763900 -13.962800 7.357800 255 0 0
-2.773300 -13.865000 0.865000 255 0 0
-2.758600 -14.017100 6.760000 255 0 0
-2.746000 -13.986000 10.010000 255 0 0
-2.751100 -13.870300 3.512000 255 0 0
-2.695000 -13.970000 5.065000 255 0 0
-2.713300 -14.003300 8.313300 255 0 0
-2.760000 -13.980000 0.415000 255 0 0
-2.760000 -14.000000 -2.820000 255 0 0
-1.755700 -13.666600 -3.697000 0 255 255
-3.563300 -14.571100 7.811100 0 255 0
-3.560000 -14.526700 -4.440000 0 255 255
-3.575000 -14.285000 11.455000 0 255 0
-3.560000 -14.460000 4.470000 0 255 0
-3.550000 -14.330000 14.360000 0 255 0
-3.571400 -14.622100 7.807100 0 255 0
-3.660000 -14.775000 -4.840000 0 255 255
-2.950000 -15.240000 12.350000 0 255 0
-3.440000 -13.210000 -4.000000 0 255 255
-3.190000 -14.890000 16.920000 0 255 0
-3.217300 -13.727300 -4.334500 0 255 255
-2.375000 -15.030000 3.840000 0 255 0
-1.662500 -13.965000 17.567499 0 255 0
-1.606700 -13.756700 14.270000 0 255 0
-3.760300 -13.816600 -3.937400 0 255 255
-3.630000 -14.760000 -4.110000 0 255 255
-2.595000 -14.675000 -4.240000 0 255 255
-2.614000 -14.113000 10.811000 255 0 0
-2.612200 -14.173300 13.955600 255 0 0
-1.900000 -14.200000 -5.360000 0 255 255
-3.250000 -14.250000 -3.650000 0 255 255
-2.745000 -13.270000 -4.745000 0 255 255
-3.310000 -13.970000 14.730000 0 255 0
-3.330000 -14.050000 18.860001 0 255 0
-3.306200 -12.862500 -4.851300 0 255 255
-3.370000 -14.600000 -4.100000 0 255 255
-3.450000 -14.150000 17.820000 0 255 0
-3.456000 -13.719000 -4.230000 0 255 255
-3.710000 -14.630000 -4.540000 0 255 255
-2.715000 -14.122500 -4.387500 0 255 0
-2.462600 -13.615200 7.210400 0 255 0
-2.259300 -14.228000 -4.388000 0 255 255
-1.480000 -14.300000 12.790000 0 255 0
-2.200000 -14.770000 -4.980000 0 255 255
-3.725000 -13.690000 4.850000 0 255 0
-2.760000 -12.960000 5.080000 0 255 0
-2.310000 -13.658000 7.610000 0 255 0
-2.020000 -13.730000 -5.030000 0 255 255
-2.407900 -14.865000 5.668600 0 255 0
-1.810000 -13.860000 -5.340000 0 255 255
-1.980000 -13.950000 20.670000 0 255 0
-1.722700 -14.131800 -4.577300 0 255 255
-1.713800 -13.716200 -4.135300 0 255 255
-1.550000 -13.930000 7.740000 0 255 0
-1.670000 -14.023300 14.306700 0 255 0
-2.876700 -14.030000 -2.590700 255 0 0
-3.105400 -13.180800 -4.292300 0 255 255
-2.260000 -14.140000 15.230000 0 255 0
-2.252200 -14.417800 -4.387800 0 255 255
-2.254000 -14.427300 -4.246000 0 255 255
-2.590000 -13.980000 6.430000 255 0 0
-2.612900 -13.814300 -3.297100 255 0 0
-2.600900 -13.869500 -0.138200 255 0 0
-2.590000 -13.900000 3.255000 255 0 0
-2.615000 -14.022500 9.765000 255 0 0
-2.610000 -14.090000 12.895000 255 0 0
-2.605000 -13.830000 -3.155000 255 0 0
-2.620000 -13.900000 2.990000 255 0 0
-2.622000 -14.023600 9.506400 255 0 0
-2.600900 -13.870000 0.109100 0 255 0
-1.780000 -14.530000 -4.010000 0 255 255
-2.615000 -14.980000 20.350000 0 255 0
-2.056000 -14.066000 -3.250000 0 255 255
-4.002500 -14.110000 -4.105000 0 255 255
-2.620000 -14.310000 11.160000 255 0 0
-2.696700 -14.076700 12.863300 255 0 0
-1.715000 -14.513300 12.718300 0 255 0
-2.163300 -13.372700 -3.639000 0 255 255
-2.560000 -14.625000 6.400000 0 255 0
-2.617500 -13.025000 -4.977500 0 255 255
-3.195000 -13.408000 -4.533000 0 255 255
-3.110000 -15.260000 16.549999 0 255 0
-3.840000 -14.430000 -4.580000 0 255 255
-2.750000 -14.030000 2.820000 255 0 0
-2.750000 -13.875000 -0.542500 255 0 0
-2.758600 -13.968600 5.947100 255 0 0
-2.450000 -14.405000 18.379999 255 0 0
-2.745000 -13.935000 9.510000 255 0 0
-2.760000 -13.970000 19.170000 0 255 0
-2.550000 -14.070000 13.330000 255 0 0
-2.541200 -13.970000 6.805000 0 255 0
-2.570700 -13.874400 0.260400 255 0 0
-2.565500 -13.829200 3.511100 0 255 0
-3.068200 -12.921800 -4.290900 0 255 255
-2.568600 -14.618600 5.617400 0 255 0
-3.360000 -14.520000 15.430000 0 255 0
-2.460000 -14.275000 17.490000 255 0 0
-3.430000 -13.070000 4.890000 0 255 0
-3.460000 -14.630000 15.860000 0 255 0
-3.454500 -14.112500 -4.536500 0 255 255
-2.760000 -14.163300 10.953300 255 0 0
-2.818000 -13.068000 11.858000 0 255 0
-2.693300 -13.753300 -4.603300 255 0 0
-2.720000 -13.710000 4.950000 0 255 0
-2.710000 -14.263300 15.150000 255 0 0
-2.703300 -14.176700 21.526699 0 255 0
-2.708000 -13.813200 -1.339100 255 0 0
-2.690000 -14.720000 -4.540000 0 255 255
-2.560000 -13.870000 -5.080000 0 255 0
-2.565800 -14.070800 7.562500 255 0 0
-2.549100 -13.920900 4.210000 255 0 0
-2.570300 -13.965900 1.064100 255 0 0
-2.560000 -14.056700 7.620000 255 0 0
-2.608000 -13.326000 11.968000 0 255 0
-2.580000 -14.030000 10.850000 255 0 0
-2.544300 -13.911400 4.554300 0 255 0
-2.565500 -13.967600 1.311200 255 0 0
-3.711500 -13.827000 4.613500 0 255 0
-2.572000 -13.414000 -3.496000 0 255 255
-3.920000 -13.860000 -4.190000 0 255 255
-2.800000 -13.880000 -4.637500 255 0 0
-2.800000 -13.900000 -1.370000 255 0 0
-2.799200 -13.960800 1.661500 255 0 0
-2.607500 -14.882500 13.067500 0 255 0
-3.210000 -14.262500 11.715000 0 255 0
-3.603700 -13.423700 -4.041100 0 255 255
-3.590000 -13.100000 4.700000 0 255 0
-3.623300 -13.353300 -4.770000 0 255 255
-3.200000 -13.986700 17.913300 0 255 0
-2.470000 -13.550000 16.969999 0 255 0
-3.010000 -14.520000 -4.023300 0 255 255
-1.965000 -14.821300 6.002500 0 255 0
-2.854300 -13.020000 -4.292900 0 255 255
-1.620000 -14.850000 19.330000 0 255 0
-3.808600 -13.477100 -4.401400 0 255 255
-2.310000 -14.860000 5.815000 0 255 0
-2.995000 -15.270000 14.410000 0 255 0
-3.060000 -13.430000 17.299999 0 255 0
-2.995000 -12.780000 -4.545000 0 255 255
-2.600000 -14.240000 19.469999 255 0 0
-2.622900 -14.125700 13.161400 255 0 0
-2.611700 -14.678300 -3.933300 0 255 255
-3.010000 -12.770000 -4.703300 0 255 255
-2.612500 -14.135000 13.312500 255 0 0
-3.110000 -14.410000 -3.990000 0 255 255
-3.230000 -13.700000 19.059999 0 255 0
-3.190000 -13.750000 -3.520000 0 255 255
-2.940000 -15.120000 12.390000 0 255 0
-2.865000 -14.777500 12.402500 0 255 0
-3.455000 -14.570000 11.615000 0 255 0
-3.153600 -14.619100 15.353600 0 255 0
-3.350000 -14.240000 -4.060000 0 255 255
-2.830000 -15.170000 13.360000 0 255 0
-3.500000 -13.770000 -4.250000 0 255 255
-3.360000 -13.840000 -3.920000 0 255 255
-3.360000 -15.050000 20.440001 0 255 0
-3.360000 -14.920000 17.100000 0 255 0
-3.355000 -15.075000 15.712500 0 255 0
-3.762700 -13.671800 10.272700 0 255 0
-1.710000 -14.177800 -4.083300 0 255 255
-2.760000 -14.120000 9.462500 255 0 0
-2.757500 -14.118300 11.355800 255 0 0
-2.745000 -14.130000 13.510000 255 0 0
-2.760000 -14.050000 16.750000 0 255 0
-2.766200 -13.781400 -3.040200 0 255 0
-3.330000 -14.740000 11.330000 0 255 0
-3.004600 -13.156200 -4.234600 0 255 255
-2.997500 -13.128800 -4.230000 0 255 255
-3.550000 -14.126700 -4.396700 0 255 255
-3.568300 -13.570000 -3.935000 0 255 255
-3.856700 -14.314400 -3.389400 0 255 255
-3.315000 -14.315000 11.640000 0 255 0
-3.290000 -14.420000 15.440000 0 255 0
-2.705000 -13.425000 -4.820000 0 255 255
-2.720000 -13.420000 -4.395000 0 255 255
-3.456700 -14.228300 -4.441700 0 255 255
-3.466700 -13.923300 15.100000 0 255 0
-3.854000 -13.612000 -4.696000 0 255 255
-3.760000 -13.183300 -4.696700 0 255 255
-1.775000 -14.520000 17.025000 0 255 0
-1.760000 -14.690000 20.160000 0 255 0
-3.210000 -15.180000 14.640000 0 255 0
-3.260000 -13.180000 5.140000 0 255 0
-3.652500 -14.212500 14.910000 0 255 0
-3.660000 -14.320000 7.840000 0 255 0
-3.670000 -14.220000 14.340000 0 255 0
-3.467500 -14.217500 -4.384200 0 255 255
-3.465000 -13.925000 15.165000 0 255 0
-2.420000 -14.865000 5.790000 0 255 0
-3.300000 -14.750000 -4.190000 0 255 255
-3.310000 -14.419400 11.360000 0 255 0
-3.310000 -14.830000 -4.970000 0 255 255
-3.310000 -14.629200 -4.148300 0 255 255
-3.315300 -14.505300 1.468900 0 255 0
-1.560000 -14.370000 7.350000 0 255 0
-3.560000 -14.890000 -4.990000 0 255 255
-2.680000 -14.170000 10.320000 255 0 0
-2.660000 -14.124300 13.458600 255 0 0
-3.353100 -14.564400 15.157500 0 255 0
-3.353300 -14.623300 11.506700 0 255 0
-3.220000 -14.020000 -4.490000 0 255 0
-3.215000 -13.570000 17.660000 0 255 0
-3.210000 -13.640000 20.820000 0 255 0
-3.655000 -13.815000 -4.460000 0 255 255
-3.350000 -13.325000 -4.600000 0 255 255
-3.560000 -13.324200 -4.775800 0 255 255
-3.906700 -14.153300 -4.496700 0 255 255
-2.602500 -15.077500 5.611300 0 255 0
-2.960000 -13.830000 -2.435000 255 0 0
-3.918600 -14.176100 -4.185000 0 255 255
-2.767100 -13.861200 2.112900 255 0 0
-2.758800 -13.966000 8.606800 255 0 0
-3.240000 -14.825000 -5.180000 0 255 255
-1.840000 -13.550000 -5.040000 0 255 255
-1.815000 -14.555000 20.254999 0 255 0
-3.955000 -14.582500 -4.840000 0 255 255
-3.265000 -14.880000 -5.035000 0 255 255
-2.100000 -14.680000 18.504999 0 255 0
-2.097300 -14.515500 -4.885500 0 255 255
-3.360000 -14.250000 11.840000 0 255 0
-2.700000 -14.030000 11.750000 255 0 0
-2.713300 -13.958700 8.611700 255 0 0
-3.407500 -13.515000 -4.692500 0 255 255
-2.400000 -14.420000 16.950001 0 255 0
-2.430000 -14.390000 13.800000 0 255 0
-3.450000 -13.825000 17.629999 0 255 0
-2.656700 -13.772200 -3.295600 255 0 0
-2.660000 -14.268600 15.461400 255 0 0
-1.460000 -14.470000 17.309999 0 255 0
-3.010000 -13.724400 15.112200 0 255 0
-2.313300 -13.363300 11.916700 0 255 0
-2.200000 -14.350000 21.450001 0 255 0
-2.257500 -13.315000 11.817500 0 255 0
-3.190000 -13.570000 15.210000 0 255 0
-3.200000 -14.050000 -3.600000 0 255 0
-3.390000 -14.910000 11.410000 0 255 0
-2.030000 -14.150000 15.120000 0 255 0
-2.900000 -12.760000 -4.220000 0 255 255
-1.962000 -14.226000 15.264000 0 255 0
-2.700000 -14.290000 12.100000 255 0 0
-2.710000 -14.330000 15.260000 255 0 0
-2.700000 -14.300000 14.380000 255 0 0
-1.918600 -14.522900 -4.344300 0 255 255
-1.775000 -13.410000 -4.205000 0 255 255
-1.700000 -14.155000 -3.985000 0 255 255
-2.657700 -13.767700 -3.396900 255 0 0
-2.655700 -14.261400 15.567100 255 0 0
-2.230000 -13.340000 11.630000 0 255 0
-2.530000 -14.120000 -3.560000 0 255 0
-2.503300 -13.826700 15.461700 0 255 0
-2.509000 -14.469500 6.465700 0 255 0
-1.700000 -14.175000 -4.340000 0 255 255
-1.708300 -14.153300 -4.433300 0 255 255
-3.668300 -14.233300 -3.355000 0 255 255
-2.080000 -14.116700 -5.200000 0 255 255
-2.860000 -15.010000 -4.620000 0 255 255
-2.850000 -13.790000 -0.160000 255 0 0
-2.670000 -15.035000 3.165000 0 255 0
-2.360800 -13.320000 7.913300 0 255 0
-3.160000 -14.930000 -5.230000 0 255 255
-2.420000 -13.565000 7.390000 0 255 0
-2.820000 -13.510000 -4.770000 0 255 0
-2.810000 -13.260000 5.011700 0 255 0
-1.870000 -13.940000 17.469999 0 255 0
-1.755700 -13.965700 -4.141400 0 255 255
-2.415000 -13.225000 -5.190000 0 255 255
-1.660000 -14.040000 7.830000 0 255 0
-1.680000 -13.910000 14.320000 0 255 0
-3.310000 -14.273300 -4.836700 0 255 255
-2.070000 -15.290000 19.250000 0 255 0
-1.866200 -13.575000 -3.693800 0 255 255
-1.916300 -13.360000 8.050000 0 255 0
-3.213200 -14.215900 7.655900 0 255 0
-3.225000 -13.970000 17.715000 0 255 0
-1.960000 -14.667800 9.451100 0 255 0
-3.820000 -14.330000 13.220000 0 255 0
-2.530000 -15.010000 -4.060000 0 255 255
-3.206000 -13.460000 -4.486000 0 255 255
-2.800000 -13.350000 11.740000 0 255 0
-2.740000 -14.050000 6.230000 255 0 0
-2.758000 -14.162000 12.716000 255 0 0
-2.775000 -14.170000 14.410000 255 0 0
-2.771700 -14.061700 8.110000 255 0 0
-2.760000 -14.205000 11.280000 255 0 0
-2.740000 -14.250000 -4.930000 0 255 0
-2.740000 -14.150000 16.680000 0 255 0
-2.752200 -14.208900 13.406700 255 0 0
-2.761500 -14.063800 10.363100 255 0 0
-3.940000 -13.390000 -4.780000 0 255 255
-3.680000 -13.540000 10.640000 0 255 0
-3.655000 -13.315000 -4.785000 0 255 255
-3.670000 -13.530000 10.610000 0 255 0
-3.115000 -14.671400 15.258600 0 255 0
-3.655000 -13.326700 -4.648300 0 255 255
-3.967900 -13.372600 -4.639500 0 255 255
-3.470000 -14.290000 -4.000000 0 255 255
-3.511200 -13.577500 -3.801300 0 255 255
-3.560000 -14.210000 11.712000 0 255 0
-3.565000 -13.476700 -4.691700 0 255 255
-2.856900 -13.735400 -3.744200 255 0 0
-2.430000 -14.770000 21.480000 0 255 0
-2.814000 -13.782000 -4.888000 0 255 0
-2.811100 -13.814300 -1.636800 255 0 0
-2.820000 -14.090000 14.360000 0 255 0
-2.811900 -13.806700 -2.289900 255 0 0
-2.860000 -13.280000 -4.760000 0 255 255
-3.070000 -13.750000 17.200001 0 255 0
-3.510000 -13.665000 -4.555000 0 255 255
-3.654200 -13.722500 -4.283300 0 255 255
-2.646000 -13.422000 7.256000 0 255 0
-3.055000 -13.977500 -4.650000 0 255 0
-3.190000 -14.150000 -3.350000 0 255 255
-3.220000 -14.180000 -3.490000 0 255 255
-3.610000 -13.272100 -4.785800 0 255 255
-1.860800 -14.468300 9.409200 0 255 0
-3.518500 -14.666500 6.457500 0 255 0
-1.966000 -13.574000 -3.782000 0 255 255
-1.951700 -14.861700 5.666700 0 255 0
-3.280000 -14.610000 -4.860000 0 255 255
-3.275000 -14.515000 1.475000 0 255 0
-1.910000 -14.300000 15.340000 0 255 0
-1.907400 -14.921800 5.917400 0 255 0
-2.217500 -13.315000 -3.602500 0 255 255
-2.826400 -13.979100 -0.487300 255 0 0
-2.821100 -13.980000 -0.442200 255 0 0
-1.960000 -14.871900 5.913700 0 255 0
-2.306700 -14.936700 5.900000 0 255 0
-2.310000 -14.928600 5.667100 0 255 0
-2.360000 -14.613300 6.256700 0 255 0
-2.460000 -15.120000 9.456700 0 255 0
-2.847500 -14.572500 -3.552500 0 255 255
-2.270000 -13.523300 -3.335000 0 255 255
-2.204700 -14.023700 -3.342600 0 255 255
-2.320000 -13.870000 -3.330000 0 255 255
-2.216000 -13.318000 -3.396000 0 255 255
-2.240000 -13.970000 15.650000 0 255 0
-2.368700 -14.168700 -4.440000 0 255 255
-2.580000 -15.080000 3.200000 0 255 0
-2.723300 -13.760000 -5.183300 0 255 0
-2.711500 -13.820200 -1.940800 255 0 0
-2.706700 -14.260000 15.600000 255 0 0
-2.715000 -13.775000 -3.340000 255 0 0
-2.708700 -13.806700 -0.188000 0 255 0
-3.070000 -14.000000 -3.330000 255 0 0
-2.430000 -14.515000 6.420000 0 255 0
-2.416700 -14.330000 19.046700 255 0 0
-2.817100 -14.024300 -1.480000 255 0 0
-2.811100 -13.957800 -4.741100 255 0 0
-2.810000 -14.033300 -3.356700 255 0 0
-2.780000 -15.130000 19.670000 0 255 0
-3.210000 -14.660000 15.560000 0 255 0
-2.368700 -13.775000 -3.287500 0 255 255
-2.362000 -13.767000 -3.331000 0 255 255
-2.815000 -15.025000 13.060000 0 255 0
-3.310000 -14.780000 15.540000 0 255 0
-1.911400 -14.615700 9.377100 0 255 0
-1.907800 -14.019400 -3.278300 0 255 255
-3.940000 -14.310000 -3.250000 0 255 255
-3.104300 -14.228600 13.957100 0 255 0
-3.320000 -14.990000 15.830000 0 255 0
-3.522200 -14.516100 6.609400 0 255 0
-3.805600 -13.807800 -4.384400 0 255 255
-3.030000 -13.610000 17.240000 0 255 0
-2.400000 -14.321100 17.468901 0 255 0
-2.420000 -14.315000 17.594999 0 255 0
-3.215000 -13.635000 17.094999 0 255 0
-3.362500 -13.417500 15.056200 0 255 0
-3.620000 -13.460000 10.420000 0 255 0
-2.710000 -13.735000 -0.900000 255 0 0
-2.693300 -14.183300 14.956700 255 0 0
-3.720000 -14.240000 14.280000 0 255 0
-3.709000 -14.320700 7.958700 0 255 0
-3.645000 -14.635000 11.520000 0 255 0
-3.820000 -14.525000 -4.038800 0 255 255
-3.750000 -14.590000 -4.250000 0 255 255
-2.261700 -13.611700 -3.230000 0 255 255
-2.198300 -13.911700 -3.255000 0 255 255
-3.370000 -14.580000 1.550000 0 255 0
-1.560000 -13.973300 17.773300 0 255 0
-3.450000 -13.870000 18.860001 0 255 0
-3.340000 -14.720000 -4.990000 0 255 255
-3.360000 -14.620000 15.400000 0 255 0
-1.862100 -13.567200 -3.791800 0 255 255
-1.600000 -13.762500 -2.547500 0 255 255
-3.010000 -13.272000 -3.944000 0 255 255
-3.420000 -13.660000 14.810000 0 255 0
-3.398600 -14.168600 -4.531400 0 255 255
-3.456000 -13.274000 -4.558000 0 255 255
-3.446700 -13.711700 14.966700 0 255 0
-3.640000 -14.690000 7.970000 0 255 0
-3.250000 -14.710000 20.900000 0 255 0
-3.250000 -14.870000 11.340000 0 255 0
-2.110000 -14.580000 20.045000 0 255 0
-2.766300 -13.565000 -4.891300 0 255 0
-2.870000 -15.380000 16.530001 0 255 0
-2.908900 -13.363300 -4.837800 0 255 0
-2.825000 -13.265000 17.757500 0 255 0
-3.200000 -14.110000 15.310000 0 255 0
-2.566700 -14.183300 13.756700 255 0 0
-3.280000 -14.280000 -4.850000 0 255 255
-2.470000 -13.090000 11.560000 0 255 0
-2.410000 -13.317500 12.062500 0 255 0
-1.940000 -13.810000 12.760000 0 255 0
-1.713000 -13.574000 -2.785000 0 255 255
-1.960000 -14.473300 16.959999 0 255 0
-1.870000 -14.500000 21.240000 0 255 0
-1.880000 -14.140000 -4.050000 0 255 255
-1.862000 -14.630000 14.761000 0 255 0
-2.170000 -15.120000 20.700001 0 255 0
-2.150000 -14.723300 -4.596700 0 255 255
-3.100000 -14.700000 15.160000 0 255 0
-2.126700 -13.273300 11.260000 0 255 0
-2.105000 -13.005000 -5.050000 0 255 255
-2.106100 -13.221100 8.014200 0 255 0
-1.990000 -13.410000 -5.300000 0 255 255
-1.990000 -13.780000 17.570000 0 255 0
-2.003300 -13.722800 14.512200 0 255 0
-1.616000 -14.771000 14.511000 0 255 0
-1.911200 -13.717600 14.513500 0 255 0
-2.120000 -14.280000 -3.980000 0 255 255
-2.120000 -14.615000 17.260000 0 255 0
-3.220000 -14.370000 -4.680000 0 255 255
-3.208300 -14.519200 4.854200 0 255 0
-2.940000 -13.280000 4.750000 0 255 0
-2.940000 -13.010000 -5.020000 0 0 255
-2.959000 -13.015000 -4.992000 0 0 255
-2.961800 -13.271100 4.913300 0 255 0
-2.320000 -14.100000 -5.310000 0 255 255
-2.950000 -14.287500 11.305000 0 255 0
-3.047800 -13.860000 -4.100000 255 0 0
-1.710000 -14.165000 17.764999 0 255 0
-1.694000 -14.018000 -4.634000 0 255 255
-1.520000 -14.240000 14.400000 0 255 0
-1.753600 -13.719100 -3.741600 0 255 255
-2.260000 -14.925000 3.465000 0 255 0
-1.940000 -13.640000 17.650000 0 255 0
-1.840000 -13.430000 -5.275000 0 255 255
-1.770000 -13.550000 -5.240000 0 255 255
-1.615000 -14.470000 7.725000 0 255 0
-2.640000 -14.270000 17.580000 255 0 0
-2.645000 -14.300000 14.415000 255 0 0
-2.665000 -13.780000 -2.185000 255 0 0
-3.660400 -12.915400 -4.844200 0 255 255
-1.680000 -14.350000 12.840000 0 255 0
-2.664700 -15.173300 13.010000 0 255 0
-2.610000 -14.420000 14.330000 0 255 0
-3.162000 -13.117000 -4.889000 0 255 255
-1.906200 -13.424500 -3.734300 0 255 255
-2.790000 -13.900000 8.290000 255 0 0
-1.870000 -14.750000 17.340000 0 255 0
-2.713300 -13.290000 -3.086700 0 255 255
-2.780000 -13.450000 16.840000 0 255 0
-2.562500 -13.267500 11.747500 0 255 0
-3.205000 -14.940000 14.855000 0 255 0
-3.976700 -14.390000 -4.420000 0 255 255
-2.506300 -13.673200 7.760500 0 255 0
-3.200000 -13.717300 -3.394700 0 255 255
-3.518600 -14.380000 14.962900 0 255 0
-3.355000 -14.535000 -4.940000 0 255 255
-3.620000 -13.220000 4.680000 0 255 0
-3.605000 -13.061700 -4.883300 0 255 255
-3.270000 -14.150000 -3.710000 0 255 255
-3.265000 -13.866700 15.318300 0 255 0
-1.917900 -14.122500 -3.242500 0 255 255
-2.700000 -15.340000 14.560000 0 255 0
-2.980000 -14.800000 13.960000 0 255 0
-3.280000 -15.120000 20.420000 0 255 0
-3.265700 -15.168600 17.161400 0 255 0
-2.658000 -12.870000 -4.946000 0 255 255
-2.480000 -13.240000 11.880000 0 255 0
-3.417400 -14.621100 -4.527900 0 255 255
-3.361400 -13.420000 -4.781400 0 255 255
-3.140000 -14.530000 15.280000 0 255 0
-3.160000 -14.610000 -4.110000 0 255 255
-1.740000 -14.160000 -4.120000 0 255 255
-1.995000 -13.155000 -5.050000 0 255 255
-2.015000 -13.580000 20.280001 0 255 0
-2.330000 -14.580000 20.530001 0 255 0
-1.755000 -14.170000 -4.082500 0 255 255
-1.755000 -14.185000 -4.320000 0 255 255
-2.550000 -14.280000 19.809999 255 0 0
-2.573300 -14.170000 13.311700 255 0 0
-2.350000 -14.270000 17.650000 0 255 0
-1.564500 -14.414500 12.619100 0 255 0
-1.554300 -14.414300 9.364300 0 255 0
-1.575000 -14.375000 12.495000 0 255 0
-2.510000 -15.280000 15.860000 0 255 0
-2.057500 -13.507500 -3.595000 0 255 255
-1.606500 -14.518000 9.411000 0 255 0
-1.625000 -14.175000 12.820000 0 255 0
-2.112500 -12.872500 -4.552500 0 255 255
-1.868200 -14.269100 9.555500 0 255 0
-1.840000 -14.920000 18.549999 0 255 0
-2.260000 -14.050000 -3.310000 0 255 255
-2.650000 -14.050000 6.060000 255 0 0
-2.000000 -13.980000 -3.360000 0 255 255
-2.561800 -14.016500 3.063500 255 0 0
-2.570000 -13.940000 -3.260000 0 255 0
-2.210000 -14.840000 17.219999 0 255 0
-2.115000 -13.620000 -3.305000 0 255 255
-3.109000 -13.822000 -3.535000 0 255 0
-2.716700 -14.060000 -3.273300 255 0 0
-2.765000 -13.075000 5.305000 0 255 0
-2.780000 -13.160000 11.820000 0 255 0
-2.808000 -14.966000 3.304000 0 255 0
-3.560000 -14.140000 13.140000 0 255 0
-2.950000 -13.640000 17.559999 0 255 0
-3.012500 -15.365000 16.520000 0 255 0
-3.760000 -14.260000 4.610000 0 255 0
-2.720000 -13.965000 6.615000 255 0 0
-2.708600 -14.012100 9.762500 255 0 0
-2.730000 -14.040000 9.050000 255 0 0
-2.722500 -13.987500 5.915000 255 0 0
-2.702200 -14.038900 0.212200 255 0 0
-2.698000 -13.964000 -3.039000 255 0 0
-2.720000 -13.866200 3.263100 255 0 0
-2.718600 -13.912900 6.510700 255 0 0
-1.953300 -14.476700 17.010000 0 255 0
-3.630000 -14.540000 18.570000 0 255 0
-2.150000 -14.720000 21.270000 0 255 0
-2.165000 -14.630000 14.975000 0 255 0
-2.462000 -13.268700 17.164000 0 255 0
-1.898000 -13.662000 -2.650000 0 255 255
-2.600000 -14.310000 19.260000 255 0 0
-2.605000 -14.170000 9.365000 255 0 0
-2.610000 -14.210000 12.500000 255 0 0
-2.610000 -14.260000 15.646000 255 0 0
-2.448000 -13.620000 7.342000 0 255 0
-2.461700 -13.921700 -3.396700 0 255 0
-3.210000 -14.573300 11.266700 0 255 0
-2.680000 -14.520000 21.480000 0 255 0
-2.180000 -14.320000 7.190000 0 255 0
-2.515000 -13.112500 -5.037500 0 255 255
-3.460000 -13.680000 19.010000 0 255 0
-3.040000 -14.380000 -4.100000 0 255 255
-3.009400 -13.821100 14.911100 0 255 0
-3.367100 -13.468600 15.051400 0 255 0
-2.953000 -13.665000 -4.840000 0 255 0
-2.952200 -13.711100 4.714700 0 255 0
-3.115400 -14.866900 4.653100 0 255 0
-3.555000 -13.870000 4.560000 0 255 0
-3.260000 -14.560000 4.950000 0 255 0
-3.703300 -14.510000 6.663300 0 255 0
-2.580000 -14.440000 15.813300 0 255 0
-1.640000 -14.210000 20.850000 0 255 0
-2.571700 -14.010800 2.618300 255 0 0
-2.600000 -13.460000 16.840000 0 255 0
-2.607500 -13.335000 7.407500 0 255 0
-3.700000 -14.320000 7.765000 0 255 0
-3.711700 -14.116700 -4.495800 0 255 255
-3.706700 -14.386700 7.770000 0 255 0
-3.704500 -14.167300 -4.493600 0 255 255
-3.713300 -14.230000 14.955000 0 255 0
-3.270000 -13.620000 -3.380000 0 255 255
-3.270000 -15.090000 15.560000 0 255 0
-2.770000 -13.930000 17.010000 0 255 0
-3.310000 -13.780000 -4.060000 0 255 255
-3.310000 -14.915000 17.219999 0 255 0
-3.850000 -13.680000 -4.550000 0 255 255
-3.030000 -13.360000 19.389999 0 255 0
-3.420000 -13.600000 4.950000 0 255 0
-3.402500 -13.825000 17.622499 0 255 0
-2.696300 -13.837500 6.213800 255 0 0
-2.700000 -13.788300 3.061700 255 0 0
-2.701800 -13.860000 -3.285900 255 0 0
-2.720000 -14.010000 -4.920000 0 255 0
-2.702700 -13.864500 -1.584500 255 0 0
-2.690000 -13.785000 4.555000 255 0 0
-2.695000 -13.840000 5.950000 255 0 0
-2.709500 -13.868100 -3.838800 255 0 0
-2.701300 -13.786300 2.705000 255 0 0
-3.464600 -13.830000 4.853800 0 255 0
-3.640000 -14.390000 11.590000 0 255 0
-3.190000 -14.240000 13.980000 0 255 0
-2.960000 -14.040000 7.570000 0 255 0
-2.953100 -13.963800 -1.731500 255 0 0
-2.973300 -13.926700 -4.032500 0 255 0
-2.970000 -14.280000 11.730000 0 255 0
-2.763300 -14.770000 15.110000 0 255 0
-2.780000 -15.080000 13.340000 0 255 0
-3.215300 -14.663300 -4.152700 0 255 255
-2.355700 -15.064300 5.605700 0 255 0
-3.410000 -12.800000 -4.650000 0 255 255
-3.350000 -14.260000 15.255000 0 255 0
-3.095000 -13.620000 -3.360000 0 255 255
-2.360000 -13.916200 -5.342500 0 255 255
-2.700000 -13.280000 11.740000 0 255 0
-2.715000 -13.270000 11.810000 0 255 0
-3.470000 -14.560000 11.660000 0 255 0
-3.457200 -14.522800 15.004400 0 255 0
-1.608900 -13.622400 -2.548400 0 255 255
