-14.860000 -0.440000 21.270000 0 255 0
-15.643300 -0.936700 3.106700 0 255 0
-15.650000 -1.000000 22.270000 0 255 0
-14.630000 -1.450000 19.389999 0 255 0
-14.620000 -1.180000 0.060000 0 255 255
-14.568500 -0.920600 0.466700 0 255 255
-14.595000 -0.320000 1.340000 0 255 255
-15.430000 -1.710000 21.840000 0 255 0
-15.470000 -0.465000 0.365000 0 255 255
-16.000000 -0.910000 0.340000 0 255 255
-15.350000 -1.320000 25.170000 255 0 0
-15.375000 -1.370000 22.020000 255 0 0
-15.840000 -0.810000 0.060000 0 255 255
-16.230000 -0.310000 0.480000 0 255 255
-15.730000 -1.070000 22.840000 0 255 0
-14.723300 -1.063300 25.713301 0 255 0
-14.718000 -1.162000 19.420000 0 255 0
-16.110001 -0.290000 1.440000 0 255 255
-15.770000 -1.110000 -0.235000 0 255 255
-15.740000 -1.510000 25.040001 0 255 0
-15.215700 -0.624300 22.221399 0 255 0
-15.050000 -1.472000 19.506001 0 255 0
-15.050000 -1.370000 26.010000 0 255 0
-15.590000 -1.810000 0.070000 0 255 255
-14.910000 -2.140000 21.000000 0 255 0
-15.260000 -0.870000 19.203300 0 255 0
-15.650000 -1.970000 22.750000 0 255 0
-16.254999 -0.875000 1.180000 0 255 255
-16.165001 -1.425000 22.270000 0 255 0
-16.370001 -1.070000 0.000000 0 255 255
-14.930000 -0.270000 0.180000 0 255 255
-14.970000 -2.020000 23.065001 0 255 0
-14.920000 -1.070000 18.809999 0 255 0
-14.657100 -0.921400 -0.135700 0 255 255
-16.557100 -1.221300 0.762600 0 255 255
-15.390000 -2.110000 22.080000 0 255 0
-14.950000 -1.830000 22.320000 0 255 0
-14.980000 -1.740000 16.969999 0 255 0
-16.352501 -1.621300 0.561300 0 255 255
-14.610000 -1.240000 24.629999 0 255 0
-14.600000 -1.950000 24.160000 0 255 0
-15.790000 -0.420000 1.075000 0 255 255
-15.310000 -2.435000 23.805000 0 255 0
-16.230000 -1.240000 25.700001 0 255 0
-15.670000 -1.750000 21.820000 0 255 0
-15.510000 -1.860000 25.629999 0 255 0
-15.980000 -0.540000 22.930000 0 255 0
-15.245000 -1.670000 19.010000 0 255 0
-14.713300 -1.403300 0.320000 0 255 255
-14.880000 -1.060000 25.750000 0 255 0
-14.857500 -1.155000 19.250000 0 255 0
-14.850000 -1.140000 22.530001 0 255 0
-15.110000 -1.550000 25.559999 0 255 0
-15.360000 -1.621300 21.746300 0 255 0
-15.615000 -1.477500 22.605000 0 255 0
-15.490000 -2.040000 22.889999 0 255 0
-16.260000 -1.570000 25.000000 0 255 0
-14.501400 -0.514300 1.065700 0 255 255
-16.110001 -0.910000 0.340000 0 255 255
-15.062900 0.127100 0.400000 0 255 255
-14.752000 -1.817000 0.514000 0 255 255
-15.440000 -0.590000 0.490000 0 255 255
-14.500000 -0.740000 0.040000 0 255 255
-14.720000 -2.150000 26.110001 0 255 0
-14.620000 -0.590000 0.130000 0 255 255
-15.059200 -0.120800 0.070000 0 255 255
-15.300000 -1.880000 26.400000 0 255 0
-14.820000 -2.010000 23.129999 0 255 0
-15.450000 -2.370000 23.709999 0 255 0
-15.652000 -1.632000 16.511999 0 255 0
-15.330000 -2.300000 24.090000 0 255 0
-15.270000 -1.870000 26.379999 0 255 0
-14.750000 -0.470000 14.850000 0 255 0
-14.755000 -0.567500 21.365000 0 255 0
-15.100000 -1.530000 18.895000 0 255 0
-16.090000 -1.965000 0.210000 0 255 255
-14.607500 -1.865000 0.745000 0 255 255
-14.595000 -1.465000 26.065001 0 255 0
-15.610000 -2.355000 23.555000 0 255 0
-15.600000 -1.310000 23.930000 0 255 0
-15.621100 -1.020700 4.112500 255 0 0
-16.110001 -1.680000 25.000000 0 255 0
-16.020000 -0.520000 0.880000 0 255 255
-16.213600 -0.510900 0.916400 0 255 255
-14.540000 -1.180000 22.950001 0 255 0
-14.556200 -1.522500 0.915000 0 255 255
-15.100000 -0.280000 0.170000 0 255 255
-16.250000 -1.890000 25.420000 0 255 0
-15.100000 -1.317500 19.567499 0 255 0
-15.870000 -0.680000 0.120000 0 255 255
-15.050000 -1.730000 17.200001 0 255 0
-15.060000 -1.556700 26.650000 0 255 0
-15.040000 -0.970000 18.360001 0 255 0
-15.115000 -0.870000 22.070000 0 255 0
-15.260000 -1.210000 12.610000 255 0 0
-15.267500 -1.170000 15.955000 255 0 0
-15.256200 -1.126300 19.106199 255 0 0
-15.473300 -1.266700 10.540000 255 0 0
-15.230000 -1.130000 19.290001 0 255 0
-15.280000 -0.590000 26.010000 0 255 0
-15.190000 -1.200000 -0.220000 0 255 255
-14.756000 -1.316000 0.252000 0 255 255
-14.780000 -1.740000 26.379999 0 255 0
-14.649500 -0.912000 0.465500 0 255 255
-15.463300 -0.513300 26.063299 0 255 0
-14.962700 -0.577300 0.111800 0 255 255
-15.106700 -0.913300 0.118300 0 255 255
-16.160000 -1.570000 0.420000 0 255 255
-15.680000 -0.600000 0.180000 0 255 255
-16.340000 -0.230000 0.500000 0 255 255
-16.348000 -0.912000 22.408001 0 255 0
-14.913300 -0.826700 22.410000 0 255 0
-15.160000 -0.505000 13.970000 0 255 0
-14.445000 -1.020000 0.410000 0 255 255
-14.570000 -1.530000 0.000000 0 255 255
-16.356701 -1.613300 0.653300 0 255 255
-14.646700 -0.883300 0.060000 0 255 255
-14.720000 -1.080000 26.410000 0 255 0
-15.930000 -0.390000 1.230000 0 255 255
-15.162700 -0.259100 0.056400 0 255 255
-14.760000 -0.880000 26.530001 0 255 0
-16.170000 -1.315000 22.620001 0 255 0
-16.261200 -0.426800 0.916800 0 255 255
-16.070000 -0.370000 1.495000 0 255 255
-16.150000 -1.730000 25.170000 0 255 0
-16.048000 -1.776000 0.758000 0 255 255
-16.056700 -1.376700 22.309999 0 255 0
-15.590000 -1.430000 20.959999 0 255 0
-15.410000 -1.420000 23.219999 255 0 0
-15.410000 -1.316200 16.707500 255 0 0
-15.860000 -2.230000 25.860001 0 255 0
-15.110000 -1.680000 26.605000 0 255 0
-15.710000 -1.570000 19.575001 0 255 0
-15.030000 -0.610000 14.070000 0 255 0
-15.460000 -1.290000 18.469999 255 0 0
-15.460000 -1.312000 15.210000 255 0 0
-15.857500 -2.016900 21.152500 0 255 0
-15.465000 -0.210000 0.475000 0 255 255
-16.240000 -0.140000 1.320000 0 255 255
-15.710000 -0.920000 0.401700 0 255 0
-15.630000 -1.730000 21.010000 0 255 0
-15.490000 -1.220000 21.870001 255 0 0
-14.366000 -1.419000 0.961000 0 255 255
-15.245000 -0.525000 14.160000 0 255 0
-15.860000 -1.930000 -0.040000 0 255 255
-14.690000 -1.160000 26.660000 0 255 0
-14.710400 -1.120600 0.361400 0 255 255
-14.905000 -1.175000 19.014999 0 255 0
-15.270000 -1.870000 26.410000 0 255 0
-15.240000 -0.500000 22.230000 0 255 0
-15.517500 -0.831000 0.363500 0 255 0
-14.455000 -1.325000 1.370000 0 255 255
-15.380000 -0.360000 0.620000 0 255 255
-15.050000 -1.120000 22.590000 0 255 0
-16.163300 -1.270000 22.263300 0 255 0
-15.190000 -2.415000 20.860001 0 255 0
-14.415000 -1.160000 0.815000 0 255 255
-15.980000 -0.280000 0.140000 0 255 255
-15.010000 -1.420000 25.995001 0 255 0
-15.140000 -1.610000 -0.300000 0 255 255
-15.190000 -1.160000 19.799999 0 255 0
-15.190000 -1.270000 26.290001 0 255 0
-15.050000 -0.005000 1.095000 0 255 255
-15.010000 -2.172200 16.926701 0 255 0
-15.111100 -0.076700 0.857400 0 255 255
-15.220000 -1.390000 25.280001 0 255 0
-15.190000 -1.720000 21.660000 0 255 0
-14.722000 -1.880000 0.610000 0 255 255
-15.200000 -1.420000 26.424999 0 255 0
-14.830000 -0.875000 -0.055000 0 255 255
-14.820000 -0.790000 19.100000 0 255 0
-14.454300 -1.415700 0.958600 0 255 255
-14.456400 -1.036400 0.559300 0 255 255
-15.510000 -1.020000 15.540000 255 0 0
-15.710000 -2.070000 21.230000 0 255 0
-15.860000 -2.075000 21.209999 0 255 0
-16.010000 0.070000 0.210000 0 255 255
-15.430000 -0.690000 0.230000 0 255 255
-15.742500 -0.102500 0.692500 0 255 255
-15.760000 -0.530000 26.004999 0 255 0
-15.270000 -1.710000 19.639999 0 255 0
-15.280000 -1.230000 10.650000 255 0 0
-15.270000 -1.160000 13.930000 255 0 0
-15.280000 -0.910000 4.520000 255 0 0
-15.266700 -1.123300 17.166700 255 0 0
-15.290000 -1.990000 22.799999 0 255 0
-15.320000 -1.430000 26.799999 0 255 0
-15.300000 -2.240000 17.090000 0 255 0
-14.680000 -1.670000 0.820000 0 255 255
-14.380000 -0.740000 0.640000 0 255 255
-14.730000 -1.380000 22.059999 0 255 0
-15.143300 0.023300 0.873300 0 255 255
-14.604000 -1.208000 -0.092000 0 255 255
-15.110000 0.100000 0.410000 0 255 255
-14.968600 -0.015700 0.915700 0 255 255
-15.340000 -1.800000 22.879999 0 255 0
-15.430000 -1.320000 19.400000 255 0 0
-15.400000 -1.440000 25.730000 255 0 0
-15.096000 -1.686000 18.218000 0 255 0
-16.365000 -1.385000 0.565000 0 255 255
-15.400000 -0.790000 3.190000 255 0 0
-15.400000 -0.825000 6.355000 255 0 0
-15.305000 -2.075000 22.915001 0 255 0
-15.580000 -1.062000 10.404000 255 0 0
-15.560000 -1.125000 7.155000 255 0 0
-16.100000 -1.760000 0.315000 0 255 255
-15.210000 -0.332000 0.020000 0 255 255
-16.299999 -1.523300 0.503300 0 255 255
-15.460000 -1.190000 20.280001 255 0 0
-14.959200 -0.302000 0.811600 0 255 255
-15.280000 -1.360000 20.910000 255 0 0
-15.513000 -0.861700 1.510200 255 0 0
-15.363300 -2.476700 24.010000 0 255 0
-15.360000 -2.335000 20.764999 0 255 0
-14.540000 -1.330000 1.110000 0 255 255
-15.300000 -1.865000 18.405001 0 255 0
-15.790000 -1.230000 23.450001 0 255 0
-15.265000 -1.122500 17.700001 255 0 0
-15.280000 -1.160000 14.556700 255 0 0
-15.608800 -1.174400 1.215000 255 0 0
-15.561700 -0.917000 5.858500 255 0 0
-15.548400 -1.153200 2.658400 0 255 0
-15.540000 -1.640000 25.590000 0 255 0
-15.548600 -1.024300 12.155700 255 0 0
-16.320000 -0.710000 1.130000 0 255 255
-14.946700 -0.720000 22.206699 0 255 0
-15.780000 -0.585000 0.365000 0 255 255
-15.590000 -1.000000 0.520000 255 0 0
-15.300000 -1.930000 26.855000 0 255 0
-15.908000 -1.770000 0.526000 0 255 255
-14.450000 -1.426700 0.870000 0 255 255
-15.390000 -2.410000 24.160000 0 255 0
-15.406000 -2.315300 17.862000 0 255 0
-15.470000 -0.410000 0.620000 0 255 255
-14.550000 -1.750000 21.610001 0 255 0
-14.470000 -0.760000 0.140000 0 255 255
-15.380000 -1.240000 6.030000 255 0 0
-14.510000 -0.440000 0.670000 0 255 255
-14.690000 -0.140000 0.530000 0 255 255
-14.503100 -0.411500 1.408500 0 255 255
-14.840000 -0.270000 14.680000 0 255 0
-15.600000 -1.160000 2.355000 255 0 0
-14.653300 -1.416700 0.950000 0 255 255
-14.910000 -2.062500 20.809999 0 255 0
-15.310000 -1.040000 17.070000 255 0 0
-15.520000 -1.300000 19.209999 0 255 0
-15.500000 -1.280000 16.040001 255 0 0
-15.610000 -1.710000 1.660000 0 255 255
-16.267500 -0.405000 1.095000 0 255 255
-15.190000 -1.260000 -0.380000 0 255 255
-15.190000 -0.340000 0.550000 0 255 255
-15.370000 -1.223300 7.063300 255 0 0
-14.810000 -0.200000 0.470000 0 255 255
-15.240000 -2.030000 26.770000 0 255 0
-15.140000 -1.360000 26.049999 0 255 0
-15.020000 -1.410000 -0.220000 0 255 255
-15.360000 -1.940000 0.530000 0 255 255
-15.340000 -1.300000 12.380000 255 0 0
-15.356700 -1.563300 21.860001 0 255 0
-15.646700 -1.626700 17.296700 0 255 0
-14.980000 -0.550000 22.120001 0 255 0
-15.200000 0.020000 0.960000 0 255 255
-15.620000 -1.480000 19.709999 0 255 0
-15.605000 -1.162500 0.712500 255 0 0
-16.280001 -1.250000 0.870000 0 255 255
-16.240000 -1.700000 24.610001 0 255 0
-14.910000 -1.866700 16.963301 0 255 0
-15.316700 -1.323300 23.346701 255 0 0
-15.360900 -0.178200 0.946400 0 255 255
-15.807600 -1.021300 0.560200 0 255 0
-15.620000 -1.190000 1.090000 0 255 0
-15.026000 -1.924000 -0.188000 0 255 255
-14.910000 -1.273300 19.260000 0 255 0
-14.890000 -1.180000 0.120000 0 255 255
-15.570000 -1.200000 2.520000 0 255 0
-15.557600 -1.159700 5.657600 255 0 0
-16.160000 -0.650000 0.720000 0 255 255
-16.174999 -1.735000 25.090000 0 255 0
-15.170000 -1.590000 -0.270000 0 255 255
-15.150000 -1.210000 21.740000 0 255 0
-15.460000 -1.975000 22.620001 0 255 0
-15.180000 -1.620000 18.219999 0 255 0
-15.530000 -1.000000 9.160000 255 0 0
-15.516200 -1.133800 2.612500 255 0 0
-15.976000 -0.802000 1.024000 0 255 255
-16.620001 -0.570000 1.600000 0 255 255
-16.615000 -0.615000 1.200000 0 255 255
-15.606700 -1.270000 0.816700 0 255 0
-16.570000 -1.530000 1.110000 0 255 255
-15.530000 -1.140000 14.070000 255 0 0
-15.504300 -1.214300 7.760700 255 0 0
-15.505800 -1.158200 4.612700 255 0 0
-15.503300 -1.201700 5.820000 255 0 0
-15.510300 -1.158700 2.561300 255 0 0
-15.593000 -1.104000 3.957000 255 0 0
-15.590000 -1.160000 7.130000 255 0 0
-15.013500 -0.166500 0.056000 0 255 255
-15.456700 -1.260000 11.706700 255 0 0
-15.450000 -1.340000 8.580000 0 255 0
-15.110000 -1.030000 -0.220000 0 255 255
-15.080000 -1.510000 18.930000 0 255 0
-15.060000 -2.070000 23.270000 0 255 0
-15.210000 0.095000 0.875000 0 255 255
-14.547500 -1.925000 0.875000 0 255 255
-15.552500 -1.322500 0.652500 0 255 0
-15.340000 -0.950000 15.890000 0 255 0
-15.805000 -1.220000 26.922501 0 255 0
-14.363300 -1.363300 26.413300 0 255 0
-15.808000 -0.518000 25.920000 0 255 0
-15.700000 -1.720000 22.700001 0 255 0
-15.980000 -0.600000 1.060000 0 255 255
-14.570000 -1.700000 0.540000 0 255 255
-16.080000 -0.630000 0.770000 0 255 255
-16.270000 -1.880000 24.990000 0 255 0
-15.350000 -1.065000 23.295000 0 255 0
-15.570000 -2.110000 0.010000 0 255 255
-15.566700 -1.116700 12.660000 255 0 0
-15.810000 -0.535000 1.305000 0 255 255
-15.810000 -0.630000 1.180000 0 255 255
-15.320000 -1.870000 25.969999 0 255 0
-15.090000 -1.790000 21.370001 0 255 0
-15.850000 -1.380000 22.420000 0 255 0
-15.265000 -0.335000 0.120000 0 255 255
-14.740000 -0.860000 0.040000 0 255 255
-14.696700 -1.420000 26.163300 0 255 0
-15.240000 -0.660000 0.370000 0 255 255
-16.080000 -0.940000 1.140000 0 255 255
-15.790000 -1.140000 21.480000 0 255 0
-15.280000 -0.850000 18.920000 0 255 0
-15.257500 -0.812500 22.170000 0 255 0
-15.010000 -0.930000 19.299999 0 255 0
-15.646000 -1.015500 2.911000 0 255 0
-15.115000 -1.720000 26.600000 0 255 0
-14.740000 -2.240000 26.150000 0 255 0
-16.080000 -1.050000 1.090000 0 255 255
-14.930000 -0.670000 19.209999 0 255 0
-15.380000 -0.280000 0.570000 0 255 255
-15.340000 -1.750000 19.379999 0 255 0
-15.340000 -1.876700 25.856701 0 255 0
-14.614300 -0.273100 1.305700 0 255 255
-16.250000 -0.340000 1.290000 0 255 255
-16.264999 -0.975000 22.306700 0 255 0
-14.550000 -1.070000 0.117500 0 255 255
-15.430000 -1.740000 22.709999 0 255 0
-15.580000 -1.080000 5.750000 255 0 0
-15.565000 -1.167500 12.075000 255 0 0
-15.560000 -1.220000 8.906700 255 0 0
-15.567000 -1.133900 2.606900 255 0 0
-15.253300 -0.580000 22.270000 0 255 0
-15.860000 -0.520000 1.050000 0 255 255
-14.266700 -1.430700 21.615999 0 255 0
-16.080000 -1.520000 0.590000 0 255 255
-15.070000 -1.390000 25.950001 0 255 0
-15.070000 -1.470000 19.672501 0 255 0
-16.674999 -1.230000 0.560000 0 255 255
-15.290000 -2.360000 18.040001 0 255 0
-15.665000 -0.765000 25.780001 0 255 0
-14.420000 -1.690000 21.480000 0 255 0
-15.460000 -1.220000 22.705000 0 255 0
-15.460000 -0.130000 0.255000 0 255 255
-15.440000 -0.840000 6.010000 255 0 0
-14.610000 -1.310000 -0.010000 0 255 255
-14.980000 -0.050000 0.140000 0 255 255
-15.290000 -1.480000 25.930000 255 0 0
-14.975000 -1.070000 26.504999 0 255 0
-15.260000 -2.335000 26.440001 0 255 0
-15.050000 -1.940000 18.410000 0 255 0
-14.290000 -1.440000 0.630000 0 255 255
-14.953500 -0.105900 1.008800 0 255 255
-15.270000 -1.050000 10.710000 255 0 0
-14.740000 -1.710000 26.510000 0 255 0
-15.070000 -1.320000 18.365000 0 255 0
-15.550000 -0.950000 2.680000 255 0 0
-15.266700 -1.310000 15.506700 255 0 0
-15.140000 -1.430000 19.330000 0 255 0
-14.960000 -1.771400 -0.282900 0 255 255
-14.940000 -2.170000 26.629999 0 255 0
-14.810000 -0.830000 19.150000 0 255 0
-14.620000 -1.830600 0.456300 0 255 255
-14.620000 -1.400000 26.540001 0 255 0
-14.762500 -0.775000 0.155000 0 255 255
-15.030000 -0.470000 14.610000 0 255 0
-15.800000 -1.250000 0.830000 0 255 255
-15.210000 -1.530000 25.680000 0 255 0
-14.405000 -1.260000 0.260000 0 255 255
-15.030000 -0.780000 0.210000 0 255 255
-14.753300 -1.760000 19.600000 0 255 0
-14.525000 -1.315000 19.674999 0 255 0
-16.450001 -1.370000 24.420000 0 255 0
-16.455000 -0.940000 1.540000 0 255 255
-15.170000 -0.185000 0.245000 0 255 255
-15.010000 -0.410000 0.630000 0 255 255
-15.450000 -2.200000 26.559999 0 255 0
-15.510000 -0.960000 21.450001 0 255 0
-15.513300 -1.073300 15.103300 0 255 0
-15.511900 -1.175000 8.811900 255 0 0
-15.507800 -1.221100 11.967800 255 0 0
-15.210000 -2.030000 26.709999 0 255 0
-14.710000 -1.610000 19.860001 0 255 0
-14.690000 -1.530000 26.379999 0 255 0
-14.710000 -1.870000 23.250000 0 255 0
-15.600000 -0.362000 25.958000 0 255 0
-15.420000 -0.930000 12.460000 255 0 0
-15.540000 -1.073300 13.560000 255 0 0
-15.550000 -1.240000 16.690001 255 0 0
-15.580000 -1.128000 10.414000 255 0 0
-14.780000 -1.190000 -0.110000 0 255 255
-15.000000 -0.065000 0.092500 0 255 255
-14.770000 -1.060000 14.240000 0 255 0
-15.180000 -0.240000 0.600000 0 255 255
-14.614300 -1.728600 0.700000 0 255 255
-14.600000 -1.700000 0.630000 0 255 255
-14.590000 -1.310000 26.730000 0 255 0
-14.460000 -1.450000 0.750000 0 255 255
-15.925000 0.015000 0.515000 0 255 255
-16.590000 -0.920000 0.940000 0 255 255
-15.590000 -1.160000 8.600000 255 0 0
-15.620000 -1.074500 2.113700 255 0 0
-15.601100 -1.120800 5.257000 255 0 0
-15.520000 -1.050000 17.139999 255 0 0
-15.520000 -1.235000 13.915000 255 0 0
-15.516700 -1.190000 10.666700 255 0 0
-14.970000 -1.900000 21.155001 0 255 0
-14.440000 -1.110000 0.290000 0 255 255
-15.310000 -2.360000 23.840000 0 255 0
-15.310000 -1.840000 26.360001 0 255 0
-15.160000 -1.400000 19.160000 0 255 0
-15.260000 -1.314000 19.615999 0 255 0
-14.590000 -1.160000 24.190001 0 255 0
-15.170000 -2.255000 16.825001 0 255 0
-16.010000 -2.110000 21.790001 0 255 0
-14.556700 -1.775600 0.849300 0 255 255
-14.563300 -1.356700 26.166700 0 255 0
-16.312500 -1.419200 0.606700 0 255 255
-14.628300 -1.588300 0.258300 0 255 255
-15.262000 -2.022000 22.700001 0 255 0
-14.350000 -1.350000 26.299999 0 255 0
-15.210000 -2.230000 16.870001 0 255 0
-15.410000 -1.315000 19.459999 255 0 0
-15.545000 -1.270000 12.765000 255 0 0
-16.540001 -1.300000 0.990000 0 255 255
-15.275000 -1.060000 13.620000 255 0 0
-15.280000 -1.290000 26.270000 0 255 0
-16.290001 -1.520000 22.469999 0 255 0
-15.452300 -1.262300 12.116200 255 0 0
-16.115000 -1.460000 22.305000 0 255 0
-15.420000 -1.340000 19.770000 255 0 0
-15.005000 -1.555000 25.020000 0 255 0
-14.650000 -1.078000 24.150000 0 255 0
-14.716800 -0.520000 -0.041600 0 255 255
-15.410000 -1.340000 19.510000 255 0 0
-15.230000 -1.130000 18.889999 0 255 0
-15.070000 -1.670000 18.959999 0 255 0
-15.070000 -1.600000 22.100000 0 255 0
-15.070000 -1.810000 19.900000 0 255 0
-15.050000 -1.770000 23.165001 0 255 0
-14.262900 -1.518600 22.367100 0 255 0
-15.430000 -2.225000 24.205000 0 255 0
-15.400000 -2.165000 20.862499 0 255 0
-15.360000 -1.380000 25.160000 255 0 0
-15.360000 -2.040000 22.860001 0 255 0
-15.650000 -1.680000 25.580000 0 255 0
-15.420000 -1.810000 18.219999 0 255 0
-14.550000 -1.660000 0.346000 0 255 255
-14.201400 -0.950000 0.557100 0 255 255
-14.462200 -0.776700 0.823300 0 255 255
-15.440000 -1.340000 24.010000 255 0 0
-15.458200 -0.861200 1.160500 255 0 0
-15.468300 -1.381700 20.966700 255 0 0
-16.059999 -1.640000 26.700001 0 255 0
-15.150000 -0.850000 26.469999 0 255 0
-15.810000 -1.740000 25.000000 0 255 0
-15.820000 0.180000 0.260000 0 255 255
-15.820000 -1.670000 21.660000 0 255 0
-15.355000 -1.970000 22.805000 0 255 0
-15.166700 -2.316700 17.806700 0 255 0
-14.862700 -0.421800 14.266800 0 255 0
-15.370000 -2.063300 26.116699 0 255 0
-14.890000 -0.630000 -0.140000 0 255 255
-16.411400 -1.571400 0.711400 0 255 255
-15.510000 -1.790000 22.680000 0 255 0
-14.416300 -0.775000 1.173700 0 255 255
-14.450000 -1.915000 24.174999 0 255 0
-15.275000 -1.270000 16.400000 255 0 0
-15.280000 -1.040000 6.620000 255 0 0
-15.273300 -1.210000 19.653299 255 0 0
-14.857000 -1.828000 16.966999 0 255 0
-15.330000 -1.020000 17.100000 255 0 0
-14.458600 -1.067100 0.224300 0 255 255
-14.457100 -1.282900 0.970000 0 255 255
-15.630000 -2.240000 19.799999 0 255 0
-15.621700 -1.068300 23.411699 0 255 0
-15.440000 -1.670000 24.440001 0 255 0
-14.810000 -2.170000 20.790001 0 255 0
-14.790000 -1.475000 0.880000 0 255 255
-15.415000 -0.910000 23.299999 0 255 0
-15.280000 -1.080000 12.230000 255 0 0
-15.512500 -0.475000 26.022499 0 255 0
-15.560000 -1.177500 11.462500 255 0 0
-15.545000 -1.200000 8.312500 255 0 0
-15.564500 -1.131400 2.008200 255 0 0
-15.190000 -0.770000 14.550000 0 255 0
-15.670000 -0.980000 25.750000 0 255 0
-15.490000 -1.320000 15.770000 255 0 0
-15.504000 -1.256000 12.522000 255 0 0
-15.557500 -0.277500 23.112499 0 255 0
-15.930000 -1.340000 15.450000 0 255 0
-16.368200 -0.056400 1.711800 0 255 255
-15.360000 -1.220000 5.365000 255 0 0
-14.920000 -2.030000 26.709999 0 255 0
-14.930000 -1.850000 16.930000 0 255 0
-15.520000 -1.180000 13.570000 255 0 0
-15.495000 -1.225000 16.815001 255 0 0
-14.890000 -1.120000 19.020000 0 255 0
-15.425000 -0.785000 4.600000 255 0 0
-15.410000 -0.890000 10.920000 255 0 0
-16.070000 -0.870000 1.130000 0 255 255
-15.430000 -2.190000 23.830000 0 255 0
-14.880000 -0.780000 19.240000 0 255 0
-14.800000 -0.430000 21.610001 0 255 0
-16.375700 -1.111400 0.828600 0 255 255
-16.363300 -1.780000 24.803301 0 255 0
-15.260000 -1.080000 11.905000 255 0 0
-14.513000 -0.720900 1.216300 0 255 255
-15.000000 0.040000 0.870000 0 255 255
-14.763300 -1.017800 -0.137800 0 255 255
-14.723300 -1.370000 19.463301 0 255 0
-14.400000 -0.690000 0.400000 0 255 255
-15.307500 -1.855000 18.459999 0 255 0
-15.300000 -1.740000 21.629999 0 255 0
-14.945000 -0.340000 21.370001 0 255 0
-15.300000 -0.550000 14.020000 0 255 0
-15.505000 -1.070000 19.055000 255 0 0
-15.525000 -1.207500 16.022499 255 0 0
-14.354600 -0.924600 1.195400 0 255 255
-15.790000 -0.700000 25.870001 0 255 0
-15.652900 0.081400 0.660000 0 255 255
-14.452500 -0.970000 1.150000 0 255 255
-15.107500 -0.630000 22.252501 0 255 0
-14.714000 -0.224000 0.458000 0 255 255
-16.056200 -1.930000 0.905000 0 255 255
-16.240000 -0.260000 1.050000 0 255 255
-15.020000 -1.880000 26.670000 0 255 0
-15.930000 -2.073300 0.880000 0 255 255
-14.780000 -0.110000 0.590000 0 255 255
-15.623300 -1.713300 17.256701 0 255 0
-14.710000 -2.130000 22.809999 0 255 0
-15.502000 -0.840000 1.908000 255 0 0
-15.273300 -1.876700 -0.156700 0 255 255
-15.162500 -0.625000 22.225000 0 255 0
-14.750000 -1.910000 23.469999 0 255 0
-14.760000 -1.865000 26.629999 0 255 0
-14.660000 -0.780000 0.010000 0 255 255
-14.620000 -1.720000 19.770000 0 255 0
-14.665000 -1.810000 0.615000 0 255 255
-14.670000 -1.530000 19.780001 0 255 0
-15.610000 -1.660000 17.160000 0 255 0
-15.211400 -0.768600 14.458600 0 255 0
-15.060000 -0.050000 0.453300 0 255 255
-15.000000 -2.130000 16.879999 0 255 0
-15.510000 -0.210000 0.190000 0 255 255
-15.217800 0.038900 0.164400 0 255 255
-16.330000 -0.410000 1.300000 0 255 255
-15.860000 -1.983300 16.709999 0 255 0
-16.190001 -0.350000 1.590000 0 255 255
-15.203300 -0.810000 14.458300 0 255 0
-15.107000 -0.115000 0.357000 0 255 255
-15.575000 -1.190000 15.115000 255 0 0
-15.571400 -1.062900 8.808600 255 0 0
-15.560000 -1.230000 11.850000 255 0 0
-15.566900 -1.136900 5.561900 255 0 0
-15.730000 -1.550000 -0.360000 0 255 255
-15.110000 -1.400000 18.440001 0 255 0
-15.020000 -1.116700 18.406700 0 255 0
-14.330000 -1.600000 26.080000 0 255 0
-14.720000 -1.130000 0.610000 0 255 255
-15.480000 -2.330000 23.580000 0 255 0
-14.710000 -1.160000 21.290001 0 255 0
-14.920000 -1.320000 25.690001 0 255 0
-16.160000 -0.400000 0.660000 0 255 255
-14.210000 -0.940000 0.740000 0 255 255
-15.840000 -0.160000 0.710000 0 255 255
-14.960000 -0.063300 0.090000 0 255 255
-15.580000 -1.067500 10.257500 255 0 0
-15.546700 -1.210000 13.600000 255 0 0
-15.540000 -1.190000 16.770000 255 0 0
-15.573300 -1.119200 7.108300 255 0 0
-15.330000 -1.340000 9.860000 0 255 0
-14.765000 -1.305000 -0.220000 0 255 255
-14.425000 -1.240000 1.205000 0 255 255
-16.146700 -1.776700 0.763300 0 255 255
-15.410000 -1.970000 24.540001 0 255 0
-15.040000 -2.290000 16.780001 0 255 0
-15.130000 -1.240000 18.740000 0 255 0
-15.090000 -1.090000 21.969999 0 255 0
-15.095000 -1.340000 18.340000 0 255 0
-15.100000 -1.180000 21.719999 0 255 0
-15.905000 -2.225000 23.700001 0 255 0
-15.605000 -2.270000 23.555000 0 255 0
-15.350000 -2.280000 26.440001 0 255 0
-16.250000 -1.270000 22.120001 0 255 0
-15.300000 -1.417500 19.625000 0 255 0
-15.540000 -1.680000 23.379999 0 255 0
-15.770000 -1.100000 0.270000 0 255 0
-14.363300 -1.033300 23.266701 0 255 0
-14.640000 -1.740000 0.630000 0 255 255
-15.220000 -1.130000 18.200001 0 255 0
-16.260000 -1.360000 22.440001 0 255 0
-16.389999 -1.490000 0.710000 0 255 255
-16.375000 -1.810000 0.915000 0 255 255
-15.075000 -0.785000 0.025000 0 255 255
-15.010000 -1.515000 21.520000 0 255 0
-15.006200 -1.477500 18.167500 0 255 0
-15.565600 -1.873300 1.013700 0 255 255
-15.555000 -2.325000 23.860001 0 255 0
-15.724000 0.074000 0.612000 0 255 255
-15.715000 -0.825000 0.360000 0 255 0
-15.023300 -1.236700 0.023300 0 255 255
-14.848000 -0.176000 0.220000 0 255 255
-14.864500 -0.374500 14.065500 0 255 0
-15.490000 -1.270000 18.840000 255 0 0
-15.105000 -0.907500 0.150000 0 255 255
-15.230000 -2.380000 17.430000 0 255 0
-15.900000 0.210000 0.360000 0 255 255
-15.360000 -0.877500 6.115000 255 0 0
-14.852400 -0.174700 0.964700 0 255 255
-14.608100 -1.425600 1.306300 0 255 255
-15.960000 -1.420000 26.395000 0 255 0
-16.014999 -0.420000 0.830000 0 255 255
-15.160000 -1.510000 -0.430000 0 255 255
-14.566000 -1.610000 0.870000 0 255 255
-15.403300 -1.780000 22.703300 0 255 0
-15.790000 -1.290000 1.830000 0 255 255
-15.340000 -1.300000 -0.330000 0 255 255
-16.010000 -1.625000 25.030001 0 255 0
-15.005000 -1.805000 19.660000 0 255 0
-14.764400 -1.825600 17.059999 0 255 0
-15.520000 -1.120000 13.420000 255 0 0
-15.501300 -1.208700 6.907400 255 0 0
-15.503800 -1.153200 3.662600 0 255 0
-16.254999 -1.460000 22.455000 0 255 0
-15.571400 -0.958600 6.515000 255 0 0
-15.570000 -0.850000 0.230000 0 255 255
-15.062700 0.018200 1.051800 0 255 255
-14.990000 -2.350000 26.340000 0 255 0
-15.020000 -2.218600 16.908600 0 255 0
-15.530000 -1.130000 17.430000 255 0 0
-15.514000 -1.068000 14.162000 255 0 0
-15.516000 -1.183500 7.663000 255 0 0
-15.506500 -1.223500 10.912900 255 0 0
-15.440000 -0.615000 26.100000 0 255 0
-16.205000 -0.025000 0.255000 0 255 255
-15.093300 -1.723300 19.603300 0 255 0
-15.490000 -1.340000 20.459999 255 0 0
-15.500000 -1.270000 17.230000 255 0 0
-15.517100 -0.831000 0.408600 0 255 0
-16.260000 -1.216700 21.813299 0 255 0
-15.765000 -1.180000 21.594999 0 255 0
-15.310000 -2.075000 26.065001 0 255 0
-15.305000 -2.035000 22.820000 0 255 0
-15.165000 -1.721200 18.219999 0 255 0
-14.428000 -0.668000 0.754000 0 255 255
-14.726700 -1.310000 0.673300 0 255 255
-14.930000 -0.550000 22.299999 0 255 0
-15.495000 -1.315000 15.650000 255 0 0
-15.500000 -1.250000 12.403300 255 0 0
-15.566700 -0.276700 23.206699 0 255 0
-15.060000 -1.175000 18.412500 0 255 0
-15.095000 -0.955000 19.270000 0 255 0
-15.590000 -1.035000 9.665000 255 0 0
-15.602000 -0.969000 6.413000 255 0 0
-15.603800 -0.919800 3.160400 255 0 0
-15.310600 -1.828800 18.510000 0 255 0
-15.320000 -1.862500 21.647499 0 255 0
-15.896400 -1.114500 0.562700 0 255 0
-15.300000 -2.390000 25.350000 0 255 0
-15.860000 -1.335000 22.625000 0 255 0
-14.460000 -1.775000 0.715000 0 255 255
-14.455000 -1.385000 26.010000 0 255 0
-16.030001 -0.963300 0.350000 0 255 255
-15.030000 -1.710000 21.070000 0 255 0
-15.070000 -1.955000 25.850000 0 255 0
-15.810000 -1.113300 22.660000 0 255 0
-14.940000 -2.200000 23.010000 0 255 0
-15.230000 -0.720000 0.340000 0 255 255
-15.252500 -0.011900 0.751900 0 255 255
-15.256700 -0.833300 19.093300 0 255 0
-16.030001 0.010000 0.470000 0 255 255
-15.840000 -2.250000 21.760000 0 255 0
-16.554001 -1.422000 0.868000 0 255 255
-15.916700 -1.566700 0.400000 0 255 255
-14.530000 -1.960000 20.920000 0 255 0
-15.593300 -1.025000 7.461700 255 0 0
-15.624300 -0.910000 0.964300 255 0 0
-15.615600 -0.967800 4.209300 255 0 0
-14.604500 -0.822500 0.502000 0 255 255
-15.500000 -1.034000 13.608000 255 0 0
-15.513200 -0.965800 10.457400 0 255 0
-15.490000 -1.080000 3.710000 255 0 0
-15.530000 -1.240000 0.580000 255 0 0
-15.300000 -1.070000 16.260000 255 0 0
-15.328300 -1.033300 13.108300 255 0 0
-14.764000 -1.227000 0.350000 0 255 255
-14.762900 -1.774300 16.958599 0 255 0
-15.165000 -1.985000 20.730000 0 255 0
-16.413300 -0.823300 0.420000 0 255 255
-15.810000 -0.870000 0.210000 0 255 255
-15.280000 -1.310000 14.530000 0 255 0
-15.120000 -1.355000 19.705000 0 255 0
-15.020000 -1.170000 21.670000 0 255 0
-15.270000 -1.390000 20.170000 0 255 0
-15.518300 -0.223300 0.526700 0 255 255
-15.645000 -1.005000 5.610000 255 0 0
-15.641900 -1.060500 2.452900 255 0 0
-15.660000 -1.270000 14.690000 255 0 0
-15.200000 -1.905000 22.805000 0 255 0
-15.510000 -1.100000 -0.200000 0 255 255
-14.871200 -0.566300 14.261300 0 255 0
-15.830000 -0.530000 1.160000 0 255 255
-15.943300 -0.636700 0.466700 0 255 255
-14.303800 -1.315000 0.771200 0 255 255
-15.010000 -0.705000 -0.005000 0 255 255
-15.096700 -1.733300 18.406700 0 255 0
-15.110000 -1.590000 21.469999 0 255 0
-16.062500 -1.027500 1.070000 0 255 255
-14.655000 -1.628300 0.763300 0 255 255
-16.209999 -1.020000 0.260000 0 255 255
-15.315000 -1.312500 17.370001 255 0 0
-15.100000 -1.820000 -0.290000 0 255 255
-15.280000 -1.350000 21.990000 255 0 0
-15.720000 -1.490000 -0.230000 0 255 255
-16.317499 -0.530000 0.962500 0 255 255
-16.650000 -0.952500 0.867500 0 255 255
-15.330000 -1.740000 21.719999 0 255 0
-15.330000 -1.770000 24.879999 0 255 0
-15.905500 -1.063600 0.960500 0 255 0
-14.640000 -1.880000 0.400000 0 255 255
-14.510000 -0.580000 0.350000 0 255 255
-15.530000 -1.220000 26.459999 0 255 0
-16.620001 -1.090000 0.120000 0 255 255
-14.557500 -1.877500 0.472500 0 255 255
-15.105000 -2.105000 26.459999 0 255 0
-14.375000 -1.435000 26.205000 0 255 0
-15.160000 -2.120000 20.629999 0 255 0
-15.140000 -1.840000 26.980000 0 255 0
-14.760000 -1.825300 16.966700 0 255 0
-15.543300 -1.476700 1.526700 0 255 255
-15.555000 -1.255000 14.555000 255 0 0
-15.710000 -2.020000 17.400000 0 255 0
-16.412500 -1.521900 0.710000 0 255 255
-16.360001 -1.575000 22.405001 0 255 0
-15.555000 -1.265000 10.705000 255 0 0
-15.960000 -0.010000 0.250000 0 255 255
-16.420000 -0.580000 1.630000 0 255 255
-15.300000 -0.276700 0.070000 0 255 255
-14.905000 -0.230000 0.420000 0 255 255
-15.410000 -1.900000 26.830000 0 255 0
-14.860000 -1.910000 18.510000 0 255 0
-15.766700 -1.813300 22.719999 0 255 0
-15.050000 -1.770000 21.700001 0 255 0
-14.760000 -1.970000 24.094999 0 255 0
-14.470000 -1.270000 26.290001 0 255 0
-14.796000 -0.032000 0.672000 0 255 255
-15.765000 -1.087500 0.780000 0 255 0
-14.400000 -1.218600 0.663800 0 255 255
-15.890000 -1.110000 0.860000 0 255 0
-15.240000 -1.680000 26.469999 0 255 0
-15.262500 -1.367500 19.707500 0 255 0
-14.800000 -0.965000 0.060000 0 255 255
-14.767500 -1.320000 21.267500 0 255 0
-14.990000 -2.225000 18.110001 0 255 0
-14.906000 -1.120000 -0.180000 0 255 255
-14.819400 0.027500 0.365000 0 255 255
-14.972500 -0.110000 0.595000 0 255 255
-14.855000 -0.020000 0.710000 0 255 255
-14.945000 -0.563300 0.465000 0 255 255
-14.960000 -0.980000 26.540001 0 255 0
-15.177500 -1.967500 18.257500 0 255 0
-15.500000 -1.083300 15.656700 255 0 0
-15.507500 -1.185000 9.356700 255 0 0
-15.508200 -1.220900 12.611800 255 0 0
-15.510000 -0.960000 22.410000 0 255 0
-15.600000 -1.160000 10.210000 255 0 0
-15.603000 -1.119000 6.859300 255 0 0
-15.614500 -1.073200 3.710500 255 0 0
-15.420000 -0.940000 19.379999 0 255 0
-15.405000 -1.417500 0.552500 0 255 255
-15.655000 -2.020000 21.510000 0 255 0
-15.510000 -1.275000 1.760000 0 255 0
-14.880000 -1.590000 0.350000 0 255 255
-15.790000 -1.020000 23.790001 0 255 0
-14.660000 -1.960000 23.080000 0 255 0
-14.402000 -1.266000 1.212000 0 255 255
-15.640000 -1.700000 19.730000 0 255 0
-15.513300 -0.860000 1.807700 0 255 0
-15.220000 -1.876700 -0.246700 0 255 255
-14.520000 -1.070000 0.990000 0 255 255
-15.298000 -0.007000 0.601000 0 255 255
-14.740000 -1.750000 19.870001 0 255 0
-14.769200 -1.078500 0.701500 0 255 255
-15.790000 -1.510000 0.070000 0 255 255
-15.096700 -0.022200 1.051100 0 255 255
-14.910000 -0.870000 19.370001 0 255 0
-14.900000 -0.770000 -0.180000 0 255 255
-15.356700 -1.690000 22.709999 0 255 0
-15.360000 -1.500000 19.670000 0 255 0
-14.709600 -0.873300 13.914200 0 255 0
-15.210000 -1.170000 25.980000 0 255 0
-15.180000 -2.310000 24.040001 0 255 0
-15.180000 -2.160000 20.730000 0 255 0
-14.903300 -1.273300 19.151699 0 255 0
-15.560000 -0.390000 26.040001 0 255 0
-15.500000 -1.255000 9.455000 255 0 0
-15.480000 -0.170000 0.560000 0 255 255
-14.753300 -1.013300 -0.243300 0 255 255
-14.716700 -1.370000 19.559999 0 255 0
-15.353300 -1.711700 21.754999 0 255 0
-14.970000 -0.465000 14.020000 0 255 0
-15.270000 -1.260000 11.380000 255 0 0
-15.330000 -0.625000 26.020000 0 255 0
-15.260000 -0.960000 4.620000 255 0 0
-15.268300 -1.165000 17.658300 255 0 0
-15.253300 -1.206700 14.510000 255 0 0
-15.450000 -2.322500 17.905001 0 255 0
-16.270000 -0.333300 0.923300 0 255 255
-14.760000 -1.416700 19.806700 0 255 0
-15.115000 -0.385000 21.379999 0 255 0
-15.520000 -1.010000 9.350000 255 0 0
-15.512800 -1.136200 3.209000 255 0 0
-15.354700 -2.315300 17.811300 0 255 0
-15.810000 -1.480000 0.910000 0 255 255
-15.740000 -1.620000 25.004999 0 255 0
-15.740000 -1.680000 21.760000 0 255 0
-15.560000 -2.230000 23.500000 0 255 0
-15.556700 -2.226700 19.605000 0 255 0
-15.830000 -1.420000 0.790000 0 255 255
-15.295000 -0.575000 14.210000 0 255 0
-15.975000 -1.017500 1.130000 0 255 255
-16.217501 -1.835000 0.195000 0 255 255
-15.090000 -0.350000 0.420000 0 255 255
-15.720000 -1.114300 1.715700 0 255 0
-15.695000 -1.310000 15.170000 0 255 0
-15.513300 -0.366700 26.113300 0 255 0
-15.440000 -1.270000 20.725000 255 0 0
-15.456300 -1.316200 17.561300 255 0 0
-15.550000 -1.210000 10.140000 255 0 0
-15.556700 -1.183300 13.403300 255 0 0
-15.558500 -1.123400 3.661100 255 0 0
-15.096000 -0.320000 0.472000 0 255 255
-14.925000 -1.230000 -0.380000 0 255 255
-15.370000 -1.790000 21.379999 0 255 0
-15.602100 -1.074200 6.812600 255 0 0
-15.590000 -1.105000 9.960000 255 0 0
-15.605000 -1.185000 13.100000 255 0 0
-14.874000 0.038000 0.764000 0 255 255
-15.966700 -0.726700 0.540000 0 255 255
-16.180000 -1.050000 22.459999 0 255 0
-14.998900 -0.028900 0.072200 0 255 255
-15.060000 -1.720000 25.709999 0 255 0
-14.866700 -0.250000 0.113300 0 255 255
-15.210000 -1.530000 22.709999 0 255 0
-14.765000 -1.255000 26.420000 0 255 0
-15.760000 -1.100000 1.460000 0 255 0
-15.390000 -0.830000 22.120001 0 255 0
-14.730000 -0.640000 14.260000 0 255 0
-15.830000 -0.720000 0.040000 0 255 255
-15.115000 -2.190000 18.014999 0 255 0
-15.808000 -0.964000 1.260000 0 255 0
-15.647500 -1.870000 22.757500 0 255 0
-15.550000 -2.055000 0.995000 0 255 255
-15.570000 -1.123300 11.716700 255 0 0
-15.550000 -1.150000 21.370001 0 255 0
-16.080000 -1.530000 -0.240000 0 255 255
-14.703300 -2.116700 23.219999 0 255 0
-15.180000 -0.850000 14.370000 0 255 0
-15.740000 -1.175000 0.868300 0 255 0
-16.322500 -1.512500 22.362499 0 255 0
-15.500000 -0.600000 0.000000 0 255 255
-15.510000 -2.110000 -0.140000 0 255 255
-15.511700 -1.165000 1.755800 255 0 0
-15.520000 -1.090000 8.060000 255 0 0
-15.500000 -1.120000 11.290000 255 0 0
-15.503300 -1.206700 5.020000 255 0 0
-15.320000 -1.440000 18.110001 0 255 0
-15.295000 -1.485000 21.270000 0 255 0
-15.559200 -1.173100 8.904600 255 0 0
-15.550000 -1.210000 5.640000 255 0 0
-14.915000 -0.617500 22.320000 0 255 0
-16.190001 -1.160000 -0.150000 0 255 255
-15.354300 -1.837100 21.559999 0 255 0
-16.639999 -0.650000 0.850000 0 255 255
-16.480000 -0.510000 0.860000 0 255 255
-15.070000 -1.220000 21.620001 0 255 0
-16.110001 -0.570000 0.762500 0 255 255
-14.850000 -2.230000 22.850000 0 255 0
-15.470000 -1.190000 20.760000 255 0 0
-15.440000 -1.200000 17.610001 255 0 0
-15.756700 -1.723300 22.706699 0 255 0
-15.826700 -0.936700 1.096700 0 255 0
-15.790000 -1.260000 24.049999 0 255 0
-16.070000 -1.070000 0.050000 0 255 255
-16.320000 -0.290000 1.830000 0 255 255
-15.510000 -1.478000 1.613000 0 255 255
-15.501700 -1.255000 14.260000 255 0 0
-15.020000 -1.200000 21.430000 0 255 0
-14.870000 -2.150000 26.490000 0 255 0
-14.854200 -1.912500 17.112499 0 255 0
-15.790000 -1.735000 21.639999 0 255 0
-14.995700 -0.815700 0.054300 0 255 255
-14.975000 -1.185000 21.205000 0 255 0
-15.880000 -1.300000 22.379999 0 255 0
-15.850000 0.050000 1.130000 0 255 255
-14.805000 -1.820000 23.240000 0 255 0
-14.840000 -2.010000 17.280001 0 255 0
-14.994000 -0.410000 0.302000 0 255 255
-15.615000 -1.170000 -0.080000 0 255 255
-16.219999 -1.560000 22.240000 0 255 0
-15.350000 -1.390000 24.540001 255 0 0
-15.240000 -1.490000 24.969999 0 255 0
-16.150000 -0.300000 0.500000 0 255 255
-14.930000 -2.060000 20.950001 0 255 0
-15.112000 -1.016000 18.910000 0 255 0
-15.230000 -1.180000 19.879999 0 255 0
-15.280000 -1.260000 24.850000 0 255 0
-16.055000 -0.970000 22.799999 0 255 0
-14.415000 -0.605000 1.350000 0 255 255
-15.440000 -0.340000 0.210000 0 255 255
-16.110001 -0.560000 0.730000 0 255 255
-14.600000 -1.660000 21.180000 0 255 0
-15.661200 -1.017600 1.410000 255 0 0
-15.660000 -1.430000 26.690001 0 255 0
-15.450000 -1.430000 0.280000 0 255 255
-15.446700 -1.260000 9.916700 255 0 0
-15.800000 -0.468600 0.552900 0 255 255
-16.110001 -0.415000 0.660000 0 255 255
-16.129999 -0.570000 23.070000 0 255 0
-14.425000 -1.470000 21.705000 0 255 0
-15.221700 0.132500 0.864200 0 255 255
-16.030001 -1.640000 0.600000 0 255 255
-14.865000 -0.236700 0.858300 0 255 255
-15.680000 -1.016700 0.756700 255 0 0
-15.660000 -1.530000 19.760000 0 255 0
-15.650000 -1.557500 16.504999 0 255 0
-15.765000 -1.385000 1.575000 0 255 255
-15.760000 0.170000 0.400000 0 255 255
-14.770000 -1.482000 0.746000 0 255 255
-15.215000 -0.060000 0.510000 0 255 255
-14.907500 -0.773800 14.161200 0 255 0
-15.157500 -1.967500 18.417500 0 255 0
-16.010000 0.210000 0.520000 0 255 255
-15.510000 -0.890000 8.930000 255 0 0
-15.505000 -1.530000 25.600000 0 255 0
-15.500000 -1.480000 22.350000 0 255 0
-14.758500 -0.966400 -0.043000 0 255 255
-14.706700 -1.420000 19.753300 0 255 0
-15.980000 -0.910000 23.670000 0 255 0
-15.250000 -1.840000 22.969999 0 255 0
-15.270000 -1.760000 26.320000 0 255 0
-15.930000 -0.550000 22.900000 0 255 0
-15.700000 -1.325000 15.350000 0 255 0
-15.970000 0.100000 0.180000 0 255 255
-15.253300 -1.856700 21.709999 0 255 0
-15.170000 -0.270000 21.450001 0 255 0
-14.616700 -0.966700 -0.206700 0 255 255
-15.508000 -1.260000 18.916000 0 255 0
-15.560000 -1.105000 13.615000 255 0 0
-15.580000 -1.230000 19.910000 0 255 0
-15.715000 -0.655000 0.600000 0 255 255
-14.855700 -0.172900 0.811400 0 255 255
-14.926000 -0.420000 0.302000 0 255 255
-14.560000 -1.280000 0.370000 0 255 255
-14.370000 -0.776700 1.066700 0 255 255
-15.760000 -0.950000 1.430000 0 255 0
-15.750000 -1.232500 23.365000 0 255 0
-14.853300 -0.873300 26.459999 0 255 0
-14.656700 -1.310000 0.475000 0 255 255
-15.530000 -2.290000 17.680000 0 255 0
-15.500000 -2.310000 20.930000 0 255 0
-16.252701 -1.280000 1.214500 0 255 255
-15.466700 -1.263300 10.266700 255 0 0
-15.660000 -2.280000 26.049999 0 255 0
-15.669000 -2.014000 16.573999 0 255 0
-14.675000 -0.110000 0.705000 0 255 255
-15.040000 -1.430000 14.060000 0 255 0
-15.570000 -2.310000 16.590000 0 255 0
-14.540000 -1.080000 1.370000 0 255 255
-15.660000 -1.900000 21.820000 0 255 0
-14.965000 -0.671000 0.060000 0 255 255
-14.940000 -0.950000 19.030001 0 255 0
-15.258200 0.094500 0.868200 0 255 255
-14.430000 -0.860000 26.000000 0 255 0
-15.770000 -0.990000 0.000000 0 255 255
-15.710000 -1.230000 26.700001 0 255 0
-15.710000 -1.375000 23.360001 0 255 0
-15.700000 -0.820000 1.406700 255 0 0
-15.066900 -0.274600 0.316900 0 255 255
-15.530000 -1.690000 1.530000 0 255 255
-14.920000 -2.120000 18.450001 0 255 0
-15.970000 -0.920000 1.150000 0 255 255
-16.070000 0.040000 0.510000 0 255 255
-15.615000 -1.925000 -0.235000 0 255 255
-15.610000 -2.290000 21.910000 0 255 0
-16.309999 -1.760000 0.900000 0 255 255
-16.309999 -1.825000 24.990000 0 255 0
-15.790000 -0.540000 1.080000 0 255 255
-15.503300 -1.673300 18.246700 0 255 0
-15.230000 -2.420000 25.389999 0 255 0
-15.410000 -1.650000 21.790001 0 255 0
-15.100000 -0.290000 -0.080000 0 255 255
-15.000000 -0.220000 0.455000 0 255 255
-15.510000 -1.136700 1.215000 255 0 0
-15.520000 -0.970000 4.130000 255 0 0
-15.150000 -1.330000 -0.050000 0 255 255
-15.880000 0.140000 0.930000 0 255 255
-15.298000 0.018000 0.748000 0 255 255
-15.115000 -1.565000 22.049999 0 255 0
-15.150000 -1.670000 23.330000 0 255 0
-15.163500 -0.312900 0.062400 0 255 255
-16.106001 -0.828000 0.714000 0 255 255
-16.105000 -0.975000 22.805000 0 255 0
-15.060000 -0.580000 14.540000 0 255 0
-15.660000 -0.640000 0.360000 0 255 255
-15.940000 -1.560000 0.640000 0 255 255
-15.580000 -1.090000 3.230000 255 0 0
-15.551400 -1.180000 9.510000 255 0 0
-15.554000 -1.210000 6.258000 255 0 0
-15.545000 -1.040000 11.905000 255 0 0
-15.560000 -0.917700 5.607400 255 0 0
-15.550900 -1.158900 2.111100 255 0 0
-15.563300 -1.483300 21.116699 0 255 0
-15.575000 -0.960600 6.358900 255 0 0
-15.453300 -1.403300 0.900000 0 255 255
-15.455000 -1.265000 10.475000 255 0 0
-16.139999 0.150000 0.390000 0 255 255
-15.313300 -1.821700 21.651699 0 255 0
-15.170000 -0.573300 0.353300 0 255 255
-15.180000 -0.550000 0.490000 0 255 255
-14.690000 -0.560000 0.040000 0 255 255
-14.930000 0.050000 0.790000 0 255 255
-14.845000 -0.710000 21.389999 0 255 0
-16.000000 -2.070000 21.200001 0 255 0
-15.280000 -2.250000 24.020000 0 255 0
-15.116700 -1.626700 26.603300 0 255 0
-14.770000 -1.430000 21.475000 0 255 0
-15.640000 -1.000000 6.700000 255 0 0
-15.640000 -1.060000 3.550000 255 0 0
-15.675000 -1.113000 0.418000 0 255 0
-16.010000 -2.176200 21.203699 0 255 0
-15.890000 -0.250000 0.890000 0 255 255
-15.925000 -0.230000 0.470000 0 255 255
-15.216000 -0.676000 22.166000 0 255 0
-16.020000 -1.320000 0.300000 0 255 255
-15.261700 -1.711700 18.353300 0 255 0
-15.680000 -1.480000 19.670000 0 255 0
-15.680000 -1.540000 16.500000 0 255 0
-16.347500 -1.470000 22.362499 0 255 0
-16.020000 -0.850000 22.410000 0 255 0
-15.280000 -1.250000 11.450000 255 0 0
-15.280000 -1.170000 17.940001 255 0 0
-15.265000 -1.205000 14.615000 255 0 0
-15.795000 -0.420000 1.115000 0 255 255
-15.920000 -0.290000 0.130000 0 255 255
-15.280000 -1.350000 16.820000 255 0 0
-15.940000 -0.140000 0.320000 0 255 255
-15.955000 -1.390000 26.504999 0 255 0
-16.260000 -0.185000 1.405000 0 255 255
-15.560000 -1.314000 0.804000 0 255 0
-14.953300 -1.073300 0.050000 0 255 255
-14.640000 -1.170000 21.770000 0 255 0
-15.410000 -2.390000 25.860001 0 255 0
-14.310200 -1.278100 1.917400 0 255 255
-15.617500 -0.516200 0.511200 0 255 255
-15.453300 0.076700 0.510000 0 255 255
-16.473301 -0.873300 1.173300 0 255 255
-16.010000 -0.470000 0.570000 0 255 255
-15.780000 -1.030000 0.645000 0 255 0
-15.577100 -0.860000 0.612100 255 0 0
-15.566200 -0.967600 6.902900 255 0 0
-15.810000 -1.470000 0.600000 0 255 255
-14.666700 -1.609200 0.814200 0 255 255
-15.700000 -0.640000 0.340000 0 255 255
-15.825000 -1.005000 1.130000 0 255 0
-15.070000 -1.440000 26.120001 0 255 0
-14.780000 -1.370000 18.170000 0 255 0
-14.811100 -0.765600 -0.040000 0 255 255
-15.700000 -0.670000 0.650000 0 255 255
-14.560000 -1.960000 18.559999 0 255 0
-15.154400 -2.226700 16.913300 0 255 0
-15.715000 -0.920000 0.210000 0 255 255
-15.720000 -1.080000 22.719999 0 255 0
-16.020000 -0.532500 22.967501 0 255 0
-15.760000 -1.460000 1.040000 0 255 255
-14.820000 -2.080000 26.730000 0 255 0
-14.655000 -1.785000 26.299999 0 255 0
-15.155000 -1.310000 21.809999 0 255 0
-15.100000 -1.000000 18.950001 0 255 0
-15.110000 -0.771400 14.010000 0 255 0
-16.190001 -1.490000 0.720000 0 255 255
-15.450000 -2.120000 23.469999 0 255 0
-15.480000 -1.320000 13.990000 255 0 0
-15.523300 -0.386700 23.166700 0 255 0
-15.455000 -1.290000 17.240000 255 0 0
-16.129999 -0.710000 0.880000 0 255 255
-15.590000 -1.160000 15.990000 255 0 0
-15.605000 -1.120000 12.655000 255 0 0
-15.600000 -1.072000 9.504000 255 0 0
-15.895000 0.190000 0.565000 0 255 255
-15.320000 -2.300000 18.240000 0 255 0
-15.520000 -1.470000 1.553300 0 255 255
-15.515000 -1.265000 14.195000 255 0 0
-15.270000 -1.070000 12.960000 255 0 0
-15.750000 -1.810000 22.770000 0 255 0
-15.107500 -0.662500 22.292500 0 255 0
-15.860000 -1.556700 1.863300 0 255 255
-15.040000 -1.070000 26.459999 0 255 0
-14.473600 -0.759100 0.748200 0 255 255
-16.080000 -0.815000 1.275000 0 255 255
-14.950000 -1.650000 21.680000 0 255 0
-15.180000 -1.190000 23.790001 0 255 0
-16.070000 -1.140000 0.980000 0 255 255
-15.956500 -1.416200 1.772200 0 255 255
-16.004999 -1.560000 0.705000 0 255 255
-15.270000 -1.600000 21.000000 0 255 0
-14.401100 -0.927800 0.066700 0 255 255
-16.160000 -1.830000 25.180000 0 255 0
-14.910000 -0.690000 22.260000 0 255 0
-16.200001 -1.220000 0.370000 0 255 255
-15.880000 -1.240000 26.930000 0 255 0
-15.450000 -1.970000 22.150000 0 255 0
-16.340000 -1.300000 22.040001 0 255 0
-15.420000 -1.310000 21.110001 255 0 0
-15.480000 -2.210000 21.510000 0 255 0
-15.460000 -2.268000 18.002001 0 255 0
-15.466700 -1.720000 1.710000 0 255 255
-15.820000 -1.810000 21.020000 0 255 0
-15.560000 -1.370000 19.650000 0 255 0
-15.556700 -1.433300 16.420000 0 255 0
-15.690000 -1.330000 1.940000 0 255 255
-16.469999 -1.230000 0.120000 0 255 255
-14.950000 -1.070000 26.360001 0 255 0
-15.000000 -0.830000 14.130000 0 255 0
-14.762500 -0.572500 -0.005000 0 255 255
-15.310000 -1.070000 22.305000 0 255 0
-15.296700 -1.013300 19.070000 0 255 0
-15.513300 -1.033300 14.420000 255 0 0
-15.502700 -0.982700 11.261300 255 0 0
-15.040000 -0.810000 22.049999 0 255 0
-15.020000 -1.130000 22.040001 0 255 0
-15.015000 -1.077500 19.012501 0 255 0
-15.053300 -0.860000 19.003300 0 255 0
-16.450001 -1.140000 22.090000 0 255 0
-15.170000 -0.450000 21.309999 0 255 0
-15.455600 -0.858400 1.259800 255 0 0
-15.462500 -1.365000 20.855000 255 0 0
-15.627100 -1.021800 2.611800 255 0 0
-15.870000 -1.660000 25.026699 0 255 0
-15.830000 -1.450000 -0.430000 0 255 255
-15.570000 -1.080000 7.020000 255 0 0
-15.562400 -1.123300 3.758500 255 0 0
-15.545700 -1.208600 10.067100 255 0 0
-14.265000 -1.430000 26.305000 0 255 0
-15.110000 -1.300000 14.180000 0 255 0
-15.150000 -0.840000 18.990000 0 255 0
-15.305000 -0.765000 0.295000 0 255 255
-14.464900 -1.122200 1.146700 0 255 255
-14.800000 -1.255000 19.370001 0 255 0
-15.318000 -1.336000 19.653999 255 0 0
-15.490000 -1.290000 22.600000 255 0 0
-15.510000 -1.415000 19.565001 0 255 0
-14.970000 -2.130000 16.910000 0 255 0
-15.265000 -1.320000 14.410000 255 0 0
-15.366700 -1.216700 7.006700 255 0 0
-16.450001 -0.660000 1.040000 0 255 255
-14.750000 -2.170000 20.860001 0 255 0
-16.266701 -1.263300 0.830000 0 255 255
-15.370000 -0.520000 0.420000 0 255 255
-15.665000 -2.275000 19.709999 0 255 0
-15.640000 -2.310000 16.469999 0 255 0
-15.420000 -1.410000 22.299999 255 0 0
-15.400000 -1.313300 16.016701 255 0 0
-15.395000 -1.467500 25.465000 255 0 0
-15.962000 -1.514000 1.810000 0 255 255
-15.670000 -2.076700 -0.083300 0 255 255
-15.490000 -1.240000 3.050000 0 255 0
-15.420000 -1.870000 -0.280000 0 255 255
-15.410000 -1.310000 14.440000 255 0 0
-15.402000 -1.416000 20.958000 255 0 0
-15.657100 -0.972300 1.313500 255 0 0
-15.660000 -1.380000 26.610001 0 255 0
-16.320000 -1.280000 0.620000 0 255 255
-15.495000 -2.377500 19.754999 0 255 0
-15.046700 -1.260000 25.639999 0 255 0
-15.900000 -0.400000 23.170000 0 255 0
-14.920000 -1.090000 26.709999 0 255 0
-16.166700 -1.865600 0.706700 0 255 255
-14.675000 -1.560000 0.765000 0 255 255
-15.700900 -0.912700 0.567300 255 0 0
-15.150000 -1.315000 18.610001 0 255 0
-15.150000 -1.255000 21.760000 0 255 0
-14.203300 -0.976700 0.756700 0 255 255
-14.455000 -1.130000 0.825000 0 255 255
-14.810000 -1.770000 24.115000 0 255 0
-16.190001 -1.840000 0.660000 0 255 255
-15.140000 -0.330000 21.530001 0 255 0
-14.900000 -1.750000 23.290001 0 255 0
-14.750000 -1.970000 23.245001 0 255 0
-15.007100 -0.521400 0.260000 0 255 255
-16.156700 -0.576700 22.820000 0 255 0
-15.710000 -1.455000 -0.295000 0 255 255
-15.380000 -1.970000 24.580000 0 255 0
-15.393300 -2.123300 26.063299 0 255 0
-14.855000 -2.030000 26.400000 0 255 0
-16.040001 -1.330000 0.130000 0 255 255
-15.662700 -0.868500 0.408800 0 255 0
-15.130000 -0.690000 22.230000 0 255 0
-15.040000 -1.170000 23.980000 0 255 0
-15.310000 -1.410000 26.240000 0 255 0
-15.020000 -0.590000 22.250000 0 255 0
-15.570000 -1.660000 17.180000 0 255 0
-15.120000 -1.130000 21.165001 0 255 0
-14.520000 -1.720000 26.080000 0 255 0
-16.059999 -1.350000 -0.250000 0 255 255
