-8.351400 -13.417100 6.665700 255 0 0
-8.365000 -13.261100 3.612800 255 0 0
-8.313000 -13.133400 -1.542300 255 0 0
-6.810000 -13.715000 19.110001 0 255 0
-7.960000 -12.220700 15.057400 0 255 0
-7.264000 -13.156000 -4.052000 0 255 255
-8.206000 -12.314000 14.966000 0 255 0
-8.455000 -13.100000 21.930000 0 255 0
-8.475000 -12.940000 9.255000 0 255 0
-7.990000 -12.780000 -3.960000 0 255 255
-8.025000 -12.725000 18.155001 0 255 0
-6.906700 -13.366700 16.410000 0 255 0
-7.010000 -13.960000 23.510000 0 255 0
-8.700000 -13.540000 15.680000 0 255 0
-8.330000 -13.475000 6.305000 255 0 0
-8.710400 -13.225800 -4.436200 0 255 0
-8.200000 -13.860000 17.299999 0 255 0
-7.710000 -12.230000 23.459999 0 255 0
-7.873300 -14.360000 16.400000 0 255 0
-7.156700 -14.120000 11.066700 0 255 0
-7.970000 -13.040000 23.860001 0 255 0
-9.020000 -12.970000 18.280001 0 255 0
-9.020000 -13.100000 17.730000 0 255 0
-8.290000 -13.240000 1.740000 255 0 0
-8.306400 -13.156600 -1.489400 255 0 0
-9.366000 -13.474000 -4.386000 0 255 255
-8.940000 -13.880000 12.960000 0 255 0
-8.240000 -13.070000 14.510000 0 255 0
-8.248300 -13.253300 1.856700 255 0 0
-8.243700 -13.332200 -1.290200 255 0 0
-8.870000 -12.750000 -4.210000 0 255 255
-7.605000 -13.370000 13.255000 0 255 0
-7.630000 -13.403300 16.410000 0 255 0
-8.820000 -13.290000 15.910000 0 255 0
-7.060000 -13.464000 16.520000 0 255 0
-8.263200 -13.364200 0.314200 255 0 0
-8.265000 -13.250000 6.825000 255 0 0
-8.247500 -13.312500 3.550000 255 0 0
-8.140000 -13.260000 16.590000 255 0 0
-7.515000 -12.830000 14.965000 0 255 0
-7.513600 -13.662700 10.767300 0 255 0
-7.670000 -14.250000 18.110001 0 255 0
-8.100000 -12.426700 -4.310000 0 255 255
-8.114000 -12.514000 15.056000 0 255 0
-7.313300 -12.864400 15.006700 0 255 0
-8.600000 -13.130000 19.540001 0 255 0
-7.000000 -13.880000 13.250000 0 255 0
-8.502500 -12.420000 16.559999 0 255 0
-8.250000 -13.420000 10.100000 255 0 0
-7.370000 -12.540000 23.230000 0 255 0
-7.310000 -12.690000 19.780001 0 255 0
-7.460000 -14.203300 18.056700 0 255 0
-8.520000 -12.550000 16.150000 0 255 0
-7.320000 -13.672500 21.112499 0 255 0
-8.120000 -12.370000 16.558599 0 255 0
-8.060000 -14.020000 23.070000 0 255 0
-7.915000 -13.970000 18.995001 0 255 0
-7.750000 -14.320000 16.570000 0 255 0
-7.095000 -13.535000 15.360000 0 255 0
-7.100000 -13.435000 21.674999 0 255 0
-8.170000 -13.305000 1.475000 255 0 0
-8.180000 -13.480000 4.690000 255 0 0
-8.170000 -13.355000 -1.800000 255 0 0
-8.155000 -13.430000 7.965000 255 0 0
-8.520000 -12.560000 21.790001 0 255 0
-8.515000 -12.965600 9.459400 0 255 0
-8.166700 -14.230000 16.370001 0 255 0
-8.540000 -12.916700 19.563299 0 255 0
-8.430000 -12.640000 19.650000 0 255 0
-8.524400 -12.171100 -3.788900 0 255 255
-8.466700 -12.570000 19.973301 0 255 0
-7.600000 -12.610000 22.117500 0 255 0
-7.866000 -13.226000 9.252000 0 255 0
-7.780000 -13.870000 -3.760000 0 255 255
-7.902500 -14.017500 19.105000 0 255 0
-7.720000 -12.940000 19.660000 0 255 0
-7.555000 -12.760000 24.660000 0 255 0
-7.458400 -14.423600 12.610400 0 255 0
-8.213300 -14.324700 -3.333300 0 255 255
-8.500000 -13.300000 1.920000 255 0 0
-8.530000 -13.440000 20.660000 0 255 0
-7.915000 -13.320000 21.905001 255 0 0
-7.930000 -13.400000 15.570000 255 0 0
-7.905000 -13.277500 18.762501 255 0 0
-7.918000 -13.378000 12.417000 255 0 0
-8.258000 -14.018000 15.400000 0 255 0
-8.660000 -12.519400 12.412800 0 255 0
-8.060000 -13.300000 17.430000 255 0 0
-8.045000 -13.380000 14.245000 255 0 0
-8.056700 -13.414400 11.113300 255 0 0
-8.070000 -13.466000 7.961000 255 0 0
-8.455200 -12.519100 -4.294800 0 255 255
-8.146000 -12.828000 11.872000 0 255 0
-7.980000 -13.370000 7.420000 0 255 0
-7.966700 -13.220000 17.213301 255 0 0
-7.950000 -13.480000 13.890000 255 0 0
-7.955900 -13.515200 10.658100 0 255 0
-8.010800 -13.719600 7.460000 0 255 0
-8.020000 -13.380000 10.360000 255 0 0
-8.023300 -13.416700 13.603300 255 0 0
-8.740000 -13.050000 22.250000 0 255 0
-8.762500 -13.125000 19.022499 0 255 0
-7.360000 -12.365000 23.500000 0 255 0
-7.970000 -12.810000 19.170000 0 255 0
-7.705000 -13.075000 16.219999 0 255 0
-7.290000 -13.220000 15.260000 0 255 0
-8.203300 -12.836700 21.360001 0 255 0
-8.210000 -12.770000 18.129999 0 255 0
-8.202500 -12.865000 24.612499 0 255 0
-6.968000 -13.628000 18.916000 0 255 0
-8.216700 -12.913300 12.006700 0 255 0
-6.760000 -13.570000 22.764999 0 255 0
-8.420000 -13.265000 -0.840000 255 0 0
-8.390000 -13.180000 18.090000 0 255 0
-8.430000 -13.331100 2.414400 255 0 0
-8.400000 -13.370000 5.457500 255 0 0
-8.753300 -13.066700 19.156700 0 255 0
-8.767100 -13.120700 15.910700 0 255 0
-8.070000 -13.270000 -4.320000 0 255 0
-8.050000 -13.368000 14.616000 255 0 0
-8.060000 -13.330000 17.879999 255 0 0
-8.070000 -13.416700 11.556700 255 0 0
-8.061400 -13.472900 8.307100 255 0 0
-9.165000 -13.515000 11.765000 0 255 0
-7.830000 -13.370000 -4.233300 0 255 255
-8.765000 -13.111300 18.006300 0 255 0
-8.703300 -13.526700 19.853300 0 255 0
-8.213300 -13.465000 9.708300 255 0 0
-8.215000 -13.265000 -3.355000 255 0 0
-8.220000 -13.415000 6.550000 255 0 0
-8.210000 -13.367700 3.210400 255 0 0
-8.217900 -13.317400 0.062100 255 0 0
-8.697600 -13.221800 -4.393500 0 255 0
-7.115000 -13.532500 15.117500 0 255 0
-9.266000 -13.077000 -4.355000 0 255 255
-7.980000 -14.240000 -4.050000 0 255 255
-9.100000 -12.400000 -4.080000 0 255 255
-9.120000 -12.430000 -4.160000 0 255 255
-7.930000 -13.510000 15.050000 0 255 0
-7.906200 -13.470000 11.902500 255 0 0
-7.706700 -12.970000 19.680000 0 255 0
-8.243300 -12.736700 17.856701 0 255 0
-8.250000 -12.680000 21.013300 0 255 0
-7.300000 -13.680000 14.090000 0 255 0
-8.590000 -12.320000 -4.055000 0 255 255
-8.617500 -12.705000 21.270000 0 255 0
-7.215700 -14.122900 11.071400 0 255 0
-8.690000 -12.840000 19.290001 0 255 0
-8.712500 -12.867500 9.765000 0 255 0
-8.408500 -13.321900 13.854600 0 255 0
-8.425000 -13.410000 20.344999 0 255 0
-8.406700 -13.073300 23.373301 0 255 0
-7.025000 -13.620000 21.975000 0 255 0
-8.565000 -13.435000 20.160000 0 255 0
-8.380000 -13.310000 18.889999 0 255 0
-8.366700 -13.306700 19.056700 0 255 0
-8.413300 -13.206700 -1.686700 255 0 0
-8.361600 -13.154700 -1.485800 255 0 0
-7.680000 -12.760000 16.070000 0 255 0
-7.910000 -12.875000 18.049999 0 255 0
-7.902200 -12.973300 11.711100 0 255 0
-8.370000 -12.430000 21.065001 0 255 0
-8.265000 -13.285000 7.805000 255 0 0
-8.258700 -13.363000 1.310000 0 255 0
-8.253900 -13.317300 4.559700 255 0 0
-8.740000 -13.025000 15.915000 0 255 0
-8.765000 -12.955000 19.155001 0 255 0
-8.750000 -12.440000 16.420000 0 255 0
-7.840000 -13.880000 19.190001 0 255 0
-6.780000 -13.460000 19.250000 0 255 0
-7.920000 -14.310000 22.709999 0 255 0
-8.960000 -12.890000 18.424999 0 255 0
-7.650000 -12.680000 -4.050000 0 255 255
-8.757500 -12.186200 -4.235000 0 255 255
-8.480000 -12.725000 -4.250000 0 255 255
-8.258000 -13.010000 15.902000 0 255 0
-7.010000 -13.526700 14.256700 0 255 0
-7.457500 -13.727500 19.965000 0 255 0
-8.090000 -14.180000 17.240000 0 255 0
-7.440000 -12.690000 24.290001 0 255 0
-8.370000 -13.260000 18.930000 0 255 0
-9.465000 -13.008300 -4.100000 0 255 255
-8.500000 -13.010000 18.469999 0 255 0
-8.510000 -12.915000 -4.325000 0 255 0
-8.510000 -13.060000 17.969999 0 255 0
-8.455000 -12.720000 19.750000 0 255 0
-8.393300 -12.170000 -3.690000 0 255 255
-7.253300 -14.156700 15.510000 0 255 0
-7.310000 -14.127500 13.065000 0 255 0
-8.258900 -13.403300 2.012200 255 0 0
-8.250000 -13.367100 5.165700 255 0 0
-8.257100 -13.318100 8.308100 0 255 0
-7.646700 -13.330000 -4.601700 0 255 255
-7.730000 -13.800000 20.570000 0 255 0
-8.126700 -13.376700 3.561700 255 0 0
-8.210000 -13.330000 9.465000 255 0 0
-8.225000 -13.186700 -0.051700 255 0 0
-8.006700 -13.327200 12.960600 255 0 0
-8.513300 -14.423300 -3.673300 0 255 255
-7.370000 -14.140000 13.130000 0 255 0
-8.567000 -13.818000 -4.539000 0 255 255
-8.180000 -13.530000 10.200000 255 0 0
-8.145000 -13.570000 6.970000 255 0 0
-8.855000 -13.475000 21.049999 0 255 0
-8.417500 -12.827500 19.610001 0 255 0
-7.963300 -14.006700 19.213301 0 255 0
-7.193300 -13.880000 14.310000 0 255 0
-7.505000 -12.915000 14.910000 0 255 0
-6.910000 -13.065700 15.347100 0 255 0
-7.951700 -14.318300 -3.735000 0 255 255
-8.220000 -13.500000 8.680000 255 0 0
-8.250000 -12.330000 -4.140000 0 255 255
-6.950000 -13.520000 22.610001 0 255 0
-6.970000 -13.430000 16.110001 0 255 0
-7.301400 -13.077100 15.060000 0 255 0
-8.690000 -13.113300 -4.423300 0 255 0
-7.758800 -13.722500 10.300000 0 255 0
-7.200000 -12.730000 15.180000 0 255 0
-7.740000 -13.185000 23.855000 0 255 0
-9.353300 -13.465600 -2.398900 0 255 255
-8.658300 -12.728300 9.266700 0 255 0
-8.640000 -12.670000 12.415000 0 255 0
-8.665000 -12.630000 15.555000 0 255 0
-8.640000 -12.540000 22.980000 0 255 0
-8.300000 -12.990000 21.930000 0 255 0
-8.090000 -13.080000 24.670000 0 255 0
-8.105000 -12.767500 17.906200 0 255 0
-8.000000 -13.003300 -4.253300 0 255 0
-8.000000 -12.915000 -3.985000 0 255 0
-8.114300 -12.471400 21.160000 0 255 0
-7.256000 -13.152000 15.154000 0 255 0
-7.820000 -12.965000 21.930000 0 255 0
-7.063300 -14.120000 12.970000 0 255 0
-7.460000 -14.375600 12.556700 0 255 0
-7.880000 -13.510000 15.170000 0 255 0
-7.360000 -12.565000 16.165001 0 255 0
-7.366700 -12.676700 22.670000 0 255 0
-7.467000 -13.871200 10.469400 0 255 0
-8.170000 -13.530000 9.220000 255 0 0
-7.210000 -13.950000 21.959999 0 255 0
-8.666200 -13.063800 -4.203800 0 255 0
-8.660000 -12.830000 12.200000 0 255 0
-7.640000 -14.160000 19.040001 0 255 0
-7.870000 -12.363300 16.776699 0 255 0
-7.840000 -13.930000 20.860001 0 255 0
-7.860000 -13.850000 24.120001 0 255 0
-8.470000 -12.653300 21.270000 0 255 0
-7.830000 -14.040000 19.240000 0 255 0
-7.770000 -14.340000 16.629999 0 255 0
-7.290000 -13.380000 21.600000 0 255 0
-8.770000 -12.520000 9.260000 0 255 0
-8.010000 -14.065000 15.355800 0 255 0
-7.258600 -13.927100 12.858600 0 255 0
-8.319000 -12.513000 -4.300000 0 255 255
-8.320000 -12.920000 21.790001 0 255 0
-7.260000 -13.900000 12.710000 0 255 0
-7.253300 -13.363300 22.193300 0 255 0
-7.620000 -12.840000 23.280001 0 255 0
-8.030000 -13.380000 8.780000 255 0 0
-8.005000 -13.420000 12.010000 255 0 0
-8.030000 -14.380000 15.450000 0 255 0
-7.952500 -14.415000 15.400000 0 255 0
-8.240000 -13.420000 -3.510000 0 255 0
-8.261600 -13.373200 -0.337600 255 0 0
-8.270000 -13.285000 6.155000 255 0 0
-8.252500 -13.315000 2.997500 255 0 0
-7.500000 -13.770000 19.995001 0 255 0
-8.700000 -12.975000 18.559999 0 255 0
-6.970000 -13.620000 18.680000 0 255 0
-8.490000 -13.990000 19.990000 0 255 0
-6.907500 -13.872500 15.295000 0 255 0
-6.945000 -13.615000 15.210000 0 255 0
-7.310000 -12.250000 23.450001 0 255 0
-7.025000 -13.610000 19.059999 0 255 0
-8.304000 -14.274000 15.152000 0 255 0
-7.564300 -12.868600 15.970000 0 255 0
-8.105000 -13.055000 14.555000 0 255 0
-8.113100 -12.923100 17.806200 0 255 0
-8.716000 -13.766000 15.006000 0 255 0
-8.015000 -12.910000 -4.225000 0 255 0
-6.970000 -13.525000 22.650000 0 255 0
-6.954300 -13.424300 16.370001 0 255 0
-7.750000 -12.215000 23.495001 0 255 0
-7.700000 -14.040000 16.629999 0 255 0
-7.156700 -12.950000 14.550000 0 255 0
-7.030000 -13.500000 15.330000 0 255 0
-7.000000 -13.620000 22.049999 0 255 0
-8.251400 -13.127100 -4.192900 0 255 0
-8.268800 -13.085000 -4.277500 0 255 0
-7.110000 -13.450000 13.950000 0 255 0
-8.220000 -13.070000 11.900000 0 255 0
-8.190000 -13.040000 11.880000 0 255 0
-8.170000 -12.580000 -4.270000 0 255 255
-8.153300 -12.363300 16.666700 0 255 0
-8.590000 -12.600000 12.380000 0 255 0
-8.370000 -13.400000 1.115000 255 0 0
-8.340000 -13.720000 20.100000 0 255 0
-6.973300 -13.430000 19.106701 0 255 0
-6.960000 -13.590000 22.379999 0 255 0
-7.030000 -13.540000 13.540000 0 255 0
-7.865000 -14.015000 20.705000 0 255 0
-7.590000 -12.940000 24.580000 0 255 0
-6.909300 -13.267900 14.212100 0 255 0
-6.905000 -13.513300 16.219999 0 255 0
-7.659300 -13.409300 13.815300 0 255 0
-7.763300 -13.216700 -4.353300 0 255 255
-7.406700 -14.423300 12.520000 0 255 0
-6.820000 -13.610000 19.440001 0 255 0
-6.818300 -13.565000 16.214199 0 255 0
-8.830000 -12.860000 18.690001 0 255 0
-6.820000 -13.710000 16.370001 0 255 0
-7.055000 -13.030000 15.525000 0 255 0
-7.750000 -12.922600 -4.295700 0 255 255
-7.750000 -13.230000 20.530001 255 0 0
-7.895000 -13.125000 21.965000 255 0 0
-7.903300 -13.270000 16.826700 255 0 0
-7.910000 -13.315000 20.065001 255 0 0
-7.906200 -13.415000 13.501200 255 0 0
-8.265000 -14.255000 15.210000 0 255 0
-7.100000 -13.290000 14.030000 0 255 0
-8.240000 -13.130000 17.709999 0 255 0
-8.278000 -13.400000 -1.248000 255 0 0
-8.253600 -13.376400 1.999100 255 0 0
-8.254800 -13.313400 5.062800 255 0 0
-8.411700 -12.776700 20.001699 0 255 0
-7.945000 -14.270000 16.465000 0 255 0
-7.310000 -12.935000 16.715000 0 255 0
-8.212100 -12.274200 -4.274900 0 255 255
-7.900000 -13.900000 -3.840000 0 255 255
-7.065000 -13.416300 14.203700 0 255 0
-7.465000 -13.570000 24.610001 0 255 0
-7.113000 -13.929000 13.360000 0 255 0
-7.053300 -13.723300 21.956699 0 255 0
-7.065000 -13.880000 12.950000 0 255 0
-8.314000 -12.626000 20.964001 0 255 0
-8.068700 -13.383800 8.012500 255 0 0
-8.040000 -13.335000 11.255000 255 0 0
-7.957000 -13.366000 13.906000 255 0 0
-7.973000 -13.427000 10.663000 255 0 0
-7.940000 -13.180000 17.320000 255 0 0
-7.960000 -13.521400 7.412100 0 255 0
-7.967300 -13.473600 10.562700 255 0 0
-7.418200 -13.878200 10.508600 0 255 0
-7.961200 -13.570800 10.160000 255 0 0
-7.970000 -13.420000 15.940000 255 0 0
-7.970000 -13.725400 9.809600 0 255 0
-7.815000 -13.355000 17.764999 255 0 0
-7.810000 -13.440000 20.770000 0 255 0
-7.311400 -14.023200 11.214100 0 255 0
-8.313300 -13.416700 19.303301 0 255 0
-6.910000 -13.330000 16.413300 0 255 0
-6.966700 -13.563300 22.000000 0 255 0
-7.740000 -13.480000 13.790000 0 255 0
-7.800000 -13.680000 23.250000 0 255 0
-8.190000 -12.880000 16.100000 0 255 0
-7.070000 -12.955000 14.355000 0 255 0
-8.600000 -12.960000 12.380000 0 255 0
-8.716700 -13.263300 14.060000 0 255 0
-8.153300 -13.610000 10.613300 0 255 0
-8.155000 -13.710000 17.161699 0 255 0
-8.150000 -13.500000 4.100000 255 0 0
-7.270000 -12.650000 23.450001 0 255 0
-7.900000 -13.000000 20.830000 0 255 0
-7.695000 -12.920000 16.215000 0 255 0
-7.793300 -12.976700 -3.946700 0 255 255
-8.100000 -13.516700 8.120000 255 0 0
-8.370000 -13.290000 7.410000 255 0 0
-8.365000 -13.300000 4.175000 255 0 0
-8.762100 -13.660000 -4.487400 0 255 255
-7.166700 -12.766700 14.953300 0 255 0
-7.630000 -12.630000 23.969999 0 255 0
-7.930000 -13.340000 19.660000 255 0 0
-7.907800 -13.415600 13.106700 255 0 0
-7.920000 -13.267500 16.424999 255 0 0
-7.930000 -13.470000 9.190000 255 0 0
-7.900000 -13.660000 -4.220000 0 255 255
-7.908900 -13.362200 15.710000 255 0 0
-7.902500 -13.517500 12.350000 255 0 0
-7.363300 -13.963300 15.480000 0 255 0
-8.370000 -13.387500 1.607500 255 0 0
-8.370000 -13.040000 12.010000 0 255 0
-8.030000 -13.070000 22.580000 0 255 0
-8.005000 -13.550000 9.925000 255 0 0
-7.315000 -14.005000 21.965000 0 255 0
-7.290000 -13.620000 15.350000 0 255 0
-7.290000 -13.640000 21.959999 0 255 0
-7.264400 -14.268900 11.213300 0 255 0
-8.357100 -13.374600 0.710400 255 0 0
-8.370000 -13.650000 20.530001 0 255 0
-8.356200 -13.713800 17.263800 0 255 0
-8.515000 -12.920000 24.264999 0 255 0
-8.519000 -12.720500 9.457500 0 255 0
-8.425000 -13.565000 17.360001 0 255 0
-8.475000 -13.480000 -4.600000 0 255 0
-8.720000 -13.276700 15.700000 0 255 0
-8.455000 -13.485000 -4.445000 0 255 0
-8.707500 -13.270600 15.861300 0 255 0
-8.415400 -13.577700 -4.489200 0 255 0
-8.457500 -14.280000 16.207500 0 255 0
-8.571100 -12.617800 -4.205600 0 255 255
-8.565000 -13.065000 19.455000 0 255 0
-8.630000 -12.810000 9.590000 0 255 0
-9.002000 -13.368000 14.316000 0 255 0
-7.460000 -12.550000 24.410000 0 255 0
-7.630000 -12.910000 24.680000 0 255 0
-8.240000 -13.460000 6.590000 255 0 0
-9.103300 -13.406700 12.890000 0 255 0
-9.090000 -13.270000 16.075001 0 255 0
-8.240000 -13.290000 7.890000 255 0 0
-8.258400 -13.368100 1.610600 255 0 0
-8.257000 -13.310500 4.664100 255 0 0
-7.190000 -13.430000 16.570000 0 255 0
-7.851700 -13.120000 16.463301 0 255 0
-7.150000 -13.420000 16.320000 0 255 0
-7.915000 -13.215000 16.360001 255 0 0
-7.908300 -13.428300 13.311700 255 0 0
-7.916700 -13.272200 16.215599 255 0 0
-6.900000 -12.977500 15.352500 0 255 0
-7.870000 -13.180000 19.174999 255 0 0
-7.865000 -13.225000 15.910000 255 0 0
-7.930000 -13.360000 9.030000 0 255 0
-7.900000 -13.403300 12.160000 255 0 0
-7.910000 -13.315000 18.920000 255 0 0
-7.903800 -13.278800 15.761300 255 0 0
-7.020000 -13.274000 15.266000 0 255 0
-7.011700 -13.078300 15.465000 0 255 0
-8.121700 -12.714200 -4.350800 0 255 255
-7.956000 -12.272000 14.968000 0 255 0
-8.110000 -12.430000 -4.260000 0 255 255
-8.100000 -12.527500 14.892500 0 255 0
-8.113300 -12.561700 18.168301 0 255 0
-7.165600 -13.918900 13.168900 0 255 0
-8.213300 -12.906700 24.553301 0 255 0
-8.227500 -12.775000 14.652500 0 255 0
-8.200000 -12.840000 17.990000 0 255 0
-7.212500 -14.072500 12.912500 0 255 0
-6.810000 -13.540000 16.559999 0 255 0
-8.720000 -13.860000 15.050000 0 255 0
-8.715000 -13.780000 21.565001 0 255 0
-8.666700 -13.616700 17.306700 0 255 0
-8.750000 -13.970000 17.270000 0 255 0
-7.110000 -13.868600 14.414300 0 255 0
-7.106300 -14.010600 11.303700 0 255 0
-7.607500 -13.574400 10.758700 0 255 0
-8.454100 -13.323400 0.209100 255 0 0
-8.456700 -13.360000 -2.945600 255 0 0
-8.452500 -13.280000 3.360000 255 0 0
-8.452500 -13.321200 -1.688000 0 255 0
-8.458600 -13.272300 1.660500 255 0 0
-8.080000 -13.410000 5.840000 255 0 0
-8.064000 -13.370000 9.113500 255 0 0
-8.052000 -13.325000 12.357000 255 0 0
-8.055000 -13.327500 12.065000 255 0 0
-8.046700 -13.165000 -4.240000 0 255 0
-8.067500 -13.370500 8.812000 255 0 0
-7.355000 -12.675000 23.665001 0 255 0
-7.356000 -12.526000 20.398001 0 255 0
-8.080000 -13.480000 5.550000 255 0 0
-8.050000 -13.325700 15.017100 255 0 0
-8.065600 -13.370000 11.851900 255 0 0
-8.065500 -13.418000 8.708000 255 0 0
-8.115700 -13.402900 13.761400 255 0 0
-8.612900 -12.521400 16.151400 0 255 0
-8.055000 -13.305000 14.870000 255 0 0
-8.058200 -13.366800 11.611800 255 0 0
-8.066700 -13.421700 8.567500 255 0 0
-8.608000 -12.508000 16.205999 0 255 0
-8.120000 -13.500000 10.770000 255 0 0
-8.106000 -13.678000 7.522000 0 255 0
-8.080000 -13.090000 14.520000 0 255 0
-8.060000 -13.010000 17.754999 0 255 0
-9.050000 -13.430000 18.000000 0 255 0
-9.157500 -13.423800 12.109400 0 255 0
-9.116200 -13.768500 11.852300 0 255 0
-8.596700 -13.076700 23.463301 0 255 0
-8.600000 -12.871500 9.216000 0 255 0
-8.570000 -13.160000 18.940001 0 255 0
-8.560000 -13.070000 12.455000 0 255 0
-8.556700 -12.928300 9.175000 0 255 0
-8.206700 -13.870000 17.113300 0 255 0
-7.760000 -12.860000 16.020000 0 255 0
-7.750000 -12.980000 22.620001 0 255 0
-9.111100 -13.765600 11.908900 0 255 0
-9.155000 -13.422000 12.407000 0 255 0
-8.250000 -13.580000 -4.175000 0 255 0
-7.905000 -12.690000 18.115000 0 255 0
-7.890000 -13.110000 -4.340000 0 255 255
-8.315600 -13.134400 -1.488400 255 0 0
-8.290000 -14.450000 15.060000 0 255 0
-8.418000 -12.722000 16.051001 0 255 0
-7.655600 -14.130000 -3.990000 0 255 255
-7.825000 -13.475000 13.445000 255 0 0
-7.800000 -13.610000 23.280001 0 255 0
-7.811800 -13.216400 -3.788200 0 255 255
-8.263700 -13.455000 3.363800 255 0 0
-8.517100 -12.820000 9.322900 0 255 0
-7.257000 -12.920000 14.820000 0 255 0
-7.340000 -13.950000 12.970000 0 255 0
-7.620000 -12.940000 22.540001 0 255 0
-8.850000 -13.340000 19.639999 0 255 0
-7.755000 -12.825000 23.969999 0 255 0
-7.263300 -14.270000 13.120000 0 255 0
-7.420000 -12.330000 22.260000 0 255 0
-7.555000 -12.372500 22.212500 0 255 0
-8.070000 -13.261700 18.945000 0 255 0
-8.070000 -13.820000 9.940000 0 255 0
-8.362200 -13.367800 -2.885600 255 0 0
-8.360400 -13.133900 0.210200 255 0 0
-8.762900 -13.560000 -4.531400 0 255 255
-8.740000 -13.210000 17.610001 0 255 0
-7.140000 -13.100000 24.094999 0 255 0
-7.020000 -13.980000 15.100000 0 255 0
-7.530000 -12.880000 22.670000 0 255 0
-7.005000 -13.787500 15.270000 0 255 0
-8.600000 -13.400000 -4.160000 0 255 0
-8.250000 -13.400000 6.220000 255 0 0
-8.252500 -13.365000 9.362500 255 0 0
-8.275000 -13.235000 19.254999 0 255 0
-8.240000 -13.620000 17.490000 0 255 0
-8.280000 -13.136000 -1.502000 0 255 0
-8.480000 -12.930000 19.209999 0 255 0
-8.525000 -12.685000 9.465000 0 255 0
-8.640000 -12.920000 24.209999 0 255 0
-8.556300 -13.363700 13.865600 0 255 0
-8.617500 -13.120000 16.048700 0 255 0
-7.903300 -14.236700 15.216700 0 255 0
-7.366700 -13.718300 21.115000 0 255 0
-8.416700 -12.623300 16.150000 0 255 0
-7.050000 -12.920000 15.315000 0 255 0
-7.014000 -13.624000 14.158000 0 255 0
-7.268800 -14.171800 13.014700 0 255 0
-7.708300 -14.218300 16.614201 0 255 0
-7.106700 -13.021100 15.214400 0 255 0
-7.400000 -13.720000 21.266701 0 255 0
-7.402200 -14.375600 12.655600 0 255 0
-7.040000 -12.860000 14.230000 0 255 0
-8.330000 -12.550000 20.980000 0 255 0
-6.964000 -13.924000 11.108000 0 255 0
-7.015000 -14.022500 11.020000 0 255 0
-7.515000 -13.585000 10.772500 0 255 0
-8.215000 -12.830000 20.910000 0 255 0
-8.576700 -12.383300 12.266700 0 255 0
-8.080000 -12.580000 21.080000 0 255 0
-8.971700 -13.125000 -4.435000 0 255 255
-9.063300 -13.370000 14.166700 0 255 0
-7.030000 -13.900000 18.799999 0 255 0
-7.025000 -13.965000 18.790001 0 255 0
-7.020000 -14.000000 21.959999 0 255 0
-8.206700 -12.368300 16.718300 0 255 0
-7.656300 -13.271300 16.510000 0 255 0
-7.650000 -13.200000 16.610001 0 255 0
-7.016100 -13.870600 12.866100 0 255 0
-8.444300 -13.352900 -1.997100 255 0 0
-8.460800 -13.319200 1.265000 255 0 0
-8.450000 -13.400000 19.809999 0 255 0
-8.447500 -13.267500 4.312500 255 0 0
-6.910000 -13.660000 13.870000 0 255 0
-8.090000 -14.140000 23.049999 0 255 0
-6.895000 -13.820000 22.745001 0 255 0
-8.556700 -13.321100 15.865600 0 255 0
-6.910000 -13.670000 15.070000 0 255 0
-8.114000 -13.272000 13.956000 255 0 0
-6.909100 -13.667300 15.158200 0 255 0
-8.152500 -13.157500 15.850000 0 255 0
-8.275000 -14.330000 16.245001 0 255 0
-8.500000 -13.030000 23.490000 0 255 0
-7.260000 -13.175000 15.111700 0 255 0
-7.818700 -12.873800 -4.439400 0 255 255
-8.730000 -13.120000 17.799999 0 255 0
-9.150000 -13.420000 12.460000 0 255 0
-8.407500 -12.717500 19.820000 0 255 0
-7.060000 -13.437500 14.292500 0 255 0
-7.050000 -14.060000 20.559999 0 255 0
-9.070000 -13.770000 11.880000 0 255 0
-7.140000 -13.620000 18.910000 0 255 0
-7.160000 -13.904300 12.960000 0 255 0
-8.265800 -13.172900 -1.442300 255 0 0
-8.990000 -13.060000 17.709999 0 255 0
-9.020000 -12.930000 9.290000 0 255 0
-9.009100 -13.016800 15.616400 0 255 0
-9.200000 -13.360000 11.880000 0 255 0
-8.554000 -12.536000 -4.010000 0 255 255
-8.562500 -12.972500 18.160000 0 255 0
-7.026700 -13.730000 19.213301 0 255 0
-7.895000 -13.120000 16.205000 0 255 0
-7.160000 -13.970000 21.865000 0 255 0
-7.710000 -14.126700 19.153299 0 255 0
-8.368600 -13.154100 0.160500 255 0 0
-7.125000 -12.425000 23.290001 0 255 0
-7.620000 -14.060000 -3.943300 0 255 255
-8.670000 -13.870000 16.969999 0 255 0
-8.120000 -14.330000 16.257500 0 255 0
-8.450000 -13.180000 19.049999 0 255 0
-7.610500 -13.368400 13.855800 0 255 0
-7.059300 -14.018700 13.109300 0 255 0
-7.390000 -13.280000 13.953300 0 255 0
-7.400000 -12.670000 22.700001 0 255 0
-7.407100 -12.565300 16.212900 0 255 0
-7.040000 -13.427100 16.314301 0 255 0
-7.566700 -12.816700 16.113300 0 255 0
-7.013100 -13.223700 15.213800 0 255 0
-7.200000 -14.100000 20.370001 0 255 0
-7.216700 -13.980000 10.703300 0 255 0
-7.009300 -13.023300 14.259300 0 255 0
-7.060000 -13.073300 14.155800 0 255 0
-8.250000 -13.350000 9.650000 255 0 0
-8.707500 -13.757500 17.212500 0 255 0
-7.214500 -13.970900 11.303600 0 255 0
-7.210000 -13.971000 11.105000 0 255 0
-7.305800 -14.115800 11.110400 0 255 0
-7.256700 -13.975800 10.657500 0 255 0
-7.260000 -13.470000 16.400000 0 255 0
-7.880000 -13.480000 20.379999 0 255 0
-7.857800 -13.624800 10.254300 0 255 0
-7.800000 -13.390000 20.660000 255 0 0
-7.800000 -13.305000 17.520000 255 0 0
-8.630000 -13.010000 18.809999 0 255 0
-7.207900 -12.965700 16.754299 0 255 0
-7.856700 -13.223300 16.400000 255 0 0
-7.851300 -13.173800 19.656200 255 0 0
-7.960600 -13.325900 7.465900 0 255 0
-7.650000 -14.166700 19.203300 0 255 0
-8.261000 -12.822000 17.861000 0 255 0
-8.280000 -12.760000 21.020000 0 255 0
-8.140000 -13.015000 17.670000 0 255 0
-8.304600 -13.380000 -2.144600 255 0 0
-8.310000 -13.326700 7.620000 255 0 0
-8.308600 -13.266700 4.357400 255 0 0
-8.312700 -13.382000 1.204700 255 0 0
-8.290000 -13.430000 4.360000 255 0 0
-8.310000 -13.285000 7.515000 255 0 0
-8.312500 -13.176200 13.853800 0 255 0
-8.290000 -13.120000 23.299999 0 255 0
-8.325000 -13.400000 -2.075000 255 0 0
-8.311700 -13.313300 4.408300 255 0 0
-7.420000 -13.720000 21.090000 0 255 0
-6.930000 -13.900000 22.600000 0 255 0
-8.406700 -13.090000 -0.283300 255 0 0
-8.463300 -13.375600 -3.694400 255 0 0
-8.452500 -13.315100 -0.441700 0 255 0
-8.455000 -13.271700 2.810000 255 0 0
-8.440000 -13.750000 21.629999 0 255 0
-6.902800 -13.666700 16.261700 0 255 0
-8.266700 -12.963300 24.596701 0 255 0
-7.220000 -12.970000 16.715000 0 255 0
-8.170000 -13.260000 17.325001 0 255 0
-8.160000 -13.140000 13.950000 0 255 0
-7.890000 -13.030000 20.740000 0 255 0
-7.903300 -12.663300 17.996700 0 255 0
-7.895000 -13.120000 -4.280000 0 255 255
-7.356700 -13.040000 -4.060000 0 255 255
-8.290000 -13.970000 21.690001 0 255 0
-7.410000 -13.110000 -4.360000 0 255 255
-8.249000 -13.270000 1.908000 255 0 0
-8.246100 -13.331400 -1.340000 255 0 0
-8.630000 -13.200000 17.930000 0 255 0
-8.608700 -12.865000 -4.152500 0 255 0
-6.915000 -13.870000 18.730000 0 255 0
-6.908600 -13.867100 18.772900 0 255 0
-6.910000 -13.860000 18.840000 0 255 0
-7.010000 -13.912000 10.918000 0 255 0
-6.998600 -13.978600 11.104300 0 255 0
-7.055000 -13.913300 14.203300 0 255 0
-7.212100 -12.823600 15.010700 0 255 0
-7.910000 -13.030000 17.930000 0 255 0
-7.555000 -12.455000 16.309999 0 255 0
-8.206700 -13.468300 15.860000 0 255 0
-8.190000 -13.410000 12.590000 0 255 0
-8.204700 -13.372700 9.561300 255 0 0
-8.218500 -13.278900 3.209300 255 0 0
-8.221800 -13.221800 -0.036400 255 0 0
-8.213000 -13.325900 6.307800 0 255 0
-8.340000 -13.140000 18.790001 0 255 0
-8.360000 -13.380000 15.300000 0 255 0
-8.354300 -13.267900 9.015000 0 255 0
-8.352500 -13.324400 5.761300 255 0 0
-9.130000 -12.300000 -4.090000 0 255 255
-9.510000 -12.990000 -4.090000 0 255 255
-8.214000 -12.408000 21.164000 0 255 0
-9.307500 -13.612500 -2.502500 0 255 255
-7.720000 -13.160000 20.075001 0 255 0
-7.420000 -12.370000 22.245001 0 255 0
-8.311700 -13.181700 -3.883300 255 0 0
-7.000000 -12.760000 23.600000 0 255 0
-7.120000 -12.420000 23.600000 0 255 0
-8.580000 -13.680000 14.860000 0 255 0
-8.140000 -12.830000 20.820000 0 255 0
-8.661100 -13.526100 -4.487200 0 255 0
-8.660000 -13.190000 17.920000 0 255 0
-7.160000 -14.120000 11.110900 0 255 0
-7.510000 -14.050000 21.010000 0 255 0
-8.417500 -13.967500 15.357500 0 255 0
-8.445200 -13.356400 -0.692100 255 0 0
-8.452200 -13.318400 2.561900 255 0 0
-8.453300 -13.206700 9.063300 0 255 0
-8.550000 -13.060000 -3.700000 255 0 0
-8.550000 -13.360000 15.440000 0 255 0
-7.158000 -12.468000 23.299999 0 255 0
-8.219300 -13.716400 -4.482900 0 255 0
-7.270000 -14.170000 12.965000 0 255 0
-7.910000 -13.227500 17.217501 255 0 0
-6.840000 -13.560000 13.780000 0 255 0
-8.690000 -13.260000 15.540000 0 255 0
-8.658000 -12.926300 12.464300 0 255 0
-8.170000 -13.360000 -2.770000 255 0 0
-8.151800 -13.413600 6.955500 255 0 0
-8.420000 -14.060000 15.403300 0 255 0
-8.555000 -13.615000 14.725000 0 255 0
-6.960000 -13.440000 16.070000 0 255 0
-6.980000 -13.520000 22.540001 0 255 0
-7.160000 -13.620000 22.146700 0 255 0
-8.150000 -14.000000 17.000000 0 255 0
-7.509500 -12.735700 -4.390000 0 255 255
-8.140000 -13.490000 7.410000 255 0 0
-8.180000 -13.220000 -1.985000 255 0 0
-8.152200 -13.418900 10.662200 255 0 0
-8.162100 -13.321800 4.366100 0 255 0
-7.905000 -13.957500 -3.976300 0 255 255
-8.965000 -13.070000 16.350000 0 255 0
-7.653300 -13.303300 21.350000 0 255 0
-7.420000 -13.453300 -4.190000 0 255 255
-7.406200 -12.966300 14.811200 0 255 0
-8.190000 -12.420000 16.860001 0 255 0
-9.145000 -13.223000 14.166000 0 255 0
-8.510000 -13.120000 1.280000 255 0 0
-8.490000 -14.280000 -3.480000 0 255 255
-8.065000 -13.185000 15.765000 255 0 0
-6.862900 -13.718600 15.162900 0 255 0
-8.125000 -13.277500 9.452500 255 0 0
-8.116000 -13.418000 19.368000 0 255 0
-8.120000 -13.283300 12.123300 255 0 0
-8.416700 -13.821700 15.308300 0 255 0
-8.408700 -13.113100 -3.846200 255 0 0
-8.414100 -13.163900 -0.589800 255 0 0
-8.409200 -13.224900 2.656700 255 0 0
-8.054400 -12.515600 16.558901 0 255 0
-8.510000 -13.140000 18.230000 0 255 0
-8.610000 -13.550000 20.059999 0 255 0
-8.560000 -13.470000 19.950001 0 255 0
-8.540000 -13.150000 1.160000 255 0 0
-8.550000 -13.360000 13.830000 0 255 0
-8.570000 -13.470000 20.260000 0 255 0
-8.510000 -13.550000 20.490000 0 255 0
-7.245000 -14.220000 11.215000 0 255 0
-8.500400 -13.170600 -3.041500 0 255 0
-8.500000 -13.530000 19.030001 0 255 0
-8.502800 -13.169800 -3.139600 255 0 0
-8.501100 -13.177000 -2.838700 0 255 0
-8.506700 -13.270000 16.103300 0 255 0
-8.180000 -14.110000 22.750000 0 255 0
-8.308000 -13.390000 1.609000 255 0 0
-8.307900 -13.217100 17.409300 0 255 0
-8.720000 -13.376700 15.900000 0 255 0
-8.030000 -13.750000 19.160000 0 255 0
-7.000000 -13.900000 18.700001 0 255 0
-7.000000 -13.876700 12.720000 0 255 0
-7.013700 -13.870000 12.810000 0 255 0
-7.020000 -13.760000 15.060000 0 255 0
-8.713300 -12.760000 21.260000 0 255 0
-8.710000 -12.926700 18.206699 0 255 0
-7.520000 -13.425000 22.670000 0 255 0
-7.360800 -13.924200 11.260800 0 255 0
-7.054300 -13.178600 15.410000 0 255 0
-8.545000 -13.271700 -3.138300 255 0 0
-8.550000 -13.220000 0.020000 255 0 0
-8.560000 -13.360000 3.090000 0 255 0
-8.540000 -13.266000 -3.202000 255 0 0
-8.546700 -13.270000 -3.344100 0 255 0
-8.547500 -13.351200 2.972500 0 255 0
-8.412000 -14.310000 -3.444000 0 255 255
-8.511700 -13.360000 -3.689200 255 0 0
-8.490000 -13.280000 2.800000 255 0 0
-8.492500 -13.217500 -0.340000 255 0 0
-8.530000 -13.220000 -3.625000 255 0 0
-8.520000 -13.270000 -0.470000 255 0 0
-8.492000 -13.356000 -3.526000 0 255 0
-8.493300 -13.216700 -0.486700 255 0 0
-8.490000 -13.254000 -1.705000 0 255 0
-8.514200 -13.372500 -4.037500 0 255 0
-8.495000 -13.230000 -0.775000 255 0 0
-8.512000 -13.364000 -4.096000 0 255 0
-8.490000 -13.230000 -0.738900 255 0 0
-8.503300 -13.256700 2.423300 255 0 0
-6.890000 -13.670000 15.290000 0 255 0
-8.506200 -13.370800 -3.996200 0 255 0
-8.507500 -13.217500 -0.855000 255 0 0
-8.515000 -13.280000 2.310000 255 0 0
-6.910000 -13.820000 22.530001 0 255 0
-8.491100 -13.268900 -1.878300 255 0 0
-8.530000 -13.640000 21.070000 0 255 0
-8.530000 -13.710000 14.770000 0 255 0
-8.500000 -13.260000 2.220000 255 0 0
-8.505700 -13.204300 -0.942900 255 0 0
-8.495000 -13.220000 1.865000 255 0 0
-8.510000 -13.211700 -1.546700 255 0 0
-8.510000 -13.470000 14.560000 0 255 0
-8.500000 -13.213300 -1.645000 0 255 0
-8.505000 -13.272500 1.447500 255 0 0
-8.500500 -13.213300 -1.781200 255 0 0
-8.502000 -13.214000 1.364000 255 0 0
-8.495000 -13.280000 4.410000 255 0 0
-8.490000 -13.206700 1.253300 255 0 0
-8.490000 -13.770000 19.860001 0 255 0
-8.502000 -13.222000 -2.194000 255 0 0
-6.910000 -13.870000 17.660000 0 255 0
-6.900000 -13.820000 14.490000 0 255 0
-8.510000 -13.700000 17.330000 0 255 0
-8.496700 -13.229200 -2.486700 255 0 0
-8.500000 -13.515000 7.570000 0 255 0
-8.520000 -13.205000 0.610000 255 0 0
-6.913300 -13.816700 18.799999 0 255 0
-8.502500 -13.222500 0.552500 255 0 0
-8.495000 -13.275000 0.460000 255 0 0
-8.504700 -13.217800 -2.790000 0 255 0
-8.560000 -13.666700 15.900000 0 255 0
-8.590000 -13.170000 -3.335000 255 0 0
-8.615000 -13.585000 22.745001 0 255 0
-8.614400 -13.286700 3.001100 0 255 0
-8.549000 -13.218700 -3.337400 255 0 0
-8.565000 -13.620000 22.754999 0 255 0
-8.562300 -13.320000 2.965000 0 255 0
-7.016700 -13.970000 12.813300 0 255 0
-7.603800 -13.328700 19.006300 0 255 0
-7.000000 -14.005000 15.225000 0 255 0
-7.010000 -13.660000 21.990000 0 255 0
-7.000000 -13.640000 18.840000 0 255 0
-7.003300 -14.020000 15.296700 0 255 0
-7.001700 -13.923300 14.343300 0 255 0
-7.160000 -13.040000 24.040001 0 255 0
-7.140000 -13.165000 14.170000 0 255 0
-6.902000 -13.858000 15.270000 0 255 0
-7.005000 -13.955000 10.925000 0 255 0
-7.630000 -13.520000 16.350000 0 255 0
-7.606000 -13.460000 13.200000 0 255 0
-7.630000 -13.630000 22.670000 0 255 0
-7.470000 -13.330000 21.450001 0 255 0
-7.005000 -14.015000 14.445000 0 255 0
-6.997500 -13.973700 11.060000 0 255 0
-7.004300 -13.960000 11.010000 0 255 0
-8.450000 -13.174100 1.310900 255 0 0
-7.290000 -13.820000 22.780001 0 255 0
-7.010000 -12.855000 14.505000 0 255 0
-7.002000 -14.016000 14.270000 0 255 0
-7.020000 -13.975600 11.262200 0 255 0
-7.002500 -14.015000 13.310000 0 255 0
-8.855000 -13.160000 17.905001 0 255 0
-8.370000 -12.453300 -4.256700 0 255 255
-8.440000 -13.350000 6.570000 255 0 0
-8.440000 -13.570000 19.230000 0 255 0
-8.454700 -13.125100 -2.940100 0 255 0
-9.230000 -13.620000 -2.540000 0 255 255
-8.456100 -12.473900 14.656700 0 255 0
-8.964000 -12.865600 -4.339200 0 255 255
-7.180000 -12.790000 16.850000 0 255 0
-9.165000 -13.575000 11.820000 0 255 0
-7.817800 -14.380000 15.366700 0 255 0
-7.800000 -14.390000 15.510000 0 255 0
-7.826000 -14.067000 -3.853000 0 255 255
-7.090000 -13.670000 22.309999 0 255 0
-7.122000 -13.914000 12.806000 0 255 0
-8.459500 -13.320900 -1.788400 0 255 0
-8.464600 -13.267000 1.364300 255 0 0
-8.460000 -13.410000 17.969999 0 255 0
-8.267100 -13.308600 -3.338600 255 0 0
-8.260000 -13.128000 9.306000 0 255 0
-8.265400 -13.222600 3.005900 255 0 0
-8.244500 -13.273600 -0.090900 255 0 0
-7.370000 -12.970000 14.780000 0 255 0
-8.708000 -13.866000 21.558001 0 255 0
-7.840000 -13.050000 16.570000 0 255 0
-8.580000 -12.370000 16.420000 0 255 0
-7.630000 -13.370000 -3.870000 0 255 255
-8.357400 -12.313700 -4.254200 0 255 255
-8.345000 -12.870000 11.970000 0 255 0
-7.980000 -12.880000 -4.220000 0 255 0
-9.207500 -13.620000 -4.500000 0 255 255
-8.020000 -12.362500 16.562500 0 255 0
-8.360800 -13.381300 -1.636300 255 0 0
-8.359700 -13.130600 1.357400 255 0 0
-8.398000 -13.462000 3.864000 255 0 0
-8.430000 -12.520000 14.570000 0 255 0
-7.240000 -14.140000 12.925000 0 255 0
-8.656000 -13.514000 17.208000 0 255 0
-8.263300 -12.921700 16.219999 0 255 0
-7.020000 -14.030000 10.790000 0 255 0
-7.660000 -13.082500 16.355000 0 255 0
-8.266600 -13.264500 -3.034500 255 0 0
-8.252900 -13.211700 0.357600 255 0 0
-8.360000 -12.423300 12.613300 0 255 0
-7.107500 -12.415000 23.257500 0 255 0
-8.152500 -13.413300 6.905000 255 0 0
-8.105000 -14.065000 22.610001 0 255 0
-8.670000 -13.320000 3.050000 0 255 0
-8.762500 -13.175000 15.557500 0 255 0
-8.560000 -13.623300 15.963300 0 255 0
-7.105000 -13.515000 13.590000 0 255 0
-8.405000 -12.870000 -4.145000 0 255 0
-8.400000 -12.810000 18.080000 0 255 0
-8.500000 -13.313300 19.309999 0 255 0
-8.580000 -13.030000 9.550000 0 255 0
-8.580000 -13.220000 22.219999 0 255 0
-8.563300 -12.836700 -3.896700 0 255 0
-7.450000 -14.180000 21.379999 0 255 0
-7.440000 -14.230000 18.090000 0 255 0
-7.450000 -14.130000 21.010000 0 255 0
-7.525000 -14.335000 12.455000 0 255 0
-7.530000 -14.300000 16.610001 0 255 0
-6.806700 -13.428300 16.263300 0 255 0
-8.460000 -13.240000 18.270000 0 255 0
-8.455000 -13.175000 -4.120000 0 255 0
-8.470000 -13.120000 -0.890000 255 0 0
-8.570000 -14.416700 -3.448300 0 255 255
-7.720000 -13.400000 20.200001 0 255 0
-7.110000 -13.380000 16.549999 0 255 0
-7.590000 -12.680000 16.040001 0 255 0
-7.621700 -13.773300 10.325000 0 255 0
-8.276300 -13.128400 -2.642600 255 0 0
-7.150000 -13.970000 20.230000 0 255 0
-8.690000 -13.770000 21.809999 0 255 0
-9.275000 -13.515000 -4.290000 0 255 255
-8.330000 -12.820000 21.200001 0 255 0
-8.100000 -13.477500 8.260000 255 0 0
-8.121700 -13.405000 5.006700 255 0 0
-8.113300 -13.323300 11.510000 255 0 0
-7.410000 -13.220000 -3.990000 0 255 255
-7.006700 -13.810000 15.320000 0 255 0
-8.250000 -13.380000 2.330000 255 0 0
-8.260700 -13.319500 5.558900 255 0 0
-8.266400 -13.405000 -0.241400 255 0 0
-8.250000 -13.380000 3.000000 255 0 0
-8.266200 -13.261500 9.309200 0 255 0
-8.257500 -13.320200 6.061900 255 0 0
-8.255900 -13.410600 2.312900 255 0 0
-8.260000 -13.318300 8.803300 255 0 0
-8.258300 -13.368300 5.463300 255 0 0
-6.945000 -13.622500 19.155001 0 255 0
-7.515000 -13.985000 20.740000 0 255 0
-8.109100 -13.367000 8.160900 255 0 0
-7.525000 -13.935000 20.920000 0 255 0
-8.456700 -13.176700 1.963300 255 0 0
-7.350000 -13.915000 21.112499 0 255 0
-7.053300 -13.118300 15.503300 0 255 0
-7.016700 -13.680000 15.260000 0 255 0
-7.030000 -13.700000 23.850000 0 255 0
-8.366700 -14.260000 15.266700 0 255 0
-7.517100 -14.011400 15.424300 0 255 0
-7.516700 -13.876700 20.910000 0 255 0
-7.490000 -13.785000 22.155001 0 255 0
-7.510000 -13.920000 20.049999 0 255 0
-7.351200 -13.067600 -4.232400 0 255 255
-7.450000 -13.610000 21.020000 0 255 0
-7.940000 -12.990000 20.719999 0 255 0
-7.473300 -14.076700 15.470000 0 255 0
-7.150000 -12.560000 23.280001 0 255 0
-7.170000 -13.870000 21.010000 0 255 0
-6.980000 -13.800000 15.205000 0 255 0
-7.570000 -13.640000 24.480000 0 255 0
-8.270000 -13.856700 15.406700 0 255 0
-8.258000 -13.874000 17.153999 0 255 0
-8.250000 -13.220000 18.540001 0 255 0
-8.251700 -13.363300 9.053300 255 0 0
-8.240000 -13.400000 5.920000 255 0 0
-8.200000 -13.430000 7.270000 255 0 0
-8.196700 -13.463300 10.420000 255 0 0
-8.212300 -13.367300 4.111500 255 0 0
-8.222800 -13.270800 -2.638800 255 0 0
-8.222100 -13.307100 0.962500 0 255 0
-8.870000 -13.040000 18.299999 0 255 0
-7.310000 -13.812900 21.157101 0 255 0
-7.816700 -12.760000 -4.045000 0 255 255
-8.700000 -13.340000 19.480000 0 255 0
-7.160000 -13.470000 22.280001 0 255 0
-7.180000 -13.380000 15.940000 0 255 0
-7.360000 -12.716700 15.016700 0 255 0
-8.880000 -13.240000 -4.590000 0 255 0
-8.840000 -12.890000 19.180000 0 255 0
-7.027500 -13.080000 14.167500 0 255 0
-9.110000 -13.510000 12.380000 0 255 0
-8.380000 -13.620000 21.090000 0 255 0
-8.368300 -13.523300 14.613300 0 255 0
-8.366000 -13.152700 -1.737300 255 0 0
-9.020000 -13.527500 12.115000 0 255 0
-7.160000 -13.910000 14.450000 0 255 0
-8.920000 -12.210000 -4.150000 0 255 255
-8.745000 -13.313700 13.965000 0 255 0
-7.965000 -13.235000 18.750000 255 0 0
-7.940000 -13.530000 12.400000 255 0 0
-7.954400 -13.580000 -4.185600 0 255 255
-7.957800 -13.367000 9.267000 0 255 0
-7.973300 -13.180000 21.923300 0 255 0
-8.347500 -13.477500 6.607500 255 0 0
-8.505000 -13.320000 18.911699 0 255 0
-8.520000 -12.916000 -4.136000 0 255 0
-7.324000 -13.982000 13.058000 0 255 0
-7.766700 -13.666700 20.820000 0 255 0
-7.890000 -13.180000 22.309999 255 0 0
-7.930000 -13.300000 19.049999 255 0 0
-7.907300 -13.273600 15.805500 255 0 0
-7.920000 -13.415500 12.911800 255 0 0
-8.760000 -13.620000 20.680000 0 255 0
-7.330000 -12.680000 14.920000 0 255 0
-8.690000 -13.490000 17.209999 0 255 0
-7.013000 -14.059000 11.260000 0 255 0
-7.900000 -14.080000 23.510000 0 255 0
-8.012000 -13.332000 11.706000 255 0 0
-7.952500 -13.225000 16.257500 255 0 0
-7.940000 -13.450000 13.270000 255 0 0
-7.965000 -13.520000 10.117500 255 0 0
-6.990000 -12.510000 23.000000 0 255 0
-7.780000 -12.890000 23.180000 0 255 0
-7.063300 -14.017800 13.314400 0 255 0
-8.600000 -13.190000 -3.705000 255 0 0
-8.630000 -13.590000 22.520000 0 255 0
-8.156700 -13.273300 0.463300 255 0 0
-8.180000 -13.330000 9.880000 255 0 0
-8.161200 -13.365900 6.609800 255 0 0
-7.402000 -12.972000 14.846000 0 255 0
-8.103800 -13.962500 14.710000 0 255 0
-7.360000 -14.320000 14.350000 0 255 0
-7.910000 -13.326700 17.463301 255 0 0
-7.906700 -13.174400 20.706699 255 0 0
-9.050000 -13.680000 12.720000 0 255 0
-9.410000 -13.560000 -4.370000 0 255 255
-8.520000 -13.220000 19.049999 0 255 0
-8.510000 -13.265000 18.795000 0 255 0
-8.502500 -13.182500 -0.735000 255 0 0
-8.519400 -13.108000 -3.890000 255 0 0
-8.590000 -13.465000 20.100000 0 255 0
-8.590000 -13.530000 20.629999 0 255 0
-8.610000 -13.150000 -1.360000 255 0 0
-8.605000 -13.525000 20.809999 0 255 0
-8.590000 -13.540000 21.120001 0 255 0
-8.700000 -13.290000 15.990000 0 255 0
-8.480000 -13.430000 -4.380000 0 255 0
-8.520000 -13.300000 -3.980000 255 0 0
-8.525000 -13.360000 -4.190000 0 255 0
-8.490000 -13.250000 2.120000 255 0 0
-8.498000 -13.219300 -1.034700 0 255 0
-8.490000 -13.270000 1.990000 255 0 0
-8.495000 -13.237500 -1.142500 255 0 0
-8.580000 -13.550000 14.370000 0 255 0
-8.550000 -13.380000 1.710000 255 0 0
-8.580000 -13.680000 20.719999 0 255 0
-8.540000 -13.230000 -1.350000 255 0 0
-8.630000 -13.530000 19.809999 0 255 0
-7.313300 -13.860000 21.966700 0 255 0
-7.000000 -13.480000 15.290000 0 255 0
-6.990000 -13.560000 21.809999 0 255 0
-7.320000 -13.840000 21.860001 0 255 0
-8.550000 -13.090000 16.139999 0 255 0
-7.280000 -14.180000 18.059999 0 255 0
-7.260000 -14.110000 21.330000 0 255 0
-7.400000 -13.280000 24.605000 0 255 0
-9.000000 -12.590000 9.380000 0 255 0
-9.030000 -13.970000 -4.550000 0 255 255
-8.466000 -12.530000 20.108000 0 255 0
-6.860300 -13.118400 14.257900 0 255 0
-8.190000 -12.640000 21.240000 0 255 0
-8.200000 -12.561700 18.110001 0 255 0
-8.210000 -12.523300 14.970000 0 255 0
-8.770000 -12.425000 9.400000 0 255 0
-8.210000 -12.720000 -4.260000 0 255 255
-8.990000 -14.130000 7.790000 0 255 0
-7.960000 -13.216700 9.346700 0 255 0
-7.955000 -13.313300 15.653300 255 0 0
-7.965000 -13.205000 9.120000 0 255 0
-7.967500 -13.317500 15.410000 255 0 0
-7.850000 -13.870000 23.420000 0 255 0
-8.640000 -12.810000 19.400000 0 255 0
-8.491300 -13.355000 -3.388700 255 0 0
-8.520000 -13.210000 -0.230000 255 0 0
-8.530000 -13.290000 2.920000 255 0 0
-7.670000 -13.080000 23.900000 0 255 0
-7.670000 -13.070000 16.190001 0 255 0
-7.940000 -14.370000 15.425000 0 255 0
-8.040000 -13.150000 16.299999 0 255 0
-8.298800 -13.375000 8.158700 255 0 0
-7.153300 -13.330000 22.206699 0 255 0
-8.170000 -12.465000 -4.300000 0 255 255
-7.670000 -14.055000 19.205000 0 255 0
-8.212900 -12.718800 -4.377600 0 255 255
-8.346700 -13.326700 15.216700 0 255 0
-7.220000 -13.370000 21.620001 0 255 0
-7.160000 -13.880000 15.190000 0 255 0
-8.415000 -13.960000 20.014999 0 255 0
-7.890000 -13.120000 -4.190000 0 255 255
-8.370000 -13.474000 5.514000 255 0 0
-8.050000 -13.950000 17.290001 0 255 0
-8.474300 -12.875700 -3.930000 0 255 0
-8.455000 -13.325000 19.020000 0 255 0
-8.455000 -13.067500 9.502500 0 255 0
-8.515000 -13.270000 15.410000 0 255 0
-8.510000 -13.230000 15.390000 0 255 0
-8.516600 -13.115700 -3.736600 255 0 0
-8.600300 -13.124900 -4.142300 0 255 0
-8.918300 -12.613300 -4.201700 0 255 255
-8.080000 -12.360000 14.880000 0 255 0
-8.052500 -13.085000 -3.900000 0 255 0
-7.813300 -13.180000 19.816700 255 0 0
-7.970000 -14.010000 22.830000 0 255 0
-8.510000 -13.320000 2.620000 255 0 0
-8.560000 -13.300000 15.440000 0 255 0
-8.555000 -13.020000 -4.255000 0 255 0
-8.550000 -13.160000 -1.070000 255 0 0
-8.611000 -13.218300 -3.940900 255 0 0
-8.410000 -14.370000 11.500000 0 255 0
-7.205000 -12.675000 23.455000 0 255 0
-8.505000 -13.354200 -3.340000 255 0 0
-8.500000 -13.225000 -0.292500 255 0 0
-8.516000 -13.284000 2.960000 255 0 0
-8.498000 -13.274500 -1.144500 255 0 0
-8.850000 -12.224200 -4.228300 0 255 255
-9.225000 -13.635000 -2.620000 0 255 255
-6.830000 -13.670000 20.805000 0 255 0
-7.350000 -13.330000 14.000000 0 255 0
-7.105000 -12.960000 14.805000 0 255 0
-7.865000 -13.170000 9.220000 0 255 0
-8.570000 -13.426700 -4.556700 0 255 0
-8.580000 -13.710000 14.810000 0 255 0
-8.420000 -14.090000 21.600000 0 255 0
-8.560000 -13.015000 9.375000 0 255 0
-7.768000 -13.416000 13.772000 0 255 0
-7.900000 -13.700000 10.220000 0 255 0
-8.875000 -13.260000 16.180000 0 255 0
-8.850000 -13.170000 22.469999 0 255 0
-7.765000 -13.265000 21.700001 255 0 0
-7.015000 -12.965000 15.355000 0 255 0
-7.960000 -14.369200 15.314200 0 255 0
-8.300000 -14.210000 21.879999 0 255 0
-7.670000 -14.270000 15.510000 0 255 0
-7.650000 -14.160000 -3.860000 0 255 255
-7.280000 -13.240000 15.400000 0 255 0
-8.510000 -12.480000 21.450001 0 255 0
-7.160000 -14.090000 21.549999 0 255 0
-8.260000 -12.905000 14.655000 0 255 0
-8.259400 -12.865600 17.910000 0 255 0
-8.400000 -13.550000 6.700000 0 255 0
-8.460000 -13.874000 15.348000 0 255 0
-7.690000 -12.850000 22.580000 0 255 0
-7.460000 -14.118000 11.064000 0 255 0
-8.146700 -13.473300 7.063300 255 0 0
-8.173300 -13.213300 -2.440000 255 0 0
-8.170000 -13.325000 3.911700 255 0 0
-8.162500 -13.412500 10.207500 255 0 0
-8.160000 -13.400000 12.470000 255 0 0
-8.140000 -13.260000 -3.860000 0 255 0
-8.174300 -13.334300 6.162900 255 0 0
-8.170000 -13.367100 2.915700 255 0 0
-8.178000 -13.228000 -0.602000 255 0 0
-7.718200 -12.967300 -4.453600 0 255 255
-7.760000 -14.120000 20.889999 0 255 0
-8.380000 -13.090000 -3.620000 255 0 0
-8.360000 -13.210000 -0.400000 255 0 0
-8.354400 -13.185600 2.858900 255 0 0
-8.460000 -12.510000 21.080000 0 255 0
-7.590000 -12.810000 22.580000 0 255 0
-7.610000 -13.800000 10.330000 0 255 0
-7.750000 -13.400000 16.980000 255 0 0
-7.780000 -13.560000 20.209999 0 255 0
-7.600000 -12.150000 23.670000 0 255 0
-7.420000 -14.330000 18.030001 0 255 0
-8.450000 -13.890000 17.400000 0 255 0
-8.400000 -13.840000 -4.730000 0 255 255
-8.307100 -13.365000 7.010700 255 0 0
-7.430000 -12.810000 16.030001 0 255 0
-6.862000 -13.428000 16.198000 0 255 0
-6.855000 -13.725000 22.764999 0 255 0
-8.212500 -13.512500 15.900000 0 255 0
-8.280000 -13.440000 1.240000 255 0 0
-8.263700 -13.355000 4.506300 255 0 0
-8.257600 -13.326000 7.763200 255 0 0
-8.442500 -13.405000 3.712500 255 0 0
-6.800000 -13.500000 18.820000 0 255 0
-6.790000 -13.590000 21.940001 0 255 0
-6.800000 -13.580000 22.790001 0 255 0
-6.812900 -13.468600 16.307100 0 255 0
-7.107500 -13.512500 21.655001 0 255 0
-8.160000 -13.450000 11.760000 255 0 0
-8.180000 -13.240000 1.860000 255 0 0
-8.168000 -13.358000 5.258000 255 0 0
-8.168300 -13.278300 -1.291700 255 0 0
-8.160700 -13.326700 8.409800 255 0 0
-8.563300 -13.566700 19.900000 0 255 0
-8.540000 -13.120000 -2.230000 255 0 0
-8.080000 -14.280000 15.206700 0 255 0
-7.880000 -13.260000 9.340000 0 255 0
-8.057500 -13.675000 7.455000 0 255 0
-7.440000 -13.260000 24.389999 0 255 0
-7.763300 -13.370000 18.913300 255 0 0
-7.913300 -13.321300 16.309999 255 0 0
-7.870000 -13.170000 19.400000 255 0 0
-7.865000 -13.200000 16.275000 255 0 0
-9.060000 -13.240000 -4.535000 0 255 255
-8.255300 -12.225300 16.563299 0 255 0
-7.565000 -14.385000 16.315001 0 255 0
-7.010000 -12.760000 23.420000 0 255 0
-7.110000 -12.420000 23.400000 0 255 0
-7.820000 -13.380000 16.030001 255 0 0
-9.014000 -14.162000 -3.604000 0 255 255
-8.646400 -13.216700 -4.188800 0 255 0
-8.673300 -12.906700 15.613300 0 255 0
-8.570000 -12.670000 15.610000 0 255 0
-8.480000 -12.630000 19.715000 0 255 0
-8.409000 -14.269000 -3.486000 0 255 255
-7.690000 -14.210000 20.709999 0 255 0
-7.017500 -13.430000 22.017500 0 255 0
-7.057500 -14.072500 12.957500 0 255 0
-9.120000 -13.600000 12.640000 0 255 0
-7.620000 -12.860000 22.620001 0 255 0
-7.615700 -13.178600 16.452900 0 255 0
-7.605000 -12.775000 -4.391700 0 255 255
-7.250000 -12.710000 24.410000 0 255 0
-7.259300 -12.868500 14.961900 0 255 0
-8.400000 -12.820000 20.040001 0 255 0
-7.905000 -13.980000 19.195000 0 255 0
-8.050000 -13.265000 21.945000 0 255 0
-8.200000 -13.140000 -3.410000 255 0 0
-8.215000 -13.335000 9.660000 255 0 0
-8.220000 -13.240000 3.095000 255 0 0
-8.220000 -13.470000 19.320000 0 255 0
-8.222700 -13.180900 -0.240000 255 0 0
-6.860000 -13.570000 15.260000 0 255 0
-8.270000 -13.708600 -4.205700 0 255 255
-8.255700 -13.512900 8.870000 255 0 0
-8.265000 -13.560000 5.715000 255 0 0
-8.266200 -13.138700 1.011200 255 0 0
-8.259000 -13.172400 -2.237400 255 0 0
-6.930000 -13.580000 21.750000 0 255 0
-8.720000 -12.700000 15.740000 0 255 0
-8.710000 -12.676700 12.500000 0 255 0
-8.714600 -12.817700 9.603100 0 255 0
