-18.004999 1.495000 10.520000 0 255 0
-18.990000 1.020000 14.500000 0 255 0
-18.639999 1.600000 9.940000 0 255 0
-18.607401 1.629700 9.764300 0 255 0
-19.100000 1.616700 9.650000 0 255 0
-18.700001 1.510000 8.700000 0 255 0
-17.969999 1.250000 22.410000 0 255 0
-17.947500 0.987500 6.605000 255 0 0
-18.718300 0.881700 16.803301 0 255 0
-18.705000 0.922000 13.564000 0 255 0
-18.730000 1.120000 26.200001 0 255 0
-17.760000 2.010000 9.350000 0 255 0
-17.760000 1.930000 15.860000 0 255 0
-18.559999 1.335000 21.405001 0 255 0
-17.397800 1.738900 17.007799 0 255 0
-17.420000 1.620000 23.320000 0 255 0
-17.402500 1.680000 20.167500 0 255 0
-17.559999 0.670000 20.555000 0 255 0
-18.040001 1.230000 23.559999 0 255 0
-17.101500 1.526200 10.453800 0 255 0
-17.820000 2.010000 15.825000 0 255 0
-18.549999 1.590000 20.660000 0 255 0
-17.809999 1.320000 10.060000 0 255 0
-17.701401 1.430000 19.320000 0 255 0
-17.719999 1.366700 9.873300 0 255 0
-17.674999 1.895000 22.580000 0 255 0
-17.670000 2.070000 9.510000 0 255 0
-18.903299 1.786700 9.153300 0 255 0
-17.190001 0.890000 21.850000 0 255 0
-18.145000 1.215000 10.405000 255 0 0
-18.153299 1.276700 13.560000 0 255 0
-18.155001 1.395000 7.050000 0 255 0
-17.680000 2.060000 8.920000 0 255 0
-17.840000 1.370000 18.629999 0 255 0
-17.559999 1.835000 18.805000 0 255 0
-17.708099 0.980600 1.762500 0 255 255
-17.330000 1.420000 23.530001 0 255 0
-17.315001 1.477500 20.251200 0 255 0
-18.309999 0.730000 16.610001 0 255 0
-17.160000 1.800000 17.469999 0 255 0
-17.160000 1.270000 24.000000 0 255 0
-18.451099 -0.076700 17.962200 0 255 0
-18.379999 0.100000 20.620001 0 255 0
-17.299999 0.200000 24.000000 0 255 0
-19.225000 0.940000 7.915000 0 255 0
-17.254601 1.428700 11.310400 0 255 0
-18.006701 2.176700 12.908900 0 255 0
-18.020000 2.210000 9.660000 0 255 0
-18.090000 1.580000 9.130000 0 255 0
-18.058901 1.272400 3.360600 0 255 0
-18.049999 1.120000 19.160000 0 255 0
-18.066700 1.196700 22.299999 0 255 0
-18.055000 1.315000 6.505000 255 0 0
-17.670000 0.480000 26.530001 0 255 0
-18.912500 0.930000 11.962500 0 255 0
-17.809999 0.736700 1.756000 0 255 255
-18.059999 0.530000 22.370001 0 255 0
-18.059999 -0.325000 21.902500 0 255 0
-18.320000 1.636700 21.706699 0 255 0
-17.776699 1.020000 17.246700 255 0 0
-17.770000 0.926700 23.763300 255 0 0
-17.770000 1.090000 20.410000 0 255 0
-16.850000 1.190000 17.290001 0 255 0
-18.629999 1.320000 12.110000 0 255 0
-18.625999 1.372000 8.862000 0 255 0
-17.799999 -0.170000 20.330000 0 255 0
-18.799999 1.990000 9.790000 0 255 0
-18.120001 -0.280000 18.129999 0 255 0
-17.900000 1.923300 21.623301 0 255 0
-17.620001 0.620000 23.020000 0 255 0
-17.629999 0.600000 26.160000 0 255 0
-17.045000 1.050000 10.560000 0 255 0
-17.809999 0.790000 2.280000 0 255 0
-17.379999 -0.140000 23.150000 0 255 0
-17.160000 0.273300 24.076700 0 255 0
-17.309999 0.935000 26.670000 0 255 0
-17.320000 1.080000 22.990000 0 255 0
-18.463301 1.386700 2.023300 0 255 255
-17.504999 1.937500 8.760000 0 255 0
-18.070000 0.800000 12.430000 255 0 0
-17.440001 0.880000 26.600000 0 255 0
-18.480000 1.540000 21.420000 0 255 0
-17.320000 1.590000 18.730000 0 255 0
-17.355000 1.975000 18.860001 0 255 0
-17.370001 0.670000 2.440000 0 255 255
-17.190001 1.330000 25.610001 0 255 0
-17.226700 1.830000 19.076700 0 255 0
-17.120001 1.500000 25.340000 0 255 0
-17.040001 0.370000 20.270000 0 255 0
-17.049999 1.030000 11.250000 0 255 0
-18.100000 -0.150000 8.460000 0 255 0
-17.709999 0.340000 1.806700 0 255 255
-18.518000 1.427500 2.048500 0 255 255
-17.730000 0.840000 18.760000 255 0 0
-17.007500 1.082500 20.405001 0 255 0
-18.490000 0.740000 1.610000 0 255 255
-18.410000 1.240000 26.129999 0 255 0
-18.129999 0.880000 15.830000 255 0 0
-18.103300 1.200000 8.856700 255 0 0
-17.350000 1.935000 11.710000 0 255 0
-18.920000 1.470000 18.020000 0 255 0
-18.912500 0.173700 10.067500 0 255 0
-18.575001 1.025000 22.250000 0 255 0
-18.570000 0.350000 16.910000 0 255 0
-17.815001 1.790000 9.400000 0 255 0
-18.563000 1.537000 9.853000 0 255 0
-18.070000 1.520000 10.220000 0 255 0
-17.903999 1.435000 10.571000 0 255 0
-18.713800 1.186200 14.012500 0 255 0
-19.219999 1.040000 8.430000 0 255 0
-17.321699 1.336700 14.111700 0 255 0
-17.956699 1.140000 17.995600 0 255 0
-17.965000 1.090000 14.760000 255 0 0
-18.440001 0.160000 1.965000 0 255 255
-18.463301 0.043300 18.163300 0 255 0
-18.420000 0.010000 21.410000 0 255 0
-18.793301 1.398300 9.803300 0 255 0
-18.420000 0.280000 1.940000 0 255 255
-18.240000 0.640000 17.180000 0 255 0
-18.410000 0.126000 18.120001 0 255 0
-18.395000 0.070000 21.379999 0 255 0
-17.809999 0.840000 24.959999 255 0 0
-17.790001 0.880000 21.830000 255 0 0
-17.469999 -0.210000 23.299999 0 255 0
-18.120001 1.170000 14.250000 255 0 0
-18.615000 1.830000 16.850000 0 255 0
-17.756001 1.586000 1.654000 0 255 255
-17.750000 1.320000 11.570000 0 255 0
-17.379999 0.750000 1.720000 0 255 255
-17.150000 1.830000 15.840000 0 255 0
-17.160000 1.330000 22.389999 0 255 0
-18.259501 1.185700 2.816200 255 0 0
-17.690001 2.290000 7.830000 0 255 0
-17.370001 0.280000 23.770000 0 255 0
-17.362499 0.891200 21.753799 0 255 0
-18.620001 0.430000 26.250000 0 255 0
-18.629999 0.475000 23.010000 0 255 0
-18.198900 1.835600 16.166700 0 255 0
-18.055000 0.870000 11.895000 255 0 0
-18.063801 0.823100 8.653800 255 0 0
-18.075001 0.615000 21.305000 0 255 0
-17.070000 1.035000 21.920000 0 255 0
-17.450001 1.850000 23.340000 0 255 0
-17.450001 1.720000 17.059999 0 255 0
-17.459999 1.776000 20.209999 0 255 0
-17.953300 0.783300 21.006701 255 0 0
-17.940001 0.740000 4.890000 0 255 0
-17.020000 1.790000 22.510000 0 255 0
-19.090000 1.390000 9.410000 0 255 0
-18.463800 1.729500 1.820400 0 255 255
-17.450001 0.280000 23.860001 0 255 0
-17.600000 1.630000 26.290001 0 255 0
-18.090000 1.310000 3.916700 255 0 0
-18.107500 1.185000 13.705000 255 0 0
-17.502501 1.775600 15.949400 0 255 0
-17.505800 1.687500 9.664200 0 255 0
-18.606199 2.123800 9.975000 0 255 0
-18.114099 1.271000 3.510500 255 0 0
-18.106800 1.235700 6.660500 255 0 0
-17.610001 1.780000 18.750000 0 255 0
-18.112499 1.245000 5.057500 255 0 0
-18.105000 1.265000 1.915000 0 255 255
-18.120001 1.100000 14.950000 255 0 0
-16.930000 1.300000 22.400000 0 255 0
-18.456699 0.386700 1.896700 0 255 255
-18.480000 1.360000 14.820000 0 255 0
-18.611401 2.030000 13.152900 0 255 0
-18.611401 2.082900 9.920700 0 255 0
-18.615000 2.073300 13.111700 0 255 0
-18.606800 2.125200 9.614800 0 255 0
-17.517500 1.187500 20.270000 0 255 0
-18.290001 1.810000 16.510000 0 255 0
-18.290001 1.710000 10.190000 0 255 0
-17.820000 2.225000 12.661700 0 255 0
-19.014999 0.415000 2.205000 0 255 255
-17.151699 1.678300 8.251700 0 255 0
-18.480000 0.180000 21.510000 0 255 0
-18.463301 0.126700 18.256701 0 255 0
-18.358200 2.132700 10.202700 0 255 0
-18.912001 1.680000 14.764000 0 255 0
-18.139999 1.570000 1.840000 0 255 255
-18.129999 1.190000 26.389999 0 255 0
-18.108299 1.225000 10.520000 255 0 0
-18.420000 2.060000 9.850000 0 255 0
-18.056000 1.284000 7.560000 255 0 0
-17.680000 0.820000 19.760000 255 0 0
-17.670000 0.895000 23.010000 255 0 0
-17.059999 1.570000 23.760000 0 255 0
-18.253300 0.366700 21.406700 0 255 0
-18.171301 0.866300 4.962500 255 0 0
-18.170000 0.770000 11.313300 0 255 0
-18.150000 0.750000 8.140000 255 0 0
-18.170000 0.540000 20.799999 0 255 0
-17.219999 1.786700 15.326700 0 255 0
-16.617500 0.882500 21.965000 0 255 0
-17.559999 1.730000 18.799999 0 255 0
-17.200001 1.480000 8.740000 0 255 0
-17.080000 1.310000 10.220000 0 255 0
-18.558001 0.028000 18.108000 0 255 0
-18.600000 0.160000 20.990000 0 255 0
-17.145000 1.675000 20.360001 0 255 0
-17.820000 1.010000 6.160000 255 0 0
-17.762899 1.994300 15.951400 0 255 0
-18.150000 0.920000 4.450000 255 0 0
-18.147499 0.870000 14.005000 255 0 0
-18.156700 0.836700 10.757800 255 0 0
-17.116699 0.983300 10.726700 0 255 0
-17.280001 2.010000 10.560000 0 255 0
-17.990000 0.550000 19.860001 0 255 0
-16.840000 0.930000 22.330000 0 255 0
-17.055000 0.365000 22.754999 0 255 0
-17.059999 1.130000 19.860001 0 255 0
-17.701300 -0.103700 2.166200 0 255 255
-18.049999 1.350000 4.880000 255 0 0
-17.000000 0.400000 20.290001 0 255 0
-17.610001 1.828300 16.963301 0 255 0
-16.969299 1.676400 7.912900 0 255 0
-17.854000 1.774000 9.170000 0 255 0
-18.055000 0.875000 20.590000 0 255 0
-18.080000 1.130000 10.420000 255 0 0
-18.065001 1.167500 13.672500 255 0 0
-18.066700 0.833300 17.170000 255 0 0
-18.049999 1.140000 10.610000 255 0 0
-18.054001 1.170000 13.860000 255 0 0
-17.112600 0.983900 11.510900 0 255 0
-17.070000 0.040000 23.510000 0 255 0
-18.040001 1.190000 14.220000 255 0 0
-18.070000 0.970000 26.459999 0 255 0
-18.059999 0.820000 16.830000 255 0 0
-18.280001 0.140000 20.629999 0 255 0
-18.180000 2.150000 10.460000 0 255 0
-18.260000 0.950000 9.890000 255 0 0
-18.270000 1.010000 16.400000 0 255 0
-18.250000 0.850000 3.350000 255 0 0
-18.253000 1.137000 22.164000 0 255 0
-18.059999 1.972000 9.158000 0 255 0
-18.020000 0.910000 19.740000 255 0 0
-18.010000 1.200000 3.090000 255 0 0
-17.966700 0.839400 9.711100 255 0 0
-17.940001 0.920000 3.230000 255 0 0
-17.976700 0.793300 6.550000 255 0 0
-18.106300 1.273700 4.811900 255 0 0
-18.101299 1.237300 7.960700 255 0 0
-17.547501 0.225000 1.717500 0 255 255
-18.110001 0.840000 17.965000 0 255 0
-18.105000 1.195000 8.250000 255 0 0
-18.475000 0.280000 1.875000 0 255 255
-17.969999 -0.225000 8.815000 0 255 0
-18.676701 1.643300 13.056700 0 255 0
-18.653299 1.563300 9.900000 0 255 0
-17.755301 1.770600 9.810600 0 255 0
-16.756701 1.383300 19.966700 0 255 0
-16.770000 1.150000 16.950001 0 255 0
-18.389999 1.660000 1.600000 0 255 255
-18.403299 1.886700 15.050000 0 255 0
-18.520000 0.037500 20.410000 0 255 0
-17.105000 0.085000 22.715000 0 255 0
-17.110001 1.090000 26.520000 0 255 0
-17.111401 0.981400 20.217100 0 255 0
-17.416201 0.928800 1.600000 0 255 255
-17.106701 0.643300 2.320000 0 255 255
-17.106701 1.730000 20.456699 0 255 0
-17.129999 1.630000 14.150000 0 255 0
-17.129999 1.670000 23.709999 0 255 0
-18.463100 1.081100 7.013100 0 255 0
-17.320000 1.820000 16.820000 0 255 0
-19.012199 0.230000 9.214400 0 255 0
-17.490000 1.910000 8.510000 0 255 0
-17.879999 0.880000 3.070000 255 0 0
-17.876400 0.946400 6.216400 255 0 0
-19.049999 1.550000 8.920000 0 255 0
-17.763300 0.543300 2.223300 0 255 255
-17.764999 1.280000 11.205000 0 255 0
-17.780001 1.020000 21.025000 255 0 0
-18.770000 0.640000 2.120000 0 255 255
-18.750000 0.310000 21.920000 0 255 0
-17.061100 1.438900 11.406700 0 255 0
-19.290001 1.120000 7.350000 0 255 0
-17.264999 0.090000 22.514999 0 255 0
-18.170000 0.780000 2.120000 0 255 255
-18.174999 0.480000 20.264999 0 255 0
-17.600000 1.910000 17.049999 0 255 0
-18.200001 0.300000 21.330000 0 255 0
-18.610001 0.420000 1.920000 0 255 255
-18.590000 0.980000 16.520000 0 255 0
-18.620001 0.900000 23.280001 0 255 0
-17.695000 0.345000 23.004999 0 255 0
-17.959999 0.820000 1.465000 0 255 255
-17.516701 1.188300 8.970800 0 255 0
-18.771400 1.674300 9.852900 0 255 0
-18.762699 1.737300 13.110900 0 255 0
-17.245001 1.735000 21.594999 0 255 0
-18.062799 1.244100 5.614800 255 0 0
-18.165701 -0.118600 9.355700 0 255 0
-18.690001 0.720000 26.490000 0 255 0
-18.730000 0.550000 13.470000 0 255 0
-18.227501 1.925000 20.122499 0 255 0
-18.280001 0.930000 13.280000 0 255 0
-18.245001 0.890000 10.010000 255 0 0
-18.254999 1.075000 22.254999 0 255 0
-18.719999 1.550000 16.840000 0 255 0
-18.722500 0.832500 23.417500 0 255 0
-18.207500 2.228300 9.022500 0 255 0
-17.490000 1.750000 18.629999 0 255 0
-17.400000 -0.190000 23.540001 0 255 0
-17.440001 2.040000 17.389999 0 255 0
-17.400000 0.350000 23.740000 0 255 0
-17.440001 1.890000 7.970000 0 255 0
-18.010000 2.035000 9.515000 0 255 0
-18.307501 1.580000 10.912500 0 255 0
-16.809999 1.275000 10.160000 0 255 0
-16.820000 1.220000 10.275000 0 255 0
-16.809999 1.435000 20.225000 0 255 0
-16.820000 1.320000 26.490000 0 255 0
-17.620001 0.190000 1.707500 0 255 255
-18.254999 1.580000 1.945000 0 255 255
-18.264999 1.790000 15.020000 0 255 0
-18.969999 0.810000 1.920000 0 255 255
-16.809999 1.493300 20.196699 0 255 0
-18.510000 0.436700 16.676701 0 255 0
-18.600000 1.035000 24.165001 0 255 0
-17.090000 1.660000 23.959999 0 255 0
-17.740000 0.020000 20.240000 0 255 0
-17.776699 0.963300 18.156700 255 0 0
-18.559999 1.030000 1.655000 0 255 255
-16.940001 1.470000 7.340000 0 255 0
-16.962000 1.332000 10.500000 0 255 0
-16.967501 1.230000 16.867500 0 255 0
-16.969999 1.290000 20.010000 0 255 0
-18.219999 1.550000 22.420000 0 255 0
-18.520000 -0.115700 18.105700 0 255 0
-17.480000 2.050000 8.600000 0 255 0
-18.780001 0.550000 2.090000 0 255 255
-18.780001 0.560000 18.010000 0 255 0
-17.322399 0.429600 1.802000 0 255 255
-17.410000 -0.230000 24.030001 0 255 0
-17.440001 0.390000 23.500000 0 255 0
-16.870001 0.280000 22.950001 0 255 0
-18.209999 1.210000 9.110000 255 0 0
-18.219999 1.190000 12.630000 255 0 0
-18.190001 1.020000 22.170000 0 255 0
-16.900000 0.180000 22.379999 0 255 0
-18.160000 1.775000 11.722500 0 255 0
-17.530001 0.330000 23.090000 0 255 0
-16.930000 1.600000 24.110001 0 255 0
-18.309999 1.490000 12.870000 0 255 0
-18.313299 1.643300 16.213301 0 255 0
-17.730000 1.430000 26.129999 0 255 0
-16.805000 0.232500 22.180000 0 255 0
-17.365601 1.982200 18.915600 0 255 0
-17.705000 0.177500 2.198700 0 255 255
-16.840000 1.080000 22.030001 0 255 0
-17.959999 1.120000 17.850000 255 0 0
-17.940001 1.070000 14.730000 255 0 0
-17.170000 1.060000 11.160000 0 255 0
-18.190001 0.800000 7.950000 255 0 0
-17.840000 -0.020000 21.900000 0 255 0
-16.695000 0.870000 22.455000 0 255 0
-18.320000 1.340000 26.230000 0 255 0
-18.139999 1.250000 14.630000 255 0 0
-17.497499 2.082500 9.295000 0 255 0
-17.313299 0.876700 21.799999 0 255 0
-18.520000 1.410000 12.220000 0 255 0
-18.459999 1.720000 23.969999 0 255 0
-18.250000 1.530000 22.358000 0 255 0
-16.860001 1.285000 22.160000 0 255 0
-16.959999 1.160000 22.000000 0 255 0
-18.660000 1.370000 21.790001 0 255 0
-18.280001 0.530000 23.750000 0 255 0
-17.510000 0.920000 21.799999 0 255 0
-19.280001 0.940000 8.170000 0 255 0
-18.605000 1.190000 14.020000 0 255 0
-17.472500 0.692500 2.095000 0 255 255
-17.969999 0.930000 2.660000 255 0 0
-17.962000 0.838000 9.157000 255 0 0
-18.106001 1.282000 1.644000 0 255 255
-18.116699 1.248300 4.912500 255 0 0
-17.219999 0.170000 24.250000 0 255 0
-17.840000 0.963300 16.959999 255 0 0
-16.809999 1.600000 22.400000 0 255 0
-18.100000 1.920000 16.350000 0 255 0
-18.110001 1.640000 22.325001 0 255 0
-18.230000 1.410000 22.000000 0 255 0
-16.897499 0.577500 20.150000 0 255 0
-18.655001 0.130000 23.465000 0 255 0
-18.650000 0.070000 20.309999 0 255 0
-17.520000 2.050000 18.750000 0 255 0
-17.512199 1.880000 15.413300 0 255 0
-18.969999 1.678300 14.815000 0 255 0
-17.947500 1.932500 15.907500 0 255 0
-17.940001 0.965000 11.160000 255 0 0
-17.956699 1.133300 7.906700 255 0 0
-17.940001 1.080000 4.660000 255 0 0
-17.625000 1.175000 17.590000 0 255 0
-17.606199 1.015000 1.800400 0 255 255
-18.030001 1.100000 17.580000 0 255 0
-18.350000 -0.085000 25.924999 0 255 0
-17.465000 1.130000 26.160000 0 255 0
-17.450001 1.060000 22.920000 0 255 0
-17.458000 1.038000 19.792000 0 255 0
-17.469999 0.670000 26.549999 0 255 0
-17.490000 2.000000 16.530001 0 255 0
-19.070000 0.980000 14.597500 0 255 0
-18.270000 1.130000 3.930000 255 0 0
-18.253300 1.186700 6.955600 255 0 0
-18.280001 1.270000 13.690000 0 255 0
-17.446699 1.861700 19.754999 0 255 0
-18.010000 0.788300 15.671700 255 0 0
-18.000000 0.920000 6.120000 0 255 0
-17.993999 0.872000 9.360000 255 0 0
-18.009600 0.827000 12.412600 255 0 0
-17.170000 1.181400 11.320000 0 255 0
-18.120001 1.225000 10.600000 255 0 0
-17.559999 1.565000 23.270000 0 255 0
-17.570000 1.380000 10.210000 0 255 0
-18.170000 1.160000 17.049999 0 255 0
-18.155300 1.233300 7.064700 255 0 0
-18.150000 1.263300 10.320000 0 255 0
-18.565399 1.980800 9.965800 0 255 0
-17.629999 1.880000 7.870000 0 255 0
-17.060400 1.734300 8.410000 0 255 0
-17.514999 1.700000 8.605000 0 255 0
-17.450001 1.610000 10.870000 0 255 0
-17.459999 1.820000 23.090000 0 255 0
-18.639999 1.273300 11.973300 0 255 0
-18.240000 0.960000 17.040001 0 255 0
-18.250000 0.886700 10.563300 255 0 0
-18.250000 1.090000 23.200001 0 255 0
-18.664200 0.935000 16.610001 0 255 0
-18.667101 1.025700 23.355700 0 255 0
-18.260000 1.386700 1.460000 0 255 255
-18.230000 1.140000 23.600000 0 255 0
-17.920000 -0.240000 8.740000 0 255 0
-17.910000 0.480000 1.806700 0 255 255
-18.030001 1.310000 6.900000 255 0 0
-18.020000 1.270000 10.153300 255 0 0
-18.010000 1.228000 13.414000 255 0 0
-18.770000 1.125000 16.965000 0 255 0
-18.760000 1.030000 23.280001 0 255 0
-18.757000 1.078000 13.709000 0 255 0
-17.715700 1.231400 1.704300 0 255 255
-17.730000 1.080000 11.500000 0 255 0
-17.500000 1.670000 23.389999 0 255 0
-17.495001 1.715000 20.174999 0 255 0
-17.520000 1.475000 10.357000 0 255 0
-17.260000 1.685000 9.705000 0 255 0
-17.395000 1.710000 9.615000 0 255 0
-19.209700 1.080000 8.556100 0 255 0
-17.160000 1.033300 11.063300 0 255 0
-17.165001 0.675000 26.600000 0 255 0
-18.870001 1.570000 9.550000 0 255 0
-18.040001 1.910000 24.719999 0 255 0
-18.054300 1.881400 21.665701 0 255 0
-18.761999 0.930000 23.403999 0 255 0
-17.219999 1.170000 26.240000 0 255 0
-17.430000 1.230000 1.650000 0 255 255
-17.254999 0.320000 23.730000 0 255 0
-17.770000 2.283700 13.020000 0 255 0
-17.540001 1.290000 26.990000 0 255 0
-17.062901 1.134300 20.265699 0 255 0
-18.629999 1.000000 1.810000 0 255 255
-17.139999 0.370000 23.980000 0 255 0
-18.330000 1.440000 22.240000 0 255 0
-17.775000 1.085000 17.764999 255 0 0
-17.757500 0.932500 20.807501 255 0 0
-17.240000 1.240000 24.010000 0 255 0
-17.264299 1.417100 11.348600 0 255 0
-17.555000 1.425000 10.115000 0 255 0
-17.559999 1.475000 26.397499 0 255 0
-17.314199 1.033700 11.310500 0 255 0
-18.565701 0.125700 18.162901 0 255 0
-17.370001 0.270000 23.230000 0 255 0
-18.306700 0.040000 23.950001 0 255 0
-17.230000 0.690000 26.030001 0 255 0
-17.160000 0.270000 22.740000 0 255 0
-17.463301 -0.063300 23.313299 0 255 0
-17.040001 1.320000 16.719999 0 255 0
-17.254999 0.365000 25.110001 0 255 0
-17.717501 1.035000 17.562500 255 0 0
-16.750000 1.326700 23.903299 0 255 0
-18.280001 1.770000 26.520000 0 255 0
-18.270000 1.600000 13.440000 0 255 0
-17.110001 0.984000 22.403999 0 255 0
-17.490000 1.510000 11.020000 0 255 0
-17.518000 1.274000 1.618000 0 255 255
-17.875000 0.130000 20.219999 0 255 0
-17.270000 0.710000 1.950000 0 255 255
-18.305000 0.185000 1.760000 0 255 255
-18.266701 0.133300 20.403299 0 255 0
-17.680000 0.890000 21.610001 255 0 0
-17.346701 1.013300 1.710000 0 255 255
-17.575001 1.800000 16.930000 0 255 0
-18.370001 0.900000 25.299999 0 255 0
-18.365000 1.032500 22.267500 0 255 0
-17.106199 1.522500 22.356199 0 255 0
-18.049999 0.910000 7.830000 255 0 0
-18.049999 0.862500 4.650000 255 0 0
-18.014299 1.721400 9.268600 0 255 0
-17.680000 1.083300 21.299999 0 255 0
-18.094999 0.020000 22.025000 0 255 0
-17.020000 0.990000 10.975000 0 255 0
-18.530001 0.240000 23.770000 0 255 0
-17.902500 2.077500 9.595000 0 255 0
-18.559999 1.636700 9.623300 0 255 0
-17.809999 1.310000 10.140000 0 255 0
-18.719999 1.376700 12.253300 0 255 0
-18.219999 2.170000 12.260000 0 255 0
-18.620001 1.780000 1.800000 0 255 255
-18.111500 0.826700 3.114200 255 0 0
-16.840000 1.270000 22.469999 0 255 0
-18.014999 2.285000 12.715000 0 255 0
-17.000000 0.000000 25.469999 0 255 0
-17.259199 1.475600 8.915800 0 255 0
-18.014999 0.492500 1.802500 0 255 255
-17.290001 1.775000 9.565000 0 255 0
-17.180000 1.440000 20.139999 0 255 0
-17.165001 1.385000 16.924999 0 255 0
-17.150600 1.473500 10.412400 0 255 0
-17.666700 1.080000 20.123301 0 255 0
-17.770000 1.670000 24.170000 0 255 0
-18.040001 1.780000 9.640000 0 255 0
-18.040001 1.585000 22.295000 0 255 0
-17.990000 0.075000 8.930000 0 255 0
-17.400000 1.676700 18.856701 0 255 0
-18.680000 0.390000 2.040000 0 255 255
-17.190001 1.710000 11.400000 0 255 0
-19.117500 0.775000 16.913799 0 255 0
-19.110001 0.823300 13.764400 0 255 0
-17.303301 1.920000 8.546700 0 255 0
-17.295000 1.680000 11.570000 0 255 0
-18.420000 1.345000 2.095000 0 255 255
-18.360001 1.787500 21.702499 0 255 0
-16.950001 1.150000 22.110001 0 255 0
-17.940001 1.060000 13.270000 255 0 0
-17.959999 1.115000 16.514999 255 0 0
-17.360001 1.860000 17.030001 0 255 0
-17.360001 1.650000 26.389999 0 255 0
-17.359100 1.286400 20.216400 0 255 0
-17.200001 1.300000 17.129999 0 255 0
-17.190001 1.220000 20.170000 0 255 0
-18.563999 1.032000 23.344000 0 255 0
-17.526699 1.640000 15.916700 0 255 0
-17.020000 1.525000 22.445000 0 255 0
-17.070000 1.470000 20.129999 0 255 0
-17.080000 1.420000 16.879999 0 255 0
-17.370001 1.210000 20.360001 0 255 0
-17.760000 1.281200 1.566200 0 255 255
-17.760000 1.090000 14.620000 255 0 0
-17.760000 0.980000 21.120001 0 255 0
-17.766701 0.934200 17.968300 255 0 0
-17.650000 1.050000 1.630000 0 255 255
-18.020000 0.870000 18.809999 255 0 0
-17.990000 0.950000 15.640000 255 0 0
-17.299999 0.626400 2.310900 0 255 255
-17.809999 0.440000 2.075000 0 255 255
-17.620001 0.740000 2.400000 0 255 255
-18.559999 1.140000 2.120000 0 255 255
-18.517500 1.877500 16.777500 0 255 0
-17.358000 1.678000 9.520000 0 255 0
-17.510000 1.020000 22.870001 0 255 0
-17.513300 0.980000 26.116699 0 255 0
-17.660000 0.330000 1.830000 0 255 255
-18.900000 0.230000 18.440001 0 255 0
-17.059999 1.725000 22.370001 0 255 0
-19.020000 0.480000 18.450001 0 255 0
-18.379999 0.060000 23.770000 0 255 0
-17.915001 0.127500 20.262501 0 255 0
-17.006701 0.376700 22.766701 0 255 0
-18.010000 1.160000 23.600000 0 255 0
-18.639999 0.950000 23.540001 0 255 0
-18.759100 1.376800 12.159100 0 255 0
-18.799999 0.890000 23.459999 0 255 0
-17.260000 -0.075000 23.405001 0 255 0
-17.860001 1.823700 9.365000 0 255 0
-17.010000 1.360000 19.969999 0 255 0
-18.270000 1.560000 22.370001 0 255 0
-18.203300 0.916700 17.526699 0 255 0
-17.540001 -0.120000 24.110001 0 255 0
-18.870001 0.123300 10.156700 0 255 0
-18.060101 1.270200 3.112400 255 0 0
-18.053301 1.320000 6.358300 255 0 0
-18.590000 1.065000 1.915000 0 255 255
-17.940001 -0.067500 2.315000 0 255 255
-17.980000 -0.150000 8.630000 0 255 0
-17.820000 0.240000 20.520000 0 255 0
-17.129999 1.865000 14.050000 0 255 0
-17.672501 1.482500 10.407500 0 255 0
-18.320000 0.550000 26.309999 0 255 0
-17.519199 1.580000 10.013300 0 255 0
-18.815500 1.330000 12.101800 0 255 0
-17.525000 0.187500 1.905000 0 255 255
-18.764700 1.165300 2.191200 0 255 255
-18.758600 1.481400 8.747100 0 255 0
-17.608801 1.475000 1.612500 0 255 255
-17.799999 2.020000 12.820000 0 255 0
-18.112000 1.786000 21.704000 0 255 0
-18.364300 1.785700 12.947100 0 255 0
-18.360001 1.820000 16.120001 0 255 0
-17.995001 1.275000 12.170000 255 0 0
-18.030001 1.220000 15.400000 255 0 0
-17.120001 1.700000 20.459999 0 255 0
-17.110001 1.830000 23.639999 0 255 0
-17.113300 1.580000 14.140000 0 255 0
-18.129999 1.270000 11.560000 255 0 0
-17.730000 1.560000 10.460000 0 255 0
-17.490000 1.780000 19.230000 0 255 0
-17.496700 1.826700 15.956700 0 255 0
-17.518200 1.718200 9.660900 0 255 0
-18.860001 0.210000 9.350000 0 255 0
-18.700001 0.320000 9.010000 0 255 0
-18.129999 1.030000 24.049999 0 255 0
-18.090000 1.280000 8.155000 255 0 0
-18.105000 1.222100 1.515000 0 255 255
-18.090000 1.320000 8.020000 0 255 0
-17.480000 2.110000 8.890000 0 255 0
-17.830000 0.900000 4.260000 255 0 0
-17.790001 0.640000 20.559999 255 0 0
-17.715000 1.020000 22.254999 255 0 0
-18.325001 0.350000 21.424999 0 255 0
-18.520000 1.470000 14.800000 0 255 0
-17.253300 1.388300 11.113300 0 255 0
-18.063700 2.090000 9.210000 0 255 0
-18.049999 1.930000 24.900000 0 255 0
-18.049999 1.900000 21.850000 0 255 0
-18.160000 2.124300 15.162900 0 255 0
-17.139999 1.750000 20.230000 0 255 0
-17.469999 1.250000 17.049999 0 255 0
-18.100000 1.130000 12.480000 255 0 0
-18.108000 0.880000 15.358000 255 0 0
-17.260000 1.860000 11.590000 0 255 0
-17.255800 1.825800 8.358300 0 255 0
-17.504999 1.392500 9.207500 0 255 0
-17.299999 1.020000 10.850000 0 255 0
-18.355000 1.600000 22.215000 0 255 0
-18.430000 1.180000 24.059999 0 255 0
-18.400000 0.886700 17.700001 0 255 0
-17.963301 1.726700 9.393300 0 255 0
-17.910000 1.030000 18.900000 255 0 0
-17.570801 1.586200 8.473100 0 255 0
-17.170000 1.160000 26.590000 0 255 0
-17.157101 1.281400 20.321400 0 255 0
-18.510000 0.225000 23.610001 0 255 0
-17.368299 1.728300 22.514999 0 255 0
-17.353300 1.826700 15.956700 0 255 0
-17.760000 2.010000 9.470000 0 255 0
-17.780001 1.990000 18.990000 0 255 0
-17.750000 1.846700 22.526699 0 255 0
-17.775000 1.935000 15.760000 0 255 0
-18.510000 0.172000 21.851999 0 255 0
-17.010000 1.122000 16.662001 0 255 0
-17.340000 0.060000 24.350000 0 255 0
-17.757200 1.078300 1.704400 0 255 255
-17.760000 0.960000 8.020000 0 255 0
-17.950001 1.040000 11.820000 255 0 0
-17.962500 1.320000 17.959999 0 255 0
-17.940001 0.985000 8.565000 255 0 0
-18.600000 -0.010000 21.940001 0 255 0
-18.600000 0.160000 9.320000 0 255 0
-18.830000 1.350000 17.990000 0 255 0
-18.790001 1.270000 21.180000 0 255 0
-18.790001 0.220000 10.080000 0 255 0
-18.000000 1.140000 15.930000 255 0 0
-17.760000 1.840000 15.920000 0 255 0
-17.780001 1.930000 9.560000 0 255 0
-17.708000 2.078000 15.954000 0 255 0
-17.690001 1.980000 9.640000 0 255 0
-16.940001 0.320000 22.469999 0 255 0
-17.415001 0.025000 23.355000 0 255 0
-18.213301 1.893300 20.160000 0 255 0
-18.200001 2.027800 10.656700 0 255 0
-18.520000 1.240000 24.016701 0 255 0
-17.129999 0.960000 11.190000 0 255 0
-18.070000 1.200000 12.020000 255 0 0
-18.080000 0.830000 15.810000 255 0 0
-18.080000 0.940000 22.299999 0 255 0
-18.303301 1.476700 26.313299 0 255 0
-18.370001 1.400000 14.790000 0 255 0
-17.410000 1.890000 21.639999 0 255 0
-17.400000 1.930000 18.629999 0 255 0
-17.401300 1.978800 15.352500 0 255 0
-17.469999 1.720000 23.480000 0 255 0
-17.459999 1.676700 20.293301 0 255 0
-18.465000 0.735000 22.405001 0 255 0
-18.270000 0.840000 11.810000 0 255 0
-18.299999 0.920000 6.590000 255 0 0
-17.859301 1.828200 9.405400 0 255 0
-17.860001 1.920000 15.720000 0 255 0
-18.719999 0.685000 19.510000 0 255 0
-18.207500 1.570000 1.877500 0 255 255
-18.120001 0.860000 21.680000 0 255 0
-18.110001 1.330000 5.930000 255 0 0
-18.160000 1.020000 25.230000 0 255 0
-18.150000 1.330000 6.060000 255 0 0
-18.057199 0.826100 4.612200 255 0 0
-18.049999 0.885000 7.740000 255 0 0
-17.750000 1.220000 15.165000 0 255 0
-17.766701 -0.073300 23.443300 0 255 0
-17.740000 0.090000 20.410000 0 255 0
-18.370001 0.240000 9.650000 0 255 0
-18.666000 0.134000 10.068000 0 255 0
-18.670000 1.566700 19.643299 0 255 0
-17.708000 1.824000 9.842000 0 255 0
-17.915001 1.080000 3.920000 255 0 0
-17.915001 1.227500 7.407500 255 0 0
-17.920000 1.175700 10.651400 255 0 0
-17.270000 1.395000 10.445000 0 255 0
-17.202299 1.528500 11.357700 0 255 0
-18.100000 1.280000 12.540000 255 0 0
-18.360001 1.330000 24.200001 0 255 0
-18.356600 1.168900 2.111100 0 255 255
-18.375000 1.370000 14.750000 0 255 0
-17.150000 1.786700 14.113300 0 255 0
-17.959999 0.530000 1.780000 0 255 255
-18.629999 0.750000 11.820000 0 255 0
-17.330000 0.700000 25.879999 0 255 0
-18.690001 1.480000 12.160000 0 255 0
-17.480000 0.220000 23.090000 0 255 0
-17.661200 1.971600 7.963200 0 255 0
-18.680000 0.360000 8.900000 0 255 0
-18.680000 0.360000 9.040000 0 255 0
-18.176701 -0.026700 9.513300 0 255 0
-18.549999 1.610000 9.640000 0 255 0
-17.830000 1.310000 10.100000 0 255 0
-18.389999 0.380000 26.190001 0 255 0
-17.300900 1.421800 11.213600 0 255 0
-18.059999 0.795000 16.004999 255 0 0
-18.049999 0.735000 12.870000 0 255 0
-18.070000 0.470000 22.340000 0 255 0
-17.809999 1.170000 17.150000 0 255 0
-17.809999 1.210000 14.090000 0 255 0
-19.075001 0.770000 5.725000 0 255 0
-17.750000 1.630000 26.350000 0 255 0
-18.730000 1.060000 24.350000 0 255 0
-18.080000 0.820000 2.170000 0 255 255
-18.070000 0.875000 5.390000 255 0 0
-18.049999 0.710000 21.330000 0 255 0
-17.254999 1.825000 17.160000 0 255 0
-17.250000 1.870000 20.430000 0 255 0
-16.754999 0.770000 22.990000 0 255 0
-17.395000 1.270000 26.510000 0 255 0
-17.424999 1.520000 10.630000 0 255 0
-17.410700 1.426000 17.110701 0 255 0
-17.719999 1.280000 1.570000 0 255 255
-17.756701 1.163300 1.746700 0 255 255
-17.972099 0.847100 3.012100 0 255 0
-17.980000 0.370000 25.950001 0 255 0
-16.930000 0.570000 26.240000 0 255 0
-17.040001 0.980000 11.200000 0 255 0
-17.653299 0.396700 24.003300 0 255 0
-18.315001 0.420000 1.875000 0 255 255
-17.559999 0.180000 23.209999 0 255 0
-17.520000 2.010000 19.629999 0 255 0
-17.500000 1.770000 9.790000 0 255 0
-16.850000 1.140000 22.889999 0 255 0
-16.905001 1.425000 22.745001 0 255 0
-17.422501 1.735000 26.222500 0 255 0
-18.365000 0.230000 23.695000 0 255 0
-16.980000 1.060000 11.070000 0 255 0
-18.559999 1.180000 26.260000 0 255 0
-17.260000 1.740000 9.750000 0 255 0
-18.190001 1.100000 14.700000 0 255 0
-18.219999 1.150000 11.665000 255 0 0
-18.200001 1.231700 5.315000 255 0 0
-18.212200 1.173300 8.401100 255 0 0
-18.213800 1.268500 2.060800 0 255 255
-17.129999 1.470000 22.200001 0 255 0
-17.780001 2.170000 8.590000 0 255 0
-17.157499 -0.120000 23.362499 0 255 0
-17.930000 1.780000 16.629999 0 255 0
-18.340000 2.030000 11.700000 0 255 0
-18.370001 1.691700 1.705000 0 255 255
-18.355000 -0.163700 8.865000 0 255 0
-18.520000 1.200000 8.950000 0 255 0
-18.509199 1.131500 12.116200 0 255 0
-17.423300 1.336700 22.396700 0 255 0
-17.877501 1.160000 3.013700 255 0 0
-17.860001 0.700000 21.540001 255 0 0
-18.150000 0.080000 2.450000 0 255 255
-18.096001 -0.228000 22.202000 0 255 0
-16.990000 1.290000 20.180000 0 255 0
-17.020000 0.370000 23.990000 0 255 0
-17.709999 0.160000 20.299999 0 255 0
-17.709999 0.260000 26.600000 0 255 0
-18.020000 1.060000 6.150000 255 0 0
-17.458200 0.573800 1.715600 0 255 255
-18.469999 0.210000 21.760000 0 255 0
-18.780001 0.650000 18.010000 0 255 0
-18.209999 0.290000 20.690001 0 255 0
-18.206699 0.860000 2.766700 255 0 0
-18.190001 0.800000 9.530000 255 0 0
-18.205000 0.834000 6.011000 255 0 0
-18.063299 0.883300 25.209999 0 255 0
-18.055000 1.125000 15.420000 255 0 0
-17.965700 1.132900 15.208600 255 0 0
-17.980000 1.260000 24.100000 0 255 0
-17.959999 1.095000 11.045000 255 0 0
-17.950001 1.130000 14.311700 255 0 0
-17.559999 0.325000 2.072500 0 255 255
-18.070000 1.110000 7.470000 255 0 0
-18.059999 0.860000 17.170000 255 0 0
-18.056299 0.826300 14.012500 255 0 0
-18.063999 1.194000 10.607000 255 0 0
-18.106701 0.871700 16.211700 255 0 0
-18.107500 1.190000 10.062500 255 0 0
-17.670000 0.776000 1.520000 0 255 255
-17.680000 0.860000 8.010000 0 255 0
-17.719999 1.790000 26.040001 0 255 0
-17.725000 2.025000 22.645000 0 255 0
-18.209999 2.146700 9.196700 0 255 0
-18.190001 1.940000 21.850000 0 255 0
-18.190001 1.880000 24.730000 0 255 0
-18.227501 1.925000 21.662500 0 255 0
-17.450001 1.880000 26.190001 0 255 0
-17.459999 1.820000 23.315001 0 255 0
-17.350000 1.360000 16.770000 0 255 0
-17.705299 1.072000 20.155300 0 255 0
-18.010000 -0.080000 22.180000 0 255 0
-17.389999 0.450000 23.660000 0 255 0
-18.000000 1.160000 15.670000 255 0 0
-18.000000 0.730000 18.549999 255 0 0
-18.000000 0.980000 3.010000 255 0 0
-18.020000 1.330000 5.930000 255 0 0
-18.010000 1.285000 9.145000 255 0 0
-18.007500 1.230000 12.415000 255 0 0
-18.305000 1.170000 12.290000 0 255 0
-18.320000 1.440000 22.129999 0 255 0
-17.910000 1.520000 10.720000 0 255 0
-18.540001 -0.110000 18.250000 0 255 0
-18.110001 1.228000 1.462000 0 255 255
-18.090000 1.320000 7.980000 0 255 0
-19.306000 1.018000 7.908000 0 255 0
-19.059999 1.210000 7.270000 0 255 0
-18.063601 1.279100 1.664500 0 255 255
-18.059999 1.320000 5.008000 255 0 0
-17.139999 1.590000 15.420000 0 255 0
-17.180000 1.860000 21.570000 0 255 0
-18.420000 0.840000 6.400000 0 255 0
-18.151699 1.725000 21.670000 0 255 0
-17.809999 2.175000 12.550000 0 255 0
-18.240000 -0.220000 21.480000 0 255 0
-16.911100 1.033000 11.408600 0 255 0
-18.264999 1.785000 24.120001 0 255 0
-18.260000 1.570000 11.060000 0 255 0
-17.715000 1.310000 9.910000 0 255 0
-18.173300 -0.120000 9.803300 0 255 0
-17.600000 1.390000 9.720000 0 255 0
-19.004999 0.272500 10.170000 0 255 0
-18.129999 0.840000 23.950001 0 255 0
-18.090000 1.330000 5.140000 255 0 0
-18.730000 0.615000 2.080000 0 255 255
-18.153299 0.783300 8.173300 255 0 0
-17.570000 1.513300 9.106700 0 255 0
-18.340000 1.140000 2.990000 255 0 0
-18.280001 0.460000 1.910000 0 255 255
-17.459999 1.590000 15.110000 0 255 0
-17.442499 1.492500 8.805000 0 255 0
-18.830000 0.300000 17.299999 0 255 0
-17.070000 -0.060000 23.370001 0 255 0
-18.622499 1.530000 14.715000 0 255 0
-18.704000 2.034000 13.062000 0 255 0
-18.467300 0.134000 18.109301 0 255 0
-17.903700 1.130700 2.209500 0 255 255
-17.900000 0.580000 24.170000 0 255 0
-17.920000 1.290000 18.020000 0 255 0
-17.924999 1.235000 8.345000 255 0 0
-17.900000 1.082500 5.345000 255 0 0
-17.930000 1.160000 11.530000 255 0 0
-17.705799 1.776700 9.853300 0 255 0
-18.405001 -0.050000 8.870000 0 255 0
-19.063801 0.333700 9.252500 0 255 0
-18.110001 1.324000 5.410000 255 0 0
-17.866699 0.130000 26.123301 0 255 0
-18.180000 1.210000 11.805000 255 0 0
-18.166700 1.320000 5.320000 255 0 0
-16.803301 0.686700 26.766701 0 255 0
-17.219999 0.877500 2.072500 0 255 255
-17.320000 1.080000 1.840000 0 255 255
-17.708900 0.925600 1.701100 0 255 255
-18.799999 0.280000 18.030001 0 255 0
-18.450001 1.865000 20.350000 0 255 0
-18.459999 1.525000 23.775000 0 255 0
-18.764601 1.383100 12.110800 0 255 0
-18.780001 0.780000 24.780001 0 255 0
-18.120001 1.970000 21.530001 0 255 0
-18.129999 1.875000 15.215000 0 255 0
-17.820000 1.560000 24.250000 0 255 0
-17.639999 2.180000 9.340000 0 255 0
-18.816000 0.486000 19.514000 0 255 0
-17.395000 1.245000 22.305000 0 255 0
-17.656700 1.193300 14.023300 0 255 0
-18.260000 0.880000 25.330000 0 255 0
-18.139999 1.895000 16.370001 0 255 0
-17.013300 1.393300 22.309999 0 255 0
-17.490000 2.060000 15.240000 0 255 0
-18.565001 1.067500 23.355000 0 255 0
-17.875200 0.938400 2.167400 0 255 255
-17.290001 1.675000 8.655000 0 255 0
-19.004999 1.828300 9.163300 0 255 0
-19.090000 0.760000 13.860000 0 255 0
-18.370001 1.310000 26.209999 0 255 0
-18.365000 1.280000 23.070000 0 255 0
-18.006001 1.884000 21.662001 0 255 0
-18.008801 1.933700 16.697500 0 255 0
-19.162001 0.870000 5.614000 0 255 0
-19.180000 1.170000 12.140000 0 255 0
-17.612200 0.623900 1.663900 0 255 255
-17.360001 1.930000 16.400000 0 255 0
-16.990000 1.650000 8.160000 0 255 0
-18.213600 0.444500 2.362700 0 255 255
-17.760000 0.140000 20.110001 0 255 0
-16.704000 1.278000 19.966000 0 255 0
-17.805000 1.620800 9.257500 0 255 0
-16.866699 1.480000 23.961700 0 255 0
-17.594999 0.276900 2.167500 0 255 255
-16.980000 1.020000 21.840000 0 255 0
-18.300900 -0.075500 8.900000 0 255 0
-18.150000 -0.175000 22.000000 0 255 0
-18.167200 0.021700 8.957200 0 255 0
-18.049999 1.225000 12.605000 255 0 0
-18.520000 1.973300 15.416700 0 255 0
-17.469999 1.432700 9.160500 0 255 0
-17.469999 0.963300 22.410000 0 255 0
-18.209999 1.180000 10.350000 255 0 0
-18.190001 1.260000 4.198000 0 255 0
-18.201401 1.230000 7.355700 255 0 0
-18.702499 -0.071300 9.101900 0 255 0
-18.420000 2.240000 9.440000 0 255 0
-18.660000 1.576700 19.709999 0 255 0
-17.712400 1.388200 1.620000 0 255 255
-18.462700 2.080900 11.803600 0 255 0
-18.910000 0.530000 2.210000 0 255 255
-16.940001 1.670000 22.450001 0 255 0
-18.450001 -0.020000 23.590000 0 255 0
-18.139999 0.010000 22.360001 0 255 0
-17.889999 0.420000 1.860000 0 255 255
-18.760000 0.616700 22.410000 0 255 0
-19.192499 1.025000 7.962500 0 255 0
-17.152500 1.475000 22.415001 0 255 0
-18.756001 0.478000 2.118000 0 255 255
-17.730000 0.870000 2.290000 0 255 255
-17.920000 0.810000 21.020000 255 0 0
-17.916000 1.268000 5.464000 255 0 0
-18.219999 1.290000 7.050000 0 255 0
-17.709999 0.915000 8.020000 0 255 0
-19.150000 0.425000 9.255000 0 255 0
-18.502899 -0.015700 9.251400 0 255 0
-17.695000 0.483300 2.013300 0 255 255
-18.014999 1.130000 16.157499 255 0 0
-18.075001 1.480000 9.145000 0 255 0
-17.959999 2.230000 9.600000 0 255 0
-19.071699 1.338300 12.061700 0 255 0
-18.104000 1.634000 21.761999 0 255 0
-18.125000 1.925000 15.220000 0 255 0
-17.469999 2.085000 8.872500 0 255 0
-17.420000 1.770000 23.360001 0 255 0
-17.389999 1.860000 16.799999 0 255 0
-18.290001 0.500000 1.830000 0 255 255
-18.014000 0.874000 13.360000 255 0 0
-18.010000 0.820000 16.405001 255 0 0
-18.000000 0.923300 10.110000 255 0 0
-18.450001 1.110000 11.910000 0 255 0
-18.400000 1.560000 26.219999 0 255 0
-18.480000 1.280000 21.450001 0 255 0
-18.750000 1.400000 8.750000 0 255 0
-18.745001 0.780000 21.815001 0 255 0
-17.670000 -0.070000 23.360001 0 255 0
-18.280001 1.760000 10.380000 0 255 0
-17.352501 -0.130000 23.412500 0 255 0
-18.209999 0.910000 14.550000 255 0 0
-17.870001 1.880000 20.959999 0 255 0
-18.160000 0.640000 1.953300 0 255 255
-18.760000 0.033300 8.910000 0 255 0
-18.567499 0.672500 22.395000 0 255 0
-18.559999 0.080000 9.350000 0 255 0
-17.963301 0.845000 3.862100 0 255 0
-18.693300 0.020000 9.710000 0 255 0
-18.565001 1.940000 13.267500 0 255 0
-18.551701 2.086700 10.095000 0 255 0
-18.098200 1.477300 1.501800 0 255 255
-18.120001 1.540000 11.060000 0 255 0
-18.459999 0.010000 22.260000 0 255 0
-19.200001 1.185000 7.295000 0 255 0
-19.217501 1.070000 13.805000 0 255 0
-18.610001 1.260000 14.030000 0 255 0
-19.157499 1.022500 14.657500 0 255 0
-18.040001 0.750000 14.440000 255 0 0
-18.430000 0.140000 17.920000 0 255 0
-18.010000 0.660000 24.020000 0 255 0
-18.000000 1.275000 11.750000 255 0 0
-18.809999 0.960000 22.830000 0 255 0
-17.507200 1.677200 8.503900 0 255 0
-18.662500 0.175000 20.507500 0 255 0
-17.799999 0.335300 2.168700 0 255 255
-17.299999 1.020000 21.799999 0 255 0
-17.150000 1.050000 21.889999 0 255 0
-18.567499 0.935000 1.657500 0 255 255
-18.566700 1.466700 23.910000 0 255 0
-17.049999 1.100000 22.889999 0 255 0
-17.129999 0.890000 10.680000 0 255 0
-17.010000 1.260000 24.815001 0 255 0
-17.440001 2.050000 8.480000 0 255 0
-18.200001 0.440000 2.330000 0 255 255
-17.650000 1.320000 26.930000 0 255 0
-17.825001 0.940000 5.160000 255 0 0
-17.804001 0.982000 1.915000 0 255 255
-18.270000 0.110000 9.770000 0 255 0
-18.440001 0.580000 26.400000 0 255 0
-18.461700 0.533300 23.173300 0 255 0
-18.940001 1.685000 9.300000 0 255 0
-18.162001 0.870000 13.160000 255 0 0
-18.152201 0.832200 10.015600 255 0 0
-18.139999 0.670000 26.209999 0 255 0
-17.639999 1.190000 26.510000 0 255 0
-17.656000 0.683000 20.565001 0 255 0
-17.459999 0.370000 23.980000 0 255 0
-17.490000 1.770000 8.440000 0 255 0
-17.257500 1.825000 8.456200 0 255 0
-17.280001 1.880000 11.720000 0 255 0
-17.495001 1.960000 18.879999 0 255 0
-18.120001 1.170000 13.130000 255 0 0
-18.129999 1.340000 3.720000 0 255 0
-18.100000 1.110000 16.340000 255 0 0
-18.152500 0.865000 10.305000 255 0 0
-18.160000 0.670000 22.969999 0 255 0
-18.174999 0.831700 7.051700 255 0 0
-16.940001 0.950000 22.040001 0 255 0
-18.006901 1.687200 9.304400 0 255 0
-18.230000 0.940000 11.260000 255 0 0
-18.219999 0.880000 14.410000 255 0 0
-17.727501 1.677500 9.223800 0 255 0
-17.827801 0.989400 2.905600 255 0 0
-17.120001 1.560000 22.230000 0 255 0
-17.090000 1.480000 9.000000 0 255 0
-18.150000 0.796300 7.515000 255 0 0
-18.180000 0.560000 21.379999 0 255 0
-18.170000 0.690000 2.260000 0 255 255
-18.163300 0.380000 20.453300 0 255 0
-16.820000 0.640000 24.580000 0 255 0
-18.070000 0.110000 26.590000 0 255 0
-18.059999 0.031000 20.316000 0 255 0
-18.458000 1.276000 22.166000 0 255 0
-18.389999 1.620000 22.240000 0 255 0
-16.908001 1.530000 10.546000 0 255 0
-16.764999 1.095000 24.504999 0 255 0
-18.325001 1.089000 9.051000 255 0 0
-17.309999 1.630000 10.860000 0 255 0
-17.290001 1.710000 17.150000 0 255 0
-17.170000 1.210000 10.615000 0 255 0
-17.180000 1.520000 16.959999 0 255 0
-18.957500 1.530000 9.808300 0 255 0
-18.896700 0.840000 17.959999 0 255 0
-18.240000 0.830000 22.830000 0 255 0
-19.049999 1.310000 9.040000 0 255 0
-17.607500 0.767500 20.507500 0 255 0
-17.340000 1.760000 21.590000 0 255 0
-17.370001 1.876700 15.266700 0 255 0
-17.715000 2.000000 16.865000 0 255 0
-17.730000 1.480000 10.490000 0 255 0
-17.350000 1.320000 11.380000 0 255 0
-18.250000 1.532700 10.959100 0 255 0
-18.028000 1.831000 9.072000 0 255 0
-17.780001 1.050000 21.670000 255 0 0
-17.257900 0.918900 1.952100 0 255 255
-17.508801 2.170000 8.305000 0 255 0
-18.005699 0.031400 8.948600 0 255 0
-18.049999 -0.020000 8.715000 0 255 0
-17.563299 0.683300 25.863300 0 255 0
-17.560900 0.535500 1.760900 0 255 255
-17.190001 0.280000 22.760000 0 255 0
-18.280001 1.020000 5.270000 255 0 0
-18.700001 1.410000 23.830000 0 255 0
-17.120001 1.060000 21.830000 0 255 0
-18.566700 1.490000 26.306700 0 255 0
-18.549999 1.410000 23.049999 0 255 0
-18.590000 0.390000 23.610001 0 255 0
-17.709999 0.960000 19.969999 255 0 0
-17.690001 1.060000 26.250000 0 255 0
-17.070000 0.630000 20.125000 0 255 0
-18.366699 0.830000 16.813299 0 255 0
-17.601200 1.137100 1.661800 0 255 255
-17.713900 1.479100 10.857400 0 255 0
-17.254999 1.230000 20.129999 0 255 0
-17.250000 1.560000 17.030001 0 255 0
-17.469999 1.450000 17.059999 0 255 0
-18.257500 1.835000 16.105000 0 255 0
-18.309999 0.045000 20.715000 0 255 0
-17.900000 1.010000 14.220000 255 0 0
-18.230000 1.610000 10.420000 0 255 0
-18.195000 1.590000 13.510000 0 255 0
-18.850000 0.140000 9.260000 0 255 0
-18.254999 1.215000 4.865000 255 0 0
-18.257799 1.188300 1.711400 0 255 255
-18.219999 1.330000 23.670000 0 255 0
-18.257999 1.314000 11.014000 0 255 0
-18.440001 -0.040000 9.940000 0 255 0
-18.139999 1.360000 3.960000 0 255 0
-18.150000 1.236000 7.126000 255 0 0
-18.170000 1.290000 10.270000 0 255 0
-18.155001 1.229400 6.864400 255 0 0
-18.170000 0.920000 25.860001 0 255 0
-18.139999 1.150000 13.230000 255 0 0
-18.150000 1.290000 10.120000 0 255 0
-18.120001 1.095000 22.995001 0 255 0
-18.100000 1.240000 13.230000 255 0 0
-18.105000 1.280000 9.965000 255 0 0
-17.900000 0.786700 15.273300 255 0 0
-17.920000 0.850000 12.000000 255 0 0
-17.650000 2.073300 9.400000 0 255 0
-18.740000 1.480000 23.980000 0 255 0
-18.750000 0.220000 9.112000 0 255 0
-18.580000 0.060000 21.870001 0 255 0
-18.563999 0.278000 8.810000 0 255 0
-18.420000 0.110000 20.620001 0 255 0
-17.260000 0.110000 25.070000 0 255 0
-18.171301 0.142500 2.056200 0 255 255
-18.165701 -0.012900 17.969999 0 255 0
-18.254999 1.215000 3.860000 255 0 0
-18.309999 1.270000 23.889999 0 255 0
-17.190001 1.610000 15.220000 0 255 0
-17.666700 0.976700 22.273300 255 0 0
-17.770000 1.020000 15.590000 255 0 0
-17.760000 0.920000 22.120001 255 0 0
-17.120001 1.810000 7.890000 0 255 0
-17.101700 1.125000 10.470000 0 255 0
-18.155001 -0.190000 21.809999 0 255 0
-18.972000 1.326000 19.351999 0 255 0
-18.309999 0.110000 23.420000 0 255 0
-17.510000 1.250000 8.880000 0 255 0
-18.100000 -0.120000 8.655000 0 255 0
-18.559999 0.260000 9.120000 0 255 0
-17.105000 1.175000 11.245000 0 255 0
-17.930000 1.470000 10.880000 0 255 0
-18.469999 1.220000 10.070000 0 255 0
-18.904499 0.326400 10.163600 0 255 0
-17.719999 0.820000 2.450000 0 255 255
-19.004999 0.271700 9.110000 0 255 0
-18.020000 0.140000 2.230000 0 255 255
-18.010000 0.030000 8.710000 0 255 0
-17.250000 0.210000 23.510000 0 255 0
-18.059999 1.250000 4.220000 255 0 0
-18.062901 1.268600 7.352900 255 0 0
-17.590000 1.670000 8.620000 0 255 0
-17.413799 0.725000 2.007500 0 255 255
-17.304300 1.987100 8.558300 0 255 0
-17.295000 1.915000 11.810000 0 255 0
-17.850000 0.970000 23.330000 255 0 0
-18.856701 1.233300 19.806700 0 255 0
-17.320000 2.010000 11.790000 0 255 0
-17.305000 1.220000 17.010000 0 255 0
-17.305000 1.370000 20.344999 0 255 0
-18.660000 1.590000 20.820000 0 255 0
-17.840000 0.230000 2.190000 0 255 255
-17.870001 -0.240000 24.280001 0 255 0
-18.290001 0.940000 6.060000 255 0 0
-19.030001 0.880000 18.980000 0 255 0
-18.660000 0.332000 21.809999 0 255 0
-17.700001 0.740000 21.690001 255 0 0
-17.763300 1.775000 9.960000 0 255 0
-18.030001 0.180000 2.030000 0 255 255
-17.820000 1.580000 22.410000 0 255 0
-18.020000 1.835000 16.174999 0 255 0
-18.000000 1.910000 9.670000 0 255 0
-17.420000 2.090000 8.190000 0 255 0
-17.709999 0.740000 21.344999 255 0 0
-17.722000 0.874000 24.506001 255 0 0
-18.010000 1.110000 15.640000 255 0 0
-17.990000 0.960000 12.690000 255 0 0
-16.760000 1.035000 21.959999 0 255 0
-18.520000 0.280000 23.940001 0 255 0
-18.559999 0.320000 23.674999 0 255 0
-18.580000 0.350000 23.389999 0 255 0
-18.395000 0.100000 22.555000 0 255 0
-18.059999 1.550000 10.515000 0 255 0
-17.306700 0.528300 1.708300 0 255 255
-16.730000 1.050000 22.670000 0 255 0
-17.816700 0.073300 2.370000 0 255 255
-17.809999 -0.010000 8.670000 0 255 0
-18.209999 1.550000 12.850000 0 255 0
-18.209999 1.140000 19.400000 0 255 0
-18.209999 1.210000 12.670000 255 0 0
-19.010000 1.270000 9.555000 0 255 0
-18.865000 1.033300 12.066700 0 255 0
-18.840000 1.395000 8.965000 0 255 0
-18.115000 1.720000 23.965000 0 255 0
-18.520000 0.310000 23.719999 0 255 0
-17.415001 1.195000 20.200001 0 255 0
-17.570000 1.190000 17.062500 0 255 0
-17.555700 1.220000 20.195700 0 255 0
-18.196699 1.190000 11.273300 0 255 0
-18.205000 1.220000 8.050000 255 0 0
-18.200001 1.020000 20.719999 0 255 0
-17.955000 0.390000 26.405001 0 255 0
-17.965599 0.842900 2.755800 255 0 0
-18.889999 0.675000 22.525000 0 255 0
-18.639999 0.050000 23.780001 0 255 0
-17.430000 2.030000 16.250000 0 255 0
-17.709999 0.970000 25.205000 255 0 0
-17.430000 2.040000 8.530000 0 255 0
-17.240000 1.216700 24.763300 0 255 0
-18.325001 0.985000 24.110001 0 255 0
-18.293301 0.986700 5.270000 255 0 0
-17.701599 0.327800 2.206900 0 255 255
-16.914101 0.727100 20.106501 0 255 0
-18.155001 1.195000 6.215000 255 0 0
-17.930000 1.730000 26.020000 0 255 0
-17.860001 2.022500 9.415000 0 255 0
-17.170000 -0.010000 24.049999 0 255 0
-18.005199 1.820000 1.645200 0 255 255
-17.129999 1.810000 21.500000 0 255 0
-17.610001 0.980000 20.440001 0 255 0
-16.697500 0.890000 22.367500 0 255 0
-17.604300 -0.025700 23.364300 0 255 0
-17.706800 0.985700 1.901100 0 255 255
-18.158400 1.242100 5.463200 255 0 0
-17.150000 1.650000 8.170000 0 255 0
-18.180000 0.720000 16.870001 0 255 0
-18.163300 0.886700 13.870000 255 0 0
-18.163300 0.835600 10.708900 255 0 0
-17.160000 0.045000 24.150000 0 255 0
-17.812500 1.537500 26.442499 0 255 0
-18.865000 0.875000 21.805000 0 255 0
-17.459999 0.030000 23.930000 0 255 0
-17.263300 -0.073300 23.356701 0 255 0
-18.317101 1.487700 1.719100 0 255 255
-17.540001 0.700000 26.900000 0 255 0
-17.566700 0.786700 20.590000 0 255 0
-17.770000 1.170000 20.490000 0 255 0
-17.764400 1.420700 1.655400 0 255 255
-18.650000 1.850000 1.970000 0 255 255
-18.799999 0.280000 23.780001 0 255 0
-17.495001 1.380000 15.220000 0 255 0
-17.790001 2.140000 8.090000 0 255 0
-17.219999 0.850000 21.780001 0 255 0
-17.280001 -0.110000 23.280001 0 255 0
-17.120001 1.100000 19.719999 0 255 0
-17.090000 0.380000 26.059999 0 255 0
-17.070000 1.050000 23.049999 0 255 0
-18.309999 2.070000 10.330000 0 255 0
-17.001400 0.882900 21.864300 0 255 0
-18.217899 2.227100 12.065700 0 255 0
-17.450001 0.910000 23.000000 0 255 0
-17.709999 1.167500 1.562500 0 255 255
-18.116699 1.176700 6.610000 255 0 0
-18.100000 0.820000 16.400000 255 0 0
-18.116699 0.860000 13.166700 255 0 0
-16.855000 0.315000 22.745001 0 255 0
-18.150000 0.800000 13.780000 0 255 0
-18.180000 0.860000 7.400000 255 0 0
-18.159599 0.838700 4.159200 255 0 0
-18.150000 0.720000 10.530000 255 0 0
-18.510000 0.210000 21.900000 0 255 0
-17.040001 1.010000 20.129999 0 255 0
-17.790001 0.850000 25.299999 255 0 0
-17.809999 0.870000 22.046700 255 0 0
-17.703300 0.080000 23.146700 0 255 0
-18.459999 -0.076700 9.063300 0 255 0
-18.511900 -0.072900 9.209500 0 255 0
-17.709999 0.370000 23.980000 0 255 0
-18.260000 1.900000 1.805000 0 255 255
-17.000999 1.335000 11.367000 0 255 0
-18.420000 1.965000 16.754999 0 255 0
-17.790001 1.300000 10.590000 0 255 0
-17.830000 1.170000 17.100000 0 255 0
-18.217800 0.867800 2.964400 255 0 0
-18.207800 0.832200 6.215600 255 0 0
-18.200001 0.765000 9.320000 0 255 0
