1.384200 12.530800 14.362500 0 255 0
1.700000 12.450000 2.020000 0 255 255
1.683300 11.136700 20.206699 0 255 0
1.150000 12.460000 27.290001 0 255 0
1.990000 12.550000 28.680000 0 255 0
1.630000 11.390000 28.520000 0 255 0
0.010000 11.780000 16.260000 0 255 0
1.842500 12.231300 16.263800 0 255 0
1.135000 10.878300 1.918300 0 255 0
1.737300 11.929100 2.753600 0 255 0
-0.250000 12.260000 2.080000 0 255 0
-0.200000 12.586700 2.156700 0 255 255
-0.200000 11.573300 14.823300 0 255 0
0.092900 11.028600 14.370000 0 255 0
0.300000 11.185000 18.825001 0 255 0
0.286800 11.073800 12.317800 0 255 0
0.582900 12.738600 2.160000 0 255 255
0.780000 12.260000 21.950001 0 255 0
0.785000 12.630000 25.150000 0 255 0
0.855000 12.285000 2.250000 0 255 0
0.800000 11.920000 2.420000 255 0 0
0.810000 11.880000 5.540000 255 0 0
0.805000 12.265000 2.110000 0 255 0
0.735700 12.717100 2.120000 0 255 255
1.085000 12.410000 18.475000 0 255 0
1.074000 12.430000 2.551000 0 255 255
1.100000 12.370000 18.370001 0 255 0
1.073300 12.463300 2.563300 0 255 255
1.070000 12.250000 18.480000 0 255 0
0.798700 12.623800 2.110000 0 255 255
0.885600 12.374400 2.051100 0 255 0
1.550000 11.775000 22.594999 0 255 0
1.487100 12.177100 2.817100 0 255 0
1.190000 12.120000 26.330000 255 0 0
1.650000 11.220000 15.730000 0 255 0
1.560000 12.670000 25.110001 0 255 0
-0.113300 11.493300 1.900000 0 255 0
-0.454000 11.172000 2.074000 0 255 255
0.091800 10.922900 12.406500 0 255 0
-0.100000 12.910000 2.400000 0 255 255
1.833300 12.343300 22.906700 0 255 0
-0.114000 12.529000 2.152000 0 255 0
-0.110000 11.550000 14.810000 0 255 0
0.135900 10.829600 12.212600 0 255 0
1.250000 12.390000 18.309999 0 255 0
1.232500 12.320000 2.610000 0 255 0
0.310000 11.200000 12.300000 0 255 0
0.632000 12.831000 2.147000 0 255 255
0.780000 12.270000 2.160000 0 255 0
1.900000 11.340000 27.370001 0 255 0
1.640000 11.040000 2.880000 0 255 255
1.637500 11.065000 19.257500 0 255 0
1.640000 11.120000 22.790001 0 255 0
1.650000 11.240000 18.799999 0 255 0
1.590000 12.750000 28.620001 0 255 0
0.770000 11.030000 17.320000 0 255 0
0.796700 10.990000 20.566700 0 255 0
0.888000 11.136000 17.209999 0 255 0
-0.365000 12.535000 2.075000 0 255 255
1.286700 11.476700 11.521700 0 255 0
0.030000 12.140000 15.890000 0 255 0
-0.362200 12.231100 2.056700 0 255 0
0.235000 11.825000 26.975000 0 255 0
-0.270000 12.210000 1.960000 0 255 0
0.310000 11.110000 18.719999 0 255 0
0.287100 11.022900 12.398600 0 255 0
0.244000 12.876000 2.170000 0 255 255
0.290400 11.181900 12.366200 0 255 0
0.620000 13.120000 2.290000 0 255 255
1.645000 11.230000 18.674999 0 255 0
2.132000 11.818000 20.422001 0 255 0
0.920000 11.870000 18.990000 255 0 0
0.940000 11.625000 2.370000 0 255 0
0.933800 11.831500 15.406900 255 0 0
0.940000 11.725000 9.107000 255 0 0
1.670000 12.030000 23.900000 0 255 0
0.283300 11.123300 19.056700 0 255 0
1.900000 11.710000 2.690000 0 255 255
0.040000 12.383300 18.246700 0 255 0
1.742000 12.022000 2.761000 0 255 0
0.080000 12.220000 18.139999 0 255 0
-0.210000 12.240000 18.350000 0 255 0
0.097800 12.188900 18.303301 0 255 0
-0.090000 12.200000 18.370001 0 255 0
-0.130000 12.340000 8.840000 0 255 0
-0.095000 12.920000 2.557500 0 255 255
0.493300 11.066700 15.456700 0 255 0
0.560000 10.860000 2.590000 0 255 255
0.346900 12.931700 2.358900 0 255 255
0.410000 10.890000 12.080000 0 255 0
0.289200 11.125800 12.363800 0 255 0
0.529000 13.030000 2.225000 0 255 255
0.639200 13.121500 2.246900 0 255 255
0.455000 13.035000 2.170000 0 255 255
0.495000 10.930000 12.370000 0 255 0
0.470000 10.940000 12.320000 0 255 0
0.480000 10.890000 15.470000 0 255 0
0.540000 10.895000 17.070000 0 255 0
0.750000 10.685000 16.870001 0 255 0
0.630000 10.696700 16.893299 0 255 0
1.610000 12.770000 26.709999 0 255 0
0.950000 11.670000 11.540000 0 255 0
0.940000 11.790000 17.840000 255 0 0
0.930000 11.750000 14.720000 255 0 0
0.226000 10.676000 1.898000 0 255 255
-0.720000 11.660000 2.100000 0 255 255
0.087100 12.172900 19.217100 0 255 0
1.060000 12.500000 14.270000 0 255 0
1.760000 11.250000 21.600000 0 255 0
1.545000 11.675000 2.660000 0 255 0
0.000000 12.130000 18.290001 0 255 0
0.480000 11.060000 15.290000 0 255 0
0.486700 10.976700 15.366700 0 255 0
0.430000 10.976000 12.406000 0 255 0
0.710000 10.700000 2.590000 0 255 255
0.348100 12.980600 2.316900 0 255 255
0.238200 12.827300 2.354500 0 255 255
0.288700 12.936000 2.263300 0 255 255
1.483300 12.200000 2.006700 0 255 0
0.390000 13.090000 2.100000 0 0 255
0.230000 12.973300 2.166700 0 255 255
0.289800 11.078800 12.358800 0 255 0
1.480800 11.137500 15.209200 0 255 0
0.382700 13.026400 2.356800 0 255 255
0.437500 10.830000 16.959999 0 255 0
0.442200 13.121100 2.258900 0 255 255
0.698300 10.636700 2.153300 0 255 255
0.353700 12.936300 2.162500 0 255 255
0.389200 10.884400 12.268800 0 255 0
0.632000 10.682000 16.865999 0 255 0
1.650000 12.850000 25.190001 0 255 0
1.145000 11.985000 28.955000 0 255 0
1.160000 11.890000 22.450001 255 0 0
1.680000 13.010000 22.910000 0 255 0
1.073300 11.030000 1.863300 0 255 0
1.160000 10.976700 19.413300 0 255 0
0.060000 11.270000 18.809999 0 255 0
-0.074000 11.684000 2.050000 0 255 0
0.430000 12.100000 28.139999 0 255 0
1.060000 11.690000 27.260000 0 255 0
1.053300 12.100000 2.766700 0 255 0
1.035000 11.875000 15.815000 255 0 0
0.173300 11.483300 19.049999 0 255 0
0.180000 11.435000 22.320000 0 255 0
0.170000 11.530000 19.020000 0 255 0
0.180000 11.830000 14.720000 0 255 0
0.030000 11.000000 12.510000 0 255 0
0.490000 10.980000 15.320000 0 255 0
0.088000 10.930000 12.496000 0 255 0
0.505000 10.980000 15.505000 0 255 0
0.495000 10.795000 2.475000 0 255 255
0.475000 11.022500 12.350000 0 255 0
0.020000 11.880000 2.120000 0 255 0
0.560000 11.010000 12.350000 0 255 0
0.525000 10.870000 2.565000 0 255 255
0.486700 10.788600 2.511400 0 255 255
0.474300 11.030000 12.312900 0 255 0
0.640000 11.030000 1.750000 0 255 0
0.800000 11.820000 12.250000 255 0 0
0.780000 11.670000 21.930000 0 255 0
0.800000 11.595000 2.350000 0 255 0
0.793500 11.776500 15.410500 255 0 0
0.646200 11.029200 18.113800 0 255 0
0.695600 10.934400 18.118900 0 255 0
0.391300 13.030500 2.307900 0 255 255
0.450000 10.850000 17.030001 0 255 0
0.293300 12.946700 2.160000 0 255 255
0.540000 13.090000 2.360000 0 255 255
0.500000 13.123300 2.153300 0 255 255
0.530000 10.930000 17.160000 0 255 0
1.650000 11.250000 15.330000 0 255 0
1.640000 12.690000 28.770000 0 255 0
1.620000 12.700000 25.170000 0 255 0
1.440000 12.625000 18.115000 0 255 0
0.710000 12.390000 22.670000 0 255 0
0.691400 12.017900 6.210500 255 0 0
0.777500 11.962500 4.365000 255 0 0
1.050000 10.700000 2.430000 0 255 255
1.550000 11.780000 28.820000 0 255 0
1.852500 11.287500 17.747499 0 255 0
0.590000 12.010000 10.580000 255 0 0
0.600000 11.960000 13.830000 255 0 0
1.050000 11.720000 15.855000 0 255 0
1.050000 11.900000 11.340000 0 255 0
1.050000 11.780000 19.115000 255 0 0
0.140000 12.190000 15.902500 0 255 0
0.786700 11.993300 12.463300 255 0 0
0.778300 12.011700 9.316700 255 0 0
0.790000 11.870000 18.959999 255 0 0
0.802700 11.726000 4.359300 255 0 0
0.781900 11.688700 7.513100 255 0 0
0.940000 11.875000 1.926000 0 255 0
0.930000 12.110000 17.709999 0 255 0
0.055000 12.945000 2.365000 0 255 255
0.080000 11.360000 19.080000 0 255 0
0.080000 11.290000 12.763300 0 255 0
0.070000 11.340000 12.510000 0 255 0
0.110000 11.436700 19.013300 0 255 0
0.248200 11.680000 16.118200 0 255 0
-0.210600 11.976300 18.306900 0 255 0
1.540000 11.620000 2.570000 0 255 0
0.070000 12.130000 18.465000 0 255 0
0.086700 12.073300 18.363300 0 255 0
-0.180000 11.500000 12.470000 0 255 0
-0.002900 12.232900 18.301399 0 255 0
0.110000 12.060000 18.500000 0 255 0
-0.218300 12.290000 15.868300 0 255 0
0.485000 10.860000 2.560000 0 255 255
0.431100 11.028900 12.410000 0 255 0
0.357800 10.772200 2.465600 0 255 255
-0.108000 12.371000 15.821000 0 255 0
0.434700 11.028400 12.360500 0 255 0
0.491800 11.130000 11.854500 0 255 0
0.450000 11.150000 2.330000 0 255 0
0.087500 11.015000 14.407500 0 255 0
0.783300 10.921700 15.155000 0 255 0
0.336000 12.140000 2.110000 0 255 0
0.810000 11.040000 21.240000 0 255 0
0.680000 10.650000 2.260000 0 255 255
0.691400 10.981400 18.110001 0 255 0
0.386700 12.975800 2.217500 0 255 255
0.433300 13.113300 2.180000 0 255 255
0.551400 13.082900 2.294300 0 255 255
1.780000 11.820000 28.760000 0 255 0
1.790000 12.220000 2.672000 0 255 0
1.780000 11.880000 25.600000 0 255 0
2.088000 11.940000 17.108999 0 255 0
2.100000 11.886700 20.363300 0 255 0
1.250000 12.370000 13.370000 0 255 0
1.235000 11.920000 22.459999 255 0 0
0.983300 12.316700 25.020000 0 255 0
0.110000 11.520000 20.040001 0 255 0
0.881200 11.736300 11.412500 255 0 0
0.890000 11.836000 17.906000 255 0 0
1.050000 11.900000 14.470000 0 255 0
1.038000 11.734000 19.153999 0 255 0
1.030000 11.675000 28.705000 0 255 0
0.570000 12.560000 27.719999 0 255 0
0.594000 12.020000 10.901000 255 0 0
1.536000 12.464000 2.505000 0 255 255
0.250000 11.678000 19.969999 0 255 0
1.610000 11.670000 1.900000 0 255 0
-0.110000 12.432500 2.147500 0 255 0
-0.113300 12.477500 2.069200 0 255 0
0.470000 11.480000 26.530001 0 255 0
0.084000 12.134000 18.162001 0 255 0
0.090000 12.150000 17.850000 0 255 0
-0.375000 12.095000 2.600000 0 255 0
0.180000 11.870000 18.430000 0 255 0
0.088000 12.078000 18.406000 0 255 0
-0.243300 11.316700 12.566700 0 255 0
-0.210000 11.272000 12.506000 0 255 0
-0.190000 11.270000 12.410000 0 255 0
0.441700 11.871700 20.011700 0 255 0
0.442500 11.925000 20.017500 0 255 0
0.442400 11.881900 16.868099 0 255 0
0.640000 11.070000 2.580000 0 255 0
0.620000 10.870000 15.610000 0 255 0
0.660000 11.070000 2.600000 0 255 0
0.650000 10.870000 15.670000 0 255 0
0.480000 11.090000 12.400000 0 255 0
0.430000 11.110000 12.362500 0 255 0
0.445500 10.793600 2.554500 0 255 255
0.480000 11.060000 12.340000 0 255 0
0.453800 10.830800 2.466900 0 255 255
0.432000 10.983000 12.363000 0 255 0
0.485000 10.870000 2.450000 0 255 255
0.510000 11.720000 12.450000 0 255 0
0.537900 10.673600 2.197900 0 255 255
0.134700 12.028200 2.020000 0 255 0
0.480000 10.865000 2.510000 0 255 255
0.143300 10.838300 12.168300 0 255 0
0.830000 11.570000 11.860000 0 255 0
0.860000 11.460000 18.139999 0 255 0
0.390000 10.720000 12.110000 0 255 0
0.400600 12.885300 2.261800 0 255 255
0.630000 11.030000 21.200001 0 255 0
0.586700 10.980000 18.010000 0 255 0
0.597100 11.082500 11.713900 0 255 0
0.510000 11.010000 15.320000 0 255 0
1.946000 11.780000 17.806000 0 255 0
2.070000 12.020000 17.530001 0 255 0
2.030000 11.672500 17.920000 0 255 0
2.140000 12.170000 28.379999 0 255 0
0.020000 11.910000 16.030001 0 255 0
2.200000 11.720000 24.719999 0 255 0
1.540000 12.560000 18.250000 0 255 0
1.590000 12.500000 16.480000 0 255 0
1.594000 12.278000 2.674000 0 255 0
1.580000 11.240000 20.000000 0 255 0
2.060000 11.600000 20.500000 0 255 0
1.033000 11.663000 2.859000 0 255 0
-0.356000 11.880000 2.112000 0 255 0
1.056700 11.420000 15.316700 0 255 0
1.037300 11.635500 2.657300 0 255 0
0.296400 11.937300 14.414500 0 255 0
0.136700 11.930000 16.956699 0 255 0
1.037700 12.932300 2.255800 0 255 255
1.480000 11.830000 1.830000 0 255 0
1.490000 12.160000 18.240000 0 255 0
1.845000 11.380000 16.815001 0 255 0
1.850000 11.235000 19.965000 0 255 0
1.740000 11.745000 19.995001 0 255 0
1.590000 11.980000 20.673300 0 255 0
0.555000 12.300000 2.145000 0 255 0
0.850000 11.420000 18.040001 0 255 0
0.825000 11.180000 2.170000 0 255 0
0.822500 11.125000 11.702500 0 255 0
0.850000 11.287500 21.100000 0 255 0
0.088900 11.136700 1.801100 0 255 0
1.900000 12.220000 17.660000 0 255 0
0.100000 12.372000 18.414000 0 255 0
0.090000 12.310000 8.770000 0 255 0
-0.090000 12.140000 17.910000 0 255 0
-0.116700 12.383300 2.113300 0 255 0
0.841700 12.321700 2.021700 0 255 0
1.080000 12.060000 25.469999 255 0 0
1.110000 12.370000 18.299999 0 255 0
0.450000 12.490000 22.600000 0 255 0
1.832500 11.986700 2.715000 0 255 0
1.850000 11.646700 17.903299 0 255 0
0.086200 12.132500 18.207500 0 255 0
-0.109300 11.332900 12.711400 0 255 0
-0.202500 11.887500 18.410000 0 255 0
-0.061400 11.977100 18.357100 0 255 0
0.490000 12.040000 14.550000 0 255 0
0.460000 11.750000 20.070000 0 255 0
-0.015000 11.835000 21.459999 0 255 0
-0.250000 11.315000 12.505000 0 255 0
-0.103100 11.175000 12.360600 0 255 0
0.586700 11.277800 15.265600 0 255 0
0.570000 11.890000 27.930000 0 255 0
0.650000 10.730000 15.160000 0 255 0
0.580000 11.490000 22.090000 0 255 0
0.435500 11.030000 12.307300 0 255 0
0.520000 10.920000 2.400000 0 255 255
0.539100 11.080900 11.807300 0 255 0
2.273300 12.276700 28.070000 0 255 0
1.638000 12.475000 16.209000 0 255 0
0.980000 10.800000 19.250000 0 255 0
1.933300 12.136700 28.593300 0 255 0
1.940000 12.030000 22.120001 0 255 0
1.941000 12.336200 15.962400 0 255 0
1.110000 11.460000 19.870001 0 255 0
0.970000 12.100000 28.969999 0 255 0
1.000000 12.160000 22.680000 0 255 0
1.010000 10.760000 1.730000 0 255 255
0.990000 10.620000 2.852900 0 255 255
1.538000 11.678000 11.898000 0 255 0
-0.650000 12.183300 2.548900 0 255 255
-0.055900 12.032400 18.160000 0 255 0
0.560000 12.010000 8.900000 255 0 0
0.549700 11.971100 5.661100 255 0 0
0.535000 12.073300 11.952500 0 255 0
0.701100 12.730000 2.212200 0 255 255
0.632900 11.768600 10.702900 255 0 0
0.635000 11.719400 7.456700 255 0 0
0.050000 11.240000 18.719999 0 255 0
-0.068000 11.912000 16.964001 0 255 0
0.050000 12.020000 21.450001 0 255 0
0.035000 11.692500 12.075000 0 255 0
0.038900 11.986700 18.216700 0 255 0
-0.112200 11.133300 14.712200 0 255 0
-0.390000 11.360000 2.130000 0 255 0
0.510000 11.915000 9.495000 255 0 0
0.501800 11.780400 6.456400 255 0 0
0.685000 11.732500 15.865000 255 0 0
0.690000 11.774700 12.706700 255 0 0
0.800000 11.780000 22.000000 0 255 0
0.770000 11.645000 6.230000 255 0 0
-0.011300 11.788700 16.151199 0 255 0
0.291300 10.777800 12.264400 0 255 0
0.470000 12.460000 2.080000 0 255 255
0.476700 12.076700 28.166700 0 255 0
0.483300 12.036700 18.709999 0 255 0
0.503100 11.926900 6.157500 255 0 0
0.503300 11.866700 9.313300 255 0 0
0.540000 12.640000 28.219999 0 255 0
0.430000 12.210000 28.100000 0 255 0
-0.040000 11.440000 19.209999 0 255 0
-0.062700 11.331300 12.701300 0 255 0
-0.200000 11.965000 18.254999 0 255 0
-0.212900 11.832900 18.262899 0 255 0
-0.060000 11.990000 18.504999 0 255 0
0.500000 11.790000 9.340000 255 0 0
0.475000 11.660000 2.812500 255 0 0
0.503200 11.825100 6.108300 255 0 0
-0.058000 11.941000 18.458000 0 255 0
0.280000 11.370000 12.620000 0 255 0
0.720000 11.690000 18.500000 0 255 0
0.745000 11.830000 2.700700 255 0 0
0.732500 11.575000 12.005000 0 255 0
0.730000 11.730000 5.240000 255 0 0
0.550000 11.600000 20.020000 0 255 0
0.683300 11.348300 2.776700 0 255 0
0.470000 10.980000 12.306700 0 255 0
0.645000 10.785000 15.000000 0 255 0
0.132500 11.175000 19.107500 0 255 0
0.150000 11.240000 22.340000 0 255 0
1.893300 12.383300 22.913300 0 255 0
0.890000 11.550000 3.020000 0 255 0
0.876700 11.730000 15.663300 255 0 0
0.900000 11.910000 15.090000 255 0 0
0.883300 11.880000 18.260000 255 0 0
0.876700 11.835000 8.160000 255 0 0
0.887500 11.788800 11.313100 255 0 0
1.540000 11.215000 16.674999 0 255 0
0.960000 12.570000 2.270000 0 255 255
0.925000 11.375000 2.670000 0 255 0
1.050000 11.910000 2.310000 0 255 0
1.020000 11.780000 18.590000 255 0 0
1.030000 11.725000 15.360000 0 255 0
1.045000 11.875000 11.875000 0 255 0
1.240000 12.480000 2.020000 0 255 255
0.390000 10.980000 1.915000 0 255 255
0.826700 11.783900 4.063900 255 0 0
0.850600 11.829100 7.202600 0 255 0
0.850000 11.680000 10.560000 255 0 0
0.845000 11.743300 13.714200 255 0 0
0.338700 10.721300 1.863800 0 255 255
0.086700 11.916700 16.953300 0 255 0
0.970000 11.790000 10.400000 255 0 0
0.986700 11.740000 13.576700 255 0 0
1.010000 11.630000 19.860001 0 255 0
1.530000 12.010000 19.930000 0 255 0
-0.162500 12.175000 19.170000 0 255 0
0.000000 11.490000 19.030001 0 255 0
2.300000 12.325000 26.190001 0 255 0
-0.010000 12.120000 2.116700 0 255 0
0.323300 11.230000 12.396700 0 255 0
0.343300 11.393300 22.173300 0 255 0
0.090000 12.112000 9.048000 0 255 0
0.360000 11.280000 18.719999 0 255 0
-0.270000 12.370000 15.760000 0 255 0
0.470000 11.080000 1.900000 0 255 0
-0.255700 11.782900 18.318600 0 255 0
-0.106700 12.321100 17.673300 0 255 0
-0.100000 12.320000 18.000000 0 255 0
1.840000 11.716700 2.563300 0 255 255
0.777200 11.877800 3.311100 255 0 0
0.640000 11.760000 9.180000 255 0 0
0.633300 11.680000 15.920000 0 255 0
0.630000 11.713300 5.993300 255 0 0
-0.158300 11.932500 18.312500 0 255 0
0.350000 11.720000 2.830000 255 0 0
0.325000 11.230000 22.430000 0 255 0
0.348300 11.521700 16.258301 0 255 0
0.370000 11.240000 22.510000 0 255 0
0.401900 11.926500 2.958700 255 0 0
-0.052000 12.036000 18.417999 0 255 0
-0.060000 12.080000 21.575001 0 255 0
0.090000 12.790000 2.630000 0 255 255
0.587800 11.621900 2.615600 255 0 0
0.430000 11.490000 16.160000 0 255 0
0.446700 12.476700 28.020000 0 255 0
0.580000 11.330000 15.550000 0 255 0
0.641800 10.786300 2.510700 0 255 255
0.340000 11.800000 26.930000 0 255 0
0.590000 10.845000 2.470000 0 255 255
1.260000 10.830000 19.370001 0 255 0
1.835000 11.825000 2.825000 0 255 255
1.440000 12.075000 16.330000 0 255 0
1.490000 12.066700 23.770000 0 255 0
1.110000 12.230000 19.120001 0 255 0
1.035000 12.220000 25.520000 0 255 0
1.990000 11.650000 26.820000 0 255 0
1.987500 11.717500 20.502501 0 255 0
0.706700 12.000000 6.660000 255 0 0
0.690000 12.020000 16.090000 255 0 0
1.580000 12.050000 2.900000 0 255 0
1.490000 11.370000 16.680000 0 255 0
1.486000 10.928000 19.403999 0 255 0
2.010000 11.590000 20.780001 0 255 0
1.850000 11.660000 18.120001 0 255 0
0.750000 12.010000 4.800000 255 0 0
0.553300 11.083300 20.553301 0 255 0
0.160000 12.815000 2.560000 0 255 255
0.125000 11.390000 12.770000 0 255 0
1.142500 11.030000 2.015000 0 255 0
1.828300 11.280000 21.511700 0 255 0
1.846000 11.580000 2.564000 0 255 255
-0.107500 12.822500 2.310000 0 255 255
-0.307900 11.124600 1.913200 0 255 255
2.110000 11.670000 26.889999 0 255 0
2.080000 11.790000 17.030001 0 255 0
-0.116000 12.387000 18.108999 0 255 0
1.710000 11.090000 20.254999 0 255 0
1.625000 12.040000 28.900000 0 255 0
0.287500 11.625000 20.012501 0 255 0
1.526700 11.926700 19.950001 0 255 0
0.025600 12.590000 2.312200 0 255 255
0.046800 12.479400 2.267700 0 255 0
1.010000 12.170000 27.190001 0 255 0
0.298300 12.126700 16.061701 0 255 0
0.890000 12.530000 22.807501 0 255 0
1.732000 11.726000 2.800000 0 255 0
0.240900 11.827900 14.460300 0 255 0
-0.445000 11.627500 12.315000 0 255 0
0.137200 11.690000 12.069400 0 255 0
0.570000 11.760000 7.490000 255 0 0
0.595900 11.733200 10.656400 255 0 0
-0.057500 12.272500 21.700001 0 255 0
0.470000 11.230000 18.100000 0 255 0
0.489500 11.829500 5.860700 255 0 0
0.503000 11.784000 9.014000 255 0 0
0.610000 11.650000 6.320000 255 0 0
0.570000 12.240000 20.170000 0 255 0
0.580000 11.670000 3.170000 255 0 0
0.593300 12.183300 20.153299 0 255 0
0.587100 11.625700 3.059100 255 0 0
0.800000 12.600000 22.900000 0 255 0
0.655000 11.315000 17.059999 0 255 0
0.842500 11.423800 15.468800 0 255 0
0.340000 10.933300 2.160000 0 255 255
0.340000 11.915000 14.495000 0 255 0
0.360000 11.990000 17.639999 0 255 0
0.383000 10.641000 1.857000 0 255 255
0.091800 12.581200 2.121200 0 255 255
0.089300 12.487300 2.118000 0 255 0
0.035000 12.165000 18.059999 0 255 0
0.793300 12.193300 2.120000 0 255 0
0.180000 11.730000 18.260000 0 255 0
0.260000 11.710000 14.380000 0 255 0
0.510000 11.810000 11.300000 255 0 0
0.500000 11.700000 8.030000 255 0 0
0.489800 11.726900 4.758300 255 0 0
0.252500 11.725000 14.517500 0 255 0
0.200000 12.650000 22.020000 0 255 0
1.488000 12.287000 18.107000 0 255 0
0.038900 12.080000 9.056100 0 255 0
0.700000 11.700000 20.200001 0 255 0
0.620000 10.720000 16.815001 0 255 0
0.180000 11.990000 17.719999 0 255 0
0.380000 12.610000 22.780001 0 255 0
0.200000 11.790000 27.170000 0 255 0
0.505000 11.879300 6.662100 255 0 0
0.480000 11.936300 3.409300 0 255 0
0.985000 11.920000 3.250000 0 255 0
1.005000 11.730000 15.910000 255 0 0
0.970000 11.825000 9.760000 255 0 0
1.020000 11.670000 3.150000 0 255 0
0.235000 11.217500 18.870001 0 255 0
0.550700 11.781400 9.261800 255 0 0
0.542100 11.730600 6.061000 255 0 0
0.595000 11.600000 2.870000 255 0 0
1.038400 11.329500 15.363700 0 255 0
1.050000 11.535400 3.121500 0 255 0
0.120000 11.340000 22.340000 0 255 0
0.846300 11.130000 17.168699 0 255 0
1.086700 11.378300 15.263300 0 255 0
1.170000 12.040000 27.190001 255 0 0
1.255000 11.175000 1.710000 0 255 0
1.210000 11.720000 11.500000 0 255 0
1.192700 10.924700 18.821301 0 255 0
1.134300 11.567100 19.907101 0 255 0
0.940000 11.880000 2.693300 255 0 0
0.883300 12.060000 16.616699 255 0 0
0.880000 11.990000 10.280000 255 0 0
0.870000 11.890000 3.960000 255 0 0
2.050000 12.345000 18.709999 0 255 0
1.977500 12.065000 19.969999 0 255 0
0.457500 11.738300 3.962500 255 0 0
0.438000 11.784000 20.160000 0 255 0
0.796700 11.891100 2.270000 255 0 0
0.796700 12.066700 14.903300 255 0 0
1.550000 12.150000 18.030001 0 255 0
0.090000 11.980000 21.375000 0 255 0
0.085000 12.021700 18.113300 0 255 0
2.090000 12.060000 18.510000 0 255 0
0.395000 12.118800 2.095000 0 255 0
1.935600 12.126700 16.415600 0 255 0
1.942000 12.026000 9.920000 0 255 0
1.000000 11.850000 2.700000 0 255 0
0.098000 11.176000 19.112000 0 255 0
1.690000 12.374300 2.511400 0 255 255
1.690000 11.110000 19.760000 0 255 0
0.435600 11.428900 18.098900 0 255 0
1.845600 11.537800 2.627800 0 255 255
1.835000 11.245000 21.545000 0 255 0
0.620000 12.360000 22.020000 0 255 0
0.435700 12.180700 18.571400 0 255 0
0.426300 12.270000 12.071200 0 255 0
0.175000 10.860000 14.760000 0 255 0
1.643300 11.578300 9.800000 0 255 0
0.541100 12.582200 2.167800 0 255 255
0.487500 11.976300 9.057500 255 0 0
0.687900 11.636800 3.909800 255 0 0
1.950000 11.370000 27.420000 0 255 0
1.090000 11.630000 2.900000 0 255 0
1.000000 12.390000 2.340000 0 255 255
0.975000 12.080000 22.305000 255 0 0
0.970000 12.170000 15.830000 0 255 0
1.040900 11.675500 15.147300 0 255 0
1.055000 11.630000 11.995000 0 255 0
0.975000 11.785000 15.300000 255 0 0
0.980000 11.827500 13.517500 255 0 0
-0.212500 12.075000 2.055000 0 255 0
-0.020000 12.500000 2.190000 0 255 0
1.640000 12.510000 2.790000 0 255 255
-0.100000 11.915000 9.050000 0 255 0
1.560000 12.130000 13.170000 0 255 0
1.547500 12.275000 22.615000 0 255 0
1.543300 12.196700 16.316700 0 255 0
-0.210800 12.310800 8.957500 0 255 0
1.541300 12.028800 16.468800 0 255 0
1.490000 12.100000 25.910000 0 255 0
1.486700 11.920000 22.746700 0 255 0
0.785700 10.840000 15.314300 0 255 0
1.840000 11.830000 2.460000 0 255 255
0.586000 11.993800 3.609300 255 0 0
1.645000 11.385000 2.600000 0 255 0
1.132500 12.677500 14.457500 0 255 0
0.410000 11.960000 3.090000 255 0 0
0.387500 12.165000 16.152500 0 255 0
1.090000 11.890000 15.680000 255 0 0
1.794200 12.630800 16.116699 0 255 0
1.250000 12.730000 2.140000 0 255 255
0.441900 11.783100 14.418800 0 255 0
1.584300 11.080000 19.308599 0 255 0
1.045000 12.735000 14.457000 0 255 0
-0.158100 11.481900 12.663200 0 255 0
-0.160000 11.546200 12.571200 0 255 0
1.000000 12.150000 18.410000 0 255 0
0.240000 10.960000 18.049999 0 255 0
0.503300 11.690000 6.560000 255 0 0
0.481700 11.713300 3.418300 255 0 0
0.504400 11.828800 9.566900 255 0 0
0.490000 11.660000 2.660000 255 0 0
0.502100 11.831600 6.260500 255 0 0
0.500000 11.782500 9.405000 255 0 0
1.842400 11.481700 2.863400 0 255 255
1.835000 11.278300 15.525000 0 255 0
-0.002500 12.330000 18.415001 0 255 0
-0.020000 12.300000 21.665001 0 255 0
-0.014100 12.077600 9.001800 0 255 0
1.536700 11.643300 7.755000 0 255 0
0.860000 12.590000 28.879999 0 255 0
1.020000 11.980000 16.170000 255 0 0
1.040000 11.900000 22.459999 255 0 0
1.020000 12.070000 22.639999 255 0 0
1.060000 11.980000 28.820000 0 255 0
1.020000 11.890000 28.820000 0 255 0
1.040000 11.985000 22.510000 255 0 0
1.060000 11.930000 19.340000 255 0 0
1.060000 11.630000 2.950000 0 255 0
0.340000 12.210000 16.070000 0 255 0
0.280000 11.022300 2.055400 0 255 255
0.530000 11.473300 2.210000 0 255 0
0.540900 12.480000 16.060499 0 255 0
-0.407500 12.528800 2.216300 0 255 255
0.086200 12.033700 2.047500 0 255 0
-0.160000 12.175000 2.050000 0 255 0
0.460000 11.750000 4.740000 255 0 0
0.290000 12.470000 28.240000 0 255 0
0.700000 11.990000 8.680000 255 0 0
1.180000 11.320000 27.010000 0 255 0
1.690000 11.343300 17.700001 0 255 0
0.900000 11.950000 19.540001 255 0 0
0.893800 11.785400 16.460800 255 0 0
0.899100 11.829100 13.210900 255 0 0
0.875000 11.745000 6.895000 255 0 0
-0.050000 11.935000 16.014999 0 255 0
0.937500 11.830000 16.667500 255 0 0
0.920000 11.787500 13.410000 255 0 0
0.520000 12.590000 2.130000 0 255 255
0.750000 11.820000 12.360000 255 0 0
0.760000 11.710000 6.060000 255 0 0
0.732500 11.880000 15.610000 255 0 0
0.800000 11.950000 10.280000 255 0 0
0.790400 11.984600 7.206500 255 0 0
0.840000 11.500000 15.850000 0 255 0
0.830000 11.830000 25.270000 0 255 0
0.740000 11.950000 15.040000 255 0 0
0.770000 11.810000 25.320000 0 255 0
0.795000 11.573300 15.906700 0 255 0
1.126700 11.743300 24.366699 0 255 0
0.644000 11.670000 2.854000 255 0 0
0.640000 11.820000 3.280000 255 0 0
0.620000 11.890000 6.530000 255 0 0
0.637100 11.720000 9.557900 255 0 0
0.645700 11.784800 12.805200 255 0 0
0.643000 12.013600 5.710900 255 0 0
0.660000 11.960000 15.450000 255 0 0
0.630000 11.937500 12.205000 0 255 0
0.605000 10.870000 2.590000 0 255 255
0.560000 11.336700 16.276699 0 255 0
0.500000 11.792500 9.315000 255 0 0
0.474000 11.662000 2.770000 255 0 0
0.501200 11.829500 6.159800 255 0 0
0.596800 11.784600 11.565000 255 0 0
0.660000 11.300000 11.900000 0 255 0
0.650000 11.130000 15.280000 0 255 0
0.550000 11.920000 26.930000 0 255 0
0.530000 11.640000 7.580000 255 0 0
0.520000 11.600000 4.410000 255 0 0
0.555000 11.680000 10.695000 255 0 0
0.660000 10.780000 18.379999 0 255 0
1.091200 11.777700 7.658500 0 255 0
1.080000 11.620000 14.030000 0 255 0
1.200000 10.970000 1.630000 0 255 0
1.180000 12.060000 24.770000 255 0 0
1.195000 11.865000 11.710000 0 255 0
1.680000 11.330000 14.090000 0 255 0
1.350000 10.830000 19.350000 0 255 0
1.348300 10.773300 16.115000 0 255 0
0.690000 11.690000 13.950000 255 0 0
1.050000 11.490000 3.110000 0 255 0
1.038000 11.282800 15.362000 0 255 0
2.040000 12.095000 22.770000 0 255 0
0.747500 11.328700 15.407500 0 255 0
0.805000 11.030000 26.715000 0 255 0
0.810000 11.880000 15.140000 255 0 0
0.790000 11.950000 11.990000 255 0 0
0.795200 11.986100 8.658700 255 0 0
0.910000 12.000000 15.360000 255 0 0
0.880000 12.010000 12.200000 255 0 0
0.900000 11.910000 5.690000 255 0 0
0.878100 11.877500 8.861300 255 0 0
2.060000 12.260000 27.830000 0 255 0
1.251400 10.834300 16.964300 0 255 0
0.985000 11.980000 2.660000 0 255 0
0.980000 11.850000 12.310000 255 0 0
1.000000 11.780000 16.500000 255 0 0
2.050000 11.430000 27.650000 0 255 0
0.040000 12.390000 18.190001 0 255 0
1.686700 11.573300 1.813300 0 255 0
0.347100 11.934300 20.114300 0 255 0
0.130000 10.982500 14.400000 0 255 0
0.630000 10.812500 2.475000 0 255 255
-0.140000 12.360000 2.030000 0 255 0
0.343300 11.623300 14.303300 0 255 0
0.490000 12.120000 2.440000 0 255 0
0.855000 12.995000 2.390000 0 255 255
0.685000 10.580000 1.920000 0 255 255
1.243300 12.336700 13.450000 0 255 0
1.130000 11.980000 23.900000 255 0 0
1.150000 11.630000 25.709999 0 255 0
0.220000 12.170000 26.120001 0 255 0
1.737500 11.330000 2.322500 0 255 255
0.930000 12.540000 2.460000 0 255 255
0.642900 12.072900 17.505699 0 255 0
0.646700 12.020000 14.363300 255 0 0
-0.408200 12.485500 2.210900 0 255 255
0.292500 12.385000 28.157499 0 255 0
1.593300 11.773300 16.556700 0 255 0
0.870000 12.450000 25.110001 0 255 0
1.430000 12.520000 2.020000 0 255 255
0.320000 10.920000 2.200000 0 255 255
0.260000 11.870000 20.209999 0 255 0
0.223300 11.830000 16.943300 0 255 0
2.081100 12.034400 17.057800 0 255 0
1.060000 10.950000 23.379999 0 255 0
0.984000 11.028000 17.066000 0 255 0
0.020000 11.980000 16.219999 0 255 0
2.029000 11.926000 16.306000 0 255 0
1.740000 12.027500 22.697500 0 255 0
1.743400 11.826600 10.070600 0 255 0
1.736700 11.922500 16.415800 0 255 0
1.060000 11.890000 22.379999 255 0 0
1.036000 11.836000 19.112000 255 0 0
1.036000 11.980000 15.858000 255 0 0
1.735900 12.374100 16.360001 0 255 0
1.042600 12.330000 2.545900 0 255 0
0.460000 11.710000 4.960000 255 0 0
0.436200 11.882400 14.453300 0 255 0
1.160000 12.110000 18.139999 0 255 0
1.092800 12.533900 14.403900 0 255 0
1.144400 12.623300 14.318900 0 255 0
0.375000 12.425000 26.209999 0 255 0
-0.060000 11.481200 12.664600 0 255 0
1.740000 11.370000 2.510000 0 255 255
1.744500 11.535900 11.804500 0 255 0
-0.062000 12.280000 21.653999 0 255 0
-0.070000 12.400000 2.530000 0 255 0
1.197500 11.735000 1.900000 0 255 0
1.189500 11.575000 11.660700 0 255 0
0.731000 11.647000 7.002000 255 0 0
0.737800 11.689400 10.263600 255 0 0
1.297400 11.642600 9.715800 0 255 0
-0.053100 12.331900 2.061900 0 255 0
0.790000 12.010000 13.630000 255 0 0
0.786700 11.777500 3.309600 255 0 0
0.796200 11.724800 6.462400 255 0 0
0.789000 11.686900 9.611000 255 0 0
1.891500 12.184100 9.666200 0 255 0
0.830000 11.495000 2.395000 0 255 0
0.860000 11.680000 15.450000 0 255 0
0.845000 11.825000 12.305000 255 0 0
0.842100 11.780000 9.160000 255 0 0
-0.156500 12.279000 8.815600 0 255 0
-0.502200 12.162200 2.466700 0 255 255
0.560000 12.380000 27.790001 0 255 0
0.525000 11.390000 16.360001 0 255 0
0.800000 12.042000 16.704000 255 0 0
0.788700 11.828900 3.258400 255 0 0
0.802000 11.776000 6.418000 255 0 0
0.791300 11.720600 9.761900 255 0 0
0.575000 11.525000 16.270000 0 255 0
0.594400 11.689600 6.709300 255 0 0
0.980000 12.060000 29.030001 0 255 0
0.400000 11.473300 22.113300 0 255 0
0.396800 11.779500 3.111400 0 255 0
0.340000 11.820000 20.330000 0 255 0
0.686800 10.784200 2.513200 0 255 255
0.640000 10.976700 18.150000 0 255 0
0.635000 11.082100 11.852100 0 255 0
0.400000 11.080000 2.150000 0 255 0
1.245000 12.185000 25.875000 255 0 0
0.448600 10.570000 1.960000 0 255 255
0.385700 11.620000 16.200001 0 255 0
1.260000 10.950000 2.000000 0 255 0
0.730000 11.470000 11.770000 0 255 0
0.750000 11.230000 21.250000 0 255 0
0.038300 12.625000 2.261700 0 255 255
0.737700 12.439500 2.111800 0 255 255
0.550000 11.280000 20.850000 0 255 0
0.550000 11.928600 11.062900 255 0 0
0.520000 11.810000 4.580000 255 0 0
0.528200 11.883600 7.810000 255 0 0
0.480000 12.533300 28.100000 0 255 0
0.390000 12.475000 16.020000 0 255 0
1.920000 12.210000 16.400000 0 255 0
0.760000 11.980000 10.870000 255 0 0
0.742500 12.027500 13.907500 255 0 0
0.638300 10.783300 16.915001 0 255 0
0.537600 12.012000 2.910800 0 255 0
0.531500 12.282500 18.603001 0 255 0
0.990000 11.040000 19.475000 0 255 0
0.590000 10.950000 16.790001 0 255 0
0.740000 11.680000 13.155000 255 0 0
0.780000 11.735000 28.770000 0 255 0
0.810000 11.650000 9.200000 255 0 0
0.810000 11.520000 15.690000 0 255 0
1.940000 11.620000 10.150000 0 255 0
0.838700 11.627500 15.872500 255 0 0
0.830000 11.840000 28.500000 0 255 0
1.436700 10.878300 15.565000 0 255 0
1.141700 12.671700 22.811701 0 255 0
1.735000 12.177900 16.502899 0 255 0
0.891700 11.128300 18.058300 0 255 0
1.530000 12.040000 21.920000 0 255 0
1.536700 12.063300 25.046700 0 255 0
0.886400 10.835500 15.408200 0 255 0
0.737500 11.767500 12.660000 255 0 0
0.736300 11.823800 15.808700 255 0 0
0.754300 11.717100 9.507900 255 0 0
1.040000 11.840000 19.580000 255 0 0
1.040000 11.975000 16.225000 255 0 0
1.186300 11.033700 15.406300 0 255 0
1.060000 11.600000 15.750000 0 255 0
0.583300 12.463300 18.549999 0 255 0
0.600000 12.350000 28.004999 0 255 0
0.594500 11.991800 2.806600 255 0 0
0.586700 12.070000 17.553301 0 255 0
1.295000 10.825000 16.912500 0 255 0
1.170000 10.870000 23.480000 0 255 0
0.840000 11.200000 17.010000 0 255 0
0.942000 10.826000 19.162001 0 255 0
0.585000 11.265000 2.310000 0 255 0
0.600000 11.890000 14.950000 255 0 0
0.745000 11.779000 2.606000 255 0 0
0.731000 11.526000 12.002000 0 255 0
0.695500 10.729100 2.566400 0 255 255
0.877300 11.324500 2.503600 0 255 0
1.450000 12.745000 16.025000 0 255 0
1.060000 11.730000 12.380000 0 255 0
1.197500 12.117500 21.297501 0 255 0
1.190000 11.880000 11.930000 0 255 0
1.240000 11.823300 21.276699 0 255 0
1.248800 11.867500 11.603700 0 255 0
1.185700 12.432900 2.055700 0 255 255
1.045000 11.238300 15.315000 0 255 0
1.210000 12.150000 18.240000 0 255 0
1.192900 11.831400 11.712900 0 255 0
1.080000 11.920000 11.860000 0 255 0
1.096000 11.880000 2.292000 0 255 0
1.080000 11.675000 13.755000 0 255 0
1.245000 11.190000 1.747500 0 255 0
1.180000 10.990000 2.190000 0 255 0
1.190000 11.172200 15.256700 0 255 0
1.400000 10.980000 1.715000 0 255 0
1.160000 10.870000 2.520000 0 255 255
0.299100 10.682700 1.911800 0 255 255
0.043700 12.127500 18.157499 0 255 0
1.330000 12.635000 2.075000 0 255 255
0.940000 12.010000 13.010000 255 0 0
0.650000 11.720000 4.250000 255 0 0
0.660000 11.640000 10.420000 255 0 0
1.470000 12.145000 15.875000 0 255 0
1.481700 12.335000 2.808300 0 255 255
0.860000 11.886700 11.426700 255 0 0
0.830000 12.060000 24.459999 0 255 0
0.840000 12.010000 8.060000 255 0 0
0.840000 12.120000 27.620001 0 255 0
2.100000 12.160000 28.450001 0 255 0
0.975000 12.440000 2.070000 0 255 255
0.933300 11.670000 2.923300 0 255 0
0.936000 11.828000 12.456000 255 0 0
0.930000 11.775000 9.220000 255 0 0
0.951300 11.887500 15.556300 255 0 0
0.936700 11.973300 21.866699 255 0 0
1.890000 11.690000 2.745000 0 255 255
0.940000 11.940000 10.860000 255 0 0
0.937800 11.976700 14.207800 255 0 0
0.530900 10.930900 2.166400 0 255 255
0.320000 12.630000 22.690001 0 255 0
0.320000 11.530000 2.330000 0 255 0
0.344100 11.382900 18.107100 0 255 0
0.825900 11.778100 3.607000 255 0 0
0.852500 11.832100 6.855800 255 0 0
0.830000 11.696000 10.124000 255 0 0
0.832500 11.741900 13.366200 255 0 0
0.283300 11.676700 16.196699 0 255 0
1.740000 13.010000 25.180000 0 255 0
0.733100 12.015200 6.361000 255 0 0
0.725000 11.965000 3.215000 255 0 0
0.770000 12.120000 18.360001 0 255 0
0.810000 11.980000 2.180000 0 255 0
0.795000 12.420000 25.112499 0 255 0
0.793600 11.935700 5.309500 255 0 0
0.142500 11.035000 14.710000 0 255 0
2.060000 11.790000 26.879999 0 255 0
2.060000 11.950000 23.690001 0 255 0
0.042500 11.647500 12.115000 0 255 0
1.846700 11.730000 2.806700 0 255 255
1.420000 10.940000 20.450001 0 255 0
0.197000 12.130000 2.060000 0 255 0
0.594800 13.030400 2.262600 0 255 255
1.946700 11.876700 17.010000 0 255 0
1.950000 11.950000 20.250000 0 255 0
1.492500 10.875000 16.857500 0 255 0
0.891500 10.832500 15.460500 0 255 0
0.535000 11.067000 11.617000 0 255 0
0.347500 12.042500 20.105000 0 255 0
1.952500 12.027500 20.052500 0 255 0
0.436700 11.086700 17.950001 0 255 0
-0.061700 12.827100 2.208300 0 255 255
1.130000 13.082500 28.270000 0 255 0
0.535000 10.888700 16.811300 0 255 0
0.887800 12.677800 22.812201 0 255 0
-0.572500 11.835000 2.540000 0 255 255
1.288800 12.175000 18.150000 0 255 0
1.192200 12.775000 14.417800 0 255 0
1.610000 11.710000 2.820000 0 255 0
1.686900 11.277500 18.703100 0 255 0
1.701700 11.323300 15.458300 0 255 0
1.195000 11.476700 2.760000 0 255 0
1.850000 11.470000 16.670000 0 255 0
2.090000 12.110000 20.040001 0 255 0
2.087500 11.980000 17.025000 0 255 0
0.742700 11.731400 12.611600 255 0 0
0.744100 11.783200 15.760900 255 0 0
0.850000 11.830900 8.354500 255 0 0
0.844900 11.777600 5.110000 255 0 0
0.843300 11.686700 11.416700 255 0 0
0.836400 11.743600 14.664500 255 0 0
1.270000 11.880000 22.700001 0 255 0
1.780000 11.475000 16.507500 0 255 0
1.760000 12.130000 22.490000 0 255 0
1.732500 12.030000 16.549999 0 255 0
1.730000 12.240000 28.790001 0 255 0
0.940000 11.850000 20.139999 255 0 0
0.932500 11.787500 16.902500 255 0 0
0.935600 11.726700 13.656700 255 0 0
-0.160300 11.335500 12.565800 0 255 0
-0.154500 11.534500 12.616200 0 255 0
1.660000 12.100000 16.639999 0 255 0
1.640000 12.150000 19.920000 0 255 0
1.632900 12.235000 13.410000 0 255 0
0.336700 11.286700 2.360000 0 255 0
0.988300 11.131700 18.205000 0 255 0
0.980000 11.372500 2.420000 0 255 0
0.543500 11.614100 2.510000 255 0 0
0.548900 11.689400 5.764900 255 0 0
0.552700 11.737300 9.008900 255 0 0
0.538300 11.785300 11.912600 0 255 0
1.305000 12.740000 2.495000 0 255 255
0.760000 12.125000 14.355000 255 0 0
0.740000 11.590000 4.180000 255 0 0
0.740000 11.645000 7.215000 255 0 0
0.736900 11.691400 10.460000 255 0 0
0.950000 11.690000 5.860000 255 0 0
0.960000 11.950000 22.070000 255 0 0
0.920000 11.790000 12.360000 255 0 0
0.936700 11.824700 15.510000 255 0 0
0.939400 11.732600 9.017400 255 0 0
1.990000 12.180000 15.910000 0 255 0
-0.057500 12.225800 8.755200 0 255 0
0.596200 11.686200 7.759000 255 0 0
1.594000 11.976000 2.796000 0 255 0
1.090000 11.980000 28.840000 0 255 0
1.550000 12.210000 16.059999 0 255 0
1.520000 12.300000 19.209999 0 255 0
1.530000 12.280000 19.250000 0 255 0
1.520000 12.230000 16.010000 0 255 0
0.370000 11.050000 18.090000 0 255 0
0.399000 11.131000 11.807500 0 255 0
1.600000 12.710000 16.209999 0 255 0
0.540000 11.690000 2.620000 255 0 0
0.531600 11.725000 5.760000 255 0 0
0.539100 11.830900 11.905700 255 0 0
0.541100 11.779200 8.758700 255 0 0
0.236700 12.160000 19.263300 0 255 0
0.910000 11.290000 2.230000 0 255 0
0.910000 11.640000 18.410000 0 255 0
0.270000 11.070000 2.163300 0 255 0
0.035000 12.930000 2.170000 0 255 255
1.247500 12.877500 2.412500 0 255 255
0.446700 11.726700 14.370000 0 255 0
0.486200 10.732700 2.063100 0 255 255
0.356000 10.596000 1.900000 0 255 255
1.470000 11.440000 19.379999 0 255 0
0.840000 11.967500 1.992500 0 255 0
0.850000 11.937100 11.458600 255 0 0
0.849500 11.879100 8.310000 255 0 0
0.860000 11.970000 26.639999 0 255 0
0.820000 11.636700 4.613300 0 255 0
0.845700 11.777900 14.001400 255 0 0
0.845000 11.819000 17.259001 255 0 0
0.086700 12.180000 15.890000 0 255 0
1.560000 11.260000 15.930000 0 255 0
1.140000 10.875000 23.325001 0 255 0
1.076700 11.123300 17.153299 0 255 0
0.087500 11.470000 19.105000 0 255 0
0.070000 11.360000 12.570000 0 255 0
0.390000 12.635000 28.100000 0 255 0
1.250000 10.950000 1.710000 0 255 0
1.735000 11.495000 14.415000 0 255 0
0.440000 11.775000 19.912500 0 255 0
0.455600 11.748900 4.217800 255 0 0
0.440000 11.920000 16.858801 0 255 0
0.860000 12.020000 20.760000 255 0 0
0.832200 11.783500 4.159000 255 0 0
0.847600 11.824800 7.307600 0 255 0
0.839400 11.735300 13.616500 255 0 0
0.831300 11.691200 10.466300 255 0 0
1.050000 11.180000 19.590000 0 255 0
1.040000 11.275000 19.559999 0 255 0
0.130000 12.230000 19.280001 0 255 0
1.570000 11.260000 20.090000 0 255 0
1.595000 11.325000 16.855000 0 255 0
0.586800 10.979500 15.409500 0 255 0
0.720000 11.650000 28.770000 0 255 0
0.737000 11.764000 12.359000 255 0 0
0.737900 11.824300 15.703600 255 0 0
0.745200 11.719000 9.208300 255 0 0
0.900000 10.680000 15.512500 0 255 0
0.800000 11.630000 15.890000 255 0 0
0.900000 10.737500 15.558700 0 255 0
1.043300 11.617800 3.045600 0 255 0
0.885700 11.125700 18.171400 0 255 0
0.800000 11.300000 16.240000 0 255 0
1.096000 11.578000 15.806000 0 255 0
0.985000 11.030000 19.260000 0 255 0
0.044400 11.135600 1.812200 0 255 0
1.038600 11.481400 15.461400 0 255 0
1.055000 11.685000 2.820000 0 255 0
0.898000 10.840000 19.202000 0 255 0
0.770000 11.390000 15.710000 0 255 0
1.530000 11.690000 28.740000 0 255 0
1.470000 10.910000 15.320000 0 255 0
1.510000 11.550000 28.770000 0 255 0
1.647500 12.085000 2.667500 0 255 0
1.642900 12.085300 2.707100 0 255 0
1.570000 11.190000 2.490000 0 255 255
0.830000 11.375000 2.500000 0 255 0
0.910000 11.630000 11.780000 0 255 0
0.895000 11.365000 2.340000 0 255 0
1.377800 11.726700 11.472200 0 255 0
0.695000 12.065000 11.895000 255 0 0
0.710000 12.030000 15.180000 255 0 0
0.680000 12.240000 2.090000 0 255 0
0.688800 11.997000 5.607300 255 0 0
0.995000 12.077500 2.060000 0 255 0
0.970000 11.910000 11.870000 255 0 0
0.976000 11.874000 15.118000 255 0 0
0.992000 11.824000 18.360001 255 0 0
1.000000 11.785000 20.075001 255 0 0
1.180000 12.080000 24.120001 255 0 0
0.993300 11.136000 17.211300 0 255 0
1.030000 11.820000 18.230000 255 0 0
1.047500 11.875000 21.465000 255 0 0
1.038100 11.932700 11.907300 0 255 0
1.110000 11.210000 21.360001 0 255 0
1.095900 11.578200 11.653500 0 255 0
1.030000 11.326700 2.116700 0 255 0
1.230000 11.000000 2.240000 0 255 0
1.227500 11.172500 15.313800 0 255 0
1.370000 12.090000 22.570000 0 255 0
0.285000 11.190000 1.811300 0 255 0
0.282900 10.935300 18.004101 0 255 0
0.560000 11.970000 10.340000 255 0 0
0.553300 12.030000 13.603300 0 255 0
0.550000 12.115000 20.110001 0 255 0
0.756700 11.893300 3.603300 255 0 0
0.500000 11.700000 10.450000 0 255 0
0.485000 11.935000 19.980000 0 255 0
0.496700 11.720000 7.313300 255 0 0
0.243300 11.184200 12.370800 0 255 0
0.652000 12.012000 11.704000 255 0 0
0.710000 10.830000 17.049999 0 255 0
0.542700 10.789500 2.547300 0 255 255
0.270000 12.360000 26.270000 0 255 0
0.810000 11.925000 10.305000 255 0 0
0.789300 11.986000 7.162700 255 0 0
0.660000 11.720000 4.180000 255 0 0
0.620000 11.650000 10.500000 255 0 0
0.890000 11.940000 3.010000 0 255 0
0.885000 11.973300 12.463300 255 0 0
0.870000 12.100000 19.209999 255 0 0
0.875000 11.871200 6.162500 255 0 0
0.790000 12.040000 14.805000 255 0 0
0.780000 12.250000 27.440001 0 255 0
0.800000 11.785000 5.320000 255 0 0
0.792500 11.982500 17.962500 255 0 0
0.802500 11.695000 11.607500 255 0 0
0.794400 11.729400 8.462500 255 0 0
0.710000 11.026700 16.856701 0 255 0
1.310000 11.930000 22.510000 0 255 0
1.290000 12.050000 29.059999 0 255 0
1.295000 12.473000 13.412000 0 255 0
0.870000 11.670000 4.690000 255 0 0
0.886700 11.783300 11.011400 255 0 0
0.876700 11.830000 7.862200 255 0 0
1.630000 11.170000 1.880000 0 255 255
1.637300 11.368200 15.307300 0 255 0
1.652500 12.125000 22.625000 0 255 0
0.942900 13.012900 2.362900 0 255 255
1.320000 12.250000 28.290001 0 255 0
0.210000 12.050000 19.219999 0 255 0
-0.063300 12.231700 21.663300 0 255 0
-0.056700 12.186700 18.318300 0 255 0
0.540000 10.910000 2.480000 0 255 255
2.110000 11.510000 20.709999 0 255 0
1.042400 12.840600 2.256500 0 255 255
2.005000 12.210000 23.930000 0 255 0
0.600000 12.740000 25.299999 0 255 0
0.545200 11.976400 7.158900 255 0 0
1.540000 10.887500 16.764999 0 255 0
1.640000 12.330000 27.165001 0 255 0
0.746200 12.632300 2.115400 0 255 255
1.105000 11.745000 2.855000 0 255 0
1.090000 11.550000 15.910000 0 255 0
0.475000 11.530000 16.215000 0 255 0
0.500000 12.400000 26.219999 0 255 0
-0.066100 11.483900 12.614800 0 255 0
-0.212100 11.134200 12.555800 0 255 0
1.550000 12.390000 2.410000 0 255 255
0.245000 12.335000 28.180000 0 255 0
0.295000 12.220000 28.160000 0 255 0
1.950000 11.330000 27.375000 0 255 0
0.945000 12.280000 22.740000 0 255 0
0.930000 12.190000 15.830000 0 255 0
0.950000 12.060000 16.170000 255 0 0
0.940000 12.080000 25.500000 0 255 0
0.955000 12.010000 22.200001 255 0 0
0.940000 11.750000 2.680000 0 255 0
0.931700 11.878300 12.460000 255 0 0
0.930000 11.850000 9.170000 255 0 0
0.954300 11.932900 15.707100 255 0 0
1.487500 11.232500 2.395000 0 255 0
0.342500 12.077500 20.057501 0 255 0
0.040000 10.930000 12.545000 0 255 0
0.036000 11.238000 18.900000 0 255 0
0.755000 11.790000 17.059999 255 0 0
0.746400 11.742700 13.909100 255 0 0
0.753300 11.830000 20.200001 0 255 0
0.232900 12.071400 18.312901 0 255 0
1.590000 11.470000 18.680000 0 255 0
1.570000 11.320000 2.780000 0 255 0
0.495600 10.981100 15.458300 0 255 0
-0.007100 10.818600 1.697100 0 255 255
-0.012300 11.026200 14.760000 0 255 0
0.440000 12.525000 16.100000 0 255 0
0.442500 11.535000 2.267500 0 255 0
0.286700 11.620000 16.253300 0 255 0
0.986700 12.023300 18.056700 255 0 0
0.478200 10.866400 2.422700 0 255 255
0.486800 11.129200 11.805000 0 255 0
0.400000 11.985000 19.200001 0 255 0
1.886700 11.986700 18.059999 0 255 0
0.849000 11.781000 7.060700 255 0 0
0.847500 11.742500 16.702499 255 0 0
0.840000 11.696700 13.556700 255 0 0
0.851800 11.830600 10.206500 255 0 0
0.945000 11.875000 15.205000 255 0 0
0.932500 11.837500 12.811200 255 0 0
0.936200 11.779400 9.654900 255 0 0
1.238100 11.735700 7.662000 0 255 0
0.240000 11.641700 16.203300 0 255 0
1.150000 12.070000 3.170000 0 255 0
1.120000 11.920000 19.549999 255 0 0
0.494400 10.973300 2.161100 0 255 255
0.582300 11.877700 11.858600 255 0 0
1.200000 11.980000 3.030000 0 255 0
1.590000 11.680000 2.960000 0 255 0
1.181400 11.080000 19.311399 0 255 0
1.200000 11.720000 2.595000 0 255 0
1.330000 11.740000 22.020000 0 255 0
1.348300 11.420000 2.468300 0 255 0
1.385000 10.970000 1.865000 0 255 0
1.380000 11.650000 11.940000 0 255 0
0.596700 11.310000 15.320000 0 255 0
1.850000 11.600000 1.840000 0 255 255
0.940000 12.040000 22.440001 255 0 0
0.943300 11.933300 16.156700 255 0 0
0.934400 11.725600 2.321100 0 255 0
0.930000 11.883300 13.008900 255 0 0
1.675000 12.175000 20.065001 0 255 0
1.230000 12.970000 14.373300 0 255 0
0.695000 11.990000 28.754999 0 255 0
0.710000 12.160000 15.710000 0 255 0
0.692000 11.594000 4.258000 255 0 0
0.687100 11.692300 10.760600 255 0 0
0.500000 11.960000 26.799999 0 255 0
0.632500 10.820000 16.907499 0 255 0
0.910000 11.928000 13.300000 255 0 0
0.880000 12.035000 19.809999 255 0 0
0.877300 11.792700 9.910900 255 0 0
0.877500 11.823100 6.763800 255 0 0
1.006700 12.313300 17.370001 0 255 0
1.230000 11.870000 16.730000 0 255 0
1.241400 11.927100 19.854300 0 255 0
0.890000 10.965000 19.020000 0 255 0
0.846000 11.184000 16.554001 0 255 0
1.030000 11.840000 19.520000 255 0 0
1.020000 11.900000 22.770000 255 0 0
1.040000 11.240000 15.500000 0 255 0
1.050000 11.490000 3.160000 0 255 0
1.041100 11.277400 15.408900 0 255 0
1.010000 11.090000 25.219999 0 255 0
0.985000 11.231400 15.410900 0 255 0
1.029300 11.527900 3.017100 0 255 0
1.090000 11.060000 18.900000 0 255 0
1.090000 11.329200 15.406700 0 255 0
1.156700 11.333300 15.510000 0 255 0
0.990700 11.539000 3.161300 0 255 0
0.987600 11.330000 15.405200 0 255 0
1.126000 11.535000 2.925000 0 255 0
1.080000 11.746700 9.626700 0 255 0
1.070000 11.610000 3.110000 0 255 0
0.945000 11.225000 26.020000 0 255 0
0.950000 11.130000 19.514999 0 255 0
0.980000 10.940000 19.530001 0 255 0
1.160000 11.490000 3.050000 0 255 0
0.850000 11.190000 16.290001 0 255 0
1.430000 11.590000 3.130000 0 255 0
1.100000 11.600000 19.160000 0 255 0
1.100000 11.633300 2.953300 0 255 0
1.142500 11.222500 15.457500 0 255 0
1.130000 11.750000 2.960000 0 255 0
0.830000 11.100000 26.360001 0 255 0
0.882000 10.790000 2.726000 0 255 255
1.492500 10.929200 15.456700 0 255 0
1.646300 12.186300 2.860000 0 255 0
1.540000 11.070000 15.360000 0 255 0
0.845400 11.136900 17.211500 0 255 0
1.082000 10.634000 2.554000 0 255 255
0.880000 11.334000 2.469000 0 255 0
0.950000 11.570000 21.389999 0 255 0
0.830000 11.366700 2.453300 0 255 0
0.940000 11.490000 21.260000 0 255 0
1.006700 10.893300 2.266700 0 255 0
0.940000 11.377500 15.302500 0 255 0
0.987300 10.680000 15.300000 0 255 0
1.192500 10.882500 2.397500 0 255 0
0.860000 11.280000 2.340000 0 255 0
0.832000 11.626000 11.858000 255 0 0
0.884500 11.368200 2.323600 0 255 0
1.150000 11.780000 16.000000 0 255 0
0.572000 11.948000 5.058000 0 255 0
0.740000 11.990000 8.245000 255 0 0
0.751400 11.945700 5.012900 255 0 0
0.733800 12.031300 11.313800 255 0 0
0.670000 12.060000 8.480000 255 0 0
0.690000 11.992000 1.976000 255 0 0
0.684300 12.030000 11.624300 255 0 0
1.028300 11.875000 18.311701 255 0 0
1.260000 12.130000 27.280001 255 0 0
1.183300 11.083300 1.706700 0 255 0
1.200000 12.110000 24.160000 255 0 0
1.170000 12.465000 2.020000 0 255 255
1.040000 11.830000 11.970000 0 255 0
1.020000 11.900000 15.120000 255 0 0
0.990000 11.820000 11.650000 255 0 0
0.970000 11.990000 2.115000 0 255 0
0.970000 11.800000 13.950000 255 0 0
0.593200 11.780500 11.014100 0 255 0
0.232900 11.381400 1.855700 0 255 0
0.195000 11.838700 2.111300 0 255 0
1.043300 11.536700 2.410000 0 255 0
0.460000 11.920000 8.400000 255 0 0
0.945000 11.435000 1.915000 0 255 0
1.000000 10.630000 1.900000 0 255 255
0.660000 11.840000 14.860000 255 0 0
0.990000 12.060000 29.080000 0 255 0
0.960000 11.885000 20.760000 255 0 0
0.945000 11.835000 16.853300 255 0 0
0.940500 11.773400 13.607100 255 0 0
