-16.202900 6.987100 2.915700 0 255 255
-15.900000 5.790000 6.310000 255 0 0
-15.905800 5.838300 3.064200 0 255 0
-15.953200 5.833200 9.714100 255 0 0
-15.959500 5.685000 12.972500 0 255 0
-15.830000 7.220000 3.270000 0 255 255
-16.352501 6.575000 22.707500 0 255 0
-15.559200 5.326200 2.608300 0 255 255
-16.450001 5.160000 13.150000 0 255 0
-16.879999 6.360000 4.320000 0 255 255
-16.956800 5.680000 14.660000 0 255 0
-15.408700 5.283900 2.604800 0 255 255
-16.629999 5.700000 4.440000 0 255 255
-16.379999 6.930000 3.065000 0 255 255
-16.264999 4.982000 17.603001 0 255 0
-16.209999 5.125000 17.510000 0 255 0
-16.650000 5.370000 16.530001 0 255 0
-16.389999 6.680000 19.290001 0 255 0
-15.012100 5.636200 7.955400 0 255 0
-17.000000 5.640000 14.900000 0 255 0
-16.113300 5.746700 3.400000 0 255 255
-15.406500 5.525900 3.102100 0 255 255
-15.370000 6.565000 15.895000 0 255 0
-15.610000 7.085000 3.190000 0 255 255
-15.773300 5.783300 7.866700 255 0 0
-15.763600 5.690900 14.360000 255 0 0
-15.850000 5.120000 2.790000 0 255 255
-15.850000 5.480000 24.950001 0 255 0
-16.515800 6.130800 3.956700 0 255 255
-16.815599 5.478900 3.971100 0 255 255
-15.630000 4.690000 13.130000 0 255 0
-16.040001 5.660000 21.030001 255 0 0
-15.530000 5.426700 20.553301 0 255 0
-15.824100 5.689400 3.055300 0 255 0
-15.070000 6.327000 18.264000 0 255 0
-16.100000 5.910000 22.440001 0 255 0
-16.660000 6.383000 4.363000 0 255 255
-15.854700 5.730000 3.023700 0 255 0
-15.875000 5.935000 16.049999 255 0 0
-15.863300 5.793300 6.056700 255 0 0
-15.865000 5.817500 9.305000 255 0 0
-15.310000 6.945000 2.660000 0 255 255
-15.600000 6.340000 19.840000 0 255 0
-16.975000 6.280000 4.510000 0 255 255
-16.864000 5.525000 5.774000 0 255 255
-16.100000 6.390000 3.120000 0 255 0
-16.120001 6.490000 11.960000 0 255 0
-15.855700 6.117100 8.557100 255 0 0
-15.920000 5.700000 20.879999 255 0 0
-15.906700 5.713300 17.700001 255 0 0
-15.710000 6.590000 3.440000 0 255 0
-14.912200 5.727600 2.812200 0 255 255
-16.110001 5.570000 17.270000 0 255 0
-16.110001 6.090000 3.950000 0 255 0
-15.405000 5.540000 15.970000 0 255 0
-15.580000 5.550000 22.650000 0 255 0
-16.410000 5.042200 17.606701 0 255 0
-16.367500 6.471300 3.552500 0 255 255
-15.670000 6.720000 12.610000 0 255 0
-16.665001 5.535000 3.215000 0 255 255
-16.662100 5.578300 3.911700 0 255 255
-15.315000 5.975000 2.210000 0 255 0
-16.620001 6.100000 4.420000 0 255 255
-16.711700 5.925000 17.820000 0 255 0
-16.430000 6.640000 12.140000 0 255 0
-16.430000 6.560000 12.180000 0 255 0
-15.490000 6.760000 3.320000 0 255 255
-15.513100 6.843100 3.893800 0 255 255
-16.980000 5.590000 3.150000 0 255 255
-16.975000 6.160000 4.595000 0 255 255
-15.955000 5.230000 2.515000 0 255 255
-15.956700 5.636700 16.953300 255 0 0
-15.640000 6.850000 12.640000 0 255 0
-15.653800 7.090000 3.145000 0 255 255
-15.671200 5.842500 4.000000 0 255 0
-15.670000 5.932900 10.512900 255 0 0
-15.671400 5.884300 7.151400 255 0 0
-15.852900 6.162900 5.470000 255 0 0
-16.639999 5.060000 3.280000 0 255 255
-16.662500 5.720000 3.412500 0 255 255
-16.712000 5.538000 3.658000 0 255 255
-16.719999 5.720000 16.320000 0 255 0
-16.608601 6.175000 3.658600 0 255 255
-16.615000 6.165000 23.045000 0 255 0
-16.706699 5.530000 23.059999 0 255 0
-16.620001 6.463300 4.410000 0 255 255
-16.709999 5.530000 23.219999 0 255 0
-16.040001 6.490000 2.600000 0 255 0
-16.610001 5.710000 22.799999 0 255 0
-16.690001 5.330000 3.475000 0 255 255
-15.640000 6.690000 12.360000 0 255 0
-16.580000 5.995000 3.850000 0 255 255
-16.708799 6.533700 12.208800 0 255 0
-16.725000 6.490000 19.495001 0 255 0
-16.719999 6.520000 16.379999 0 255 0
-16.690001 6.340000 3.290000 0 255 255
-16.166700 5.730000 18.843300 0 255 0
-16.580000 6.260000 2.670000 0 255 255
-16.840000 5.480000 14.890000 0 255 0
-16.473801 6.786200 3.455000 0 255 255
-16.714001 5.633300 4.159300 0 255 255
-16.606001 6.084000 4.164000 0 255 255
-16.405001 6.290000 3.220000 0 255 255
-16.389999 6.380000 22.799999 0 255 0
-16.403999 6.272000 3.276000 0 255 255
-16.742500 5.377500 16.366301 0 255 0
-16.206699 6.733300 19.461700 0 255 0
-15.510000 6.120000 19.120001 0 255 0
-15.518600 5.992900 15.961400 0 255 0
-16.010000 5.480000 25.120001 0 255 0
-16.001101 5.423300 2.411100 0 255 255
-16.419001 5.342000 4.101000 0 255 255
-16.417999 4.730000 16.775999 0 255 0
-16.270000 5.910000 23.090000 0 255 0
-16.840000 5.450000 2.980000 0 255 255
-16.469999 6.090000 25.799999 0 255 0
-15.563300 6.046700 20.551701 0 255 0
-15.457000 4.929000 13.158000 0 255 0
-15.460000 4.940000 13.420000 0 255 0
-15.245000 6.890000 3.830000 0 255 255
-17.020000 5.580000 16.580000 0 255 0
-16.299999 6.080000 19.430000 0 255 0
-16.320000 5.930000 3.600000 0 255 255
-16.762501 6.040000 2.980000 0 255 255
-16.540001 5.890000 4.590000 0 255 255
-16.150000 6.880000 19.205000 0 255 0
-16.309999 5.930000 24.209999 0 255 0
-15.511000 5.084000 13.260000 0 255 0
-15.870000 4.930000 17.510000 0 255 0
-15.490000 6.090000 22.500000 0 255 0
-16.809999 6.780000 3.655000 0 255 255
-15.719000 6.129600 2.561300 0 255 0
-15.717300 5.886900 5.259900 255 0 0
-15.712200 5.972800 11.556100 255 0 0
-15.718900 5.838900 8.513300 255 0 0
-16.617300 5.570000 3.523600 0 255 255
-16.600000 5.390000 16.150000 0 255 0
-16.600000 6.245000 4.375000 0 255 255
-16.705000 5.585000 16.615000 0 255 0
-15.508800 5.331200 13.350600 0 255 0
-17.010000 6.377500 3.605000 0 255 255
-16.680000 5.420000 16.570000 0 255 0
-15.010500 5.674000 7.916000 0 255 0
-15.380000 5.410000 2.630000 0 255 255
-16.113899 5.793000 3.459700 0 255 255
-16.973301 5.576700 14.803300 0 255 0
-16.250000 6.420000 2.710000 0 255 255
-15.510000 5.620000 15.930000 0 255 0
-15.520000 5.600000 19.049999 0 255 0
-16.540001 6.450000 2.910000 0 255 255
-15.861600 5.085300 2.946800 0 255 255
-15.907200 5.825500 3.459300 255 0 0
-15.925000 6.145000 22.475000 0 255 0
-15.905000 5.775000 6.720000 255 0 0
-15.890000 5.800000 7.470000 255 0 0
-15.895600 5.844400 4.311100 255 0 0
-16.860001 5.971700 14.605000 0 255 0
-16.440001 5.550000 17.760000 0 255 0
-16.861000 5.717000 3.165000 0 255 255
-16.858000 5.582000 19.066000 0 255 0
-16.440001 6.380000 2.520000 0 255 255
-15.180000 6.370000 4.380000 0 255 255
-15.724400 6.117800 7.307800 255 0 0
-15.705500 6.177600 4.163400 255 0 0
-15.700200 5.879100 10.108700 0 255 0
-15.721300 5.823800 13.260000 255 0 0
-16.660000 5.320000 23.290001 0 255 0
-15.857500 5.768800 11.557500 255 0 0
-15.840000 5.750000 8.300000 255 0 0
-15.866700 5.886700 17.709999 255 0 0
-16.652201 6.583900 12.102800 0 255 0
-15.550000 6.790000 3.420000 0 255 255
-16.750000 5.570000 14.615000 0 255 0
-16.570000 6.370000 4.700000 0 255 255
-16.770000 5.640000 17.760000 0 255 0
-16.565001 6.537500 3.862500 0 255 255
-16.762501 5.382500 16.512501 0 255 0
-16.680000 5.830000 4.420000 0 255 255
-15.410000 6.830000 2.380000 0 255 255
-15.918000 5.136000 2.506000 0 255 255
-15.911700 5.379300 11.755600 0 255 0
-15.907100 5.325700 2.305700 0 255 255
-15.358100 5.680500 14.511000 0 255 0
-15.350000 5.570000 21.000000 0 255 0
-15.705000 6.745000 3.870000 0 255 255
-15.910000 6.680800 3.917500 0 255 255
-15.930000 5.285000 2.355000 0 255 255
-15.915600 5.634400 18.758900 255 0 0
-16.166700 5.916700 4.146700 0 255 255
-16.590000 5.570000 23.200001 0 255 0
-15.230000 5.510000 24.930000 0 255 0
-15.810000 5.740000 6.910000 255 0 0
-15.810000 5.697500 10.055000 255 0 0
-16.367800 5.881100 3.305600 0 255 255
-16.969999 5.680000 19.129999 0 255 0
-15.960000 4.885000 17.700001 0 255 0
-15.957600 5.025900 14.553200 0 255 0
-16.261499 5.419200 3.706200 0 255 255
-16.247101 5.368600 2.708600 0 255 255
-16.549999 5.140000 3.600000 0 255 255
-15.810000 5.960000 4.600000 255 0 0
-15.830000 5.720000 20.410000 255 0 0
-15.806900 5.783100 17.256201 255 0 0
-15.798000 5.828000 14.248000 255 0 0
-15.790000 6.070000 4.130000 255 0 0
-15.810000 5.936700 13.310000 255 0 0
-15.815000 5.865000 16.357500 255 0 0
-16.360500 5.774200 4.466300 0 255 255
-16.959999 5.890000 3.670000 0 255 255
-16.356001 5.934000 3.656000 0 255 255
-16.953300 5.690000 16.318300 0 255 0
-16.101700 6.645000 4.808300 0 255 255
-16.719999 6.780000 4.516700 0 255 255
-15.163300 5.583300 19.650000 0 255 0
-16.660000 5.620000 3.300000 0 255 255
-16.563801 6.331200 4.625000 0 255 255
-16.580000 6.460000 4.140000 0 255 255
-16.580000 6.050000 23.070000 0 255 0
-16.752300 5.392300 4.300800 0 255 255
-16.760000 5.575000 16.549999 0 255 0
-16.552500 6.327500 4.305000 0 255 255
-16.758600 5.482900 23.064301 0 255 0
-16.605700 6.332900 4.614300 0 255 255
-16.709999 5.610000 22.969999 0 255 0
-16.628300 6.380000 4.408300 0 255 255
-16.606199 6.286200 4.651300 0 255 255
-16.709999 5.470000 14.760000 0 255 0
-16.695000 6.075000 4.215000 0 255 255
-16.621700 5.526700 4.221700 0 255 255
-15.980000 7.170000 3.280000 0 255 255
-15.960000 5.830000 18.280001 255 0 0
-15.963300 5.733300 24.766701 0 255 0
-15.461500 6.613100 2.609200 0 255 255
-16.389999 6.540000 4.860000 0 255 255
-16.403700 6.428800 3.460000 0 255 255
-16.504801 5.070000 13.101300 0 255 0
-16.468000 5.040000 13.056000 0 255 0
-16.975000 5.385000 17.865000 0 255 0
-15.900000 5.843500 6.255000 0 255 0
-15.904500 5.789100 9.514500 255 0 0
-15.910000 5.696700 3.230000 0 255 0
-15.898300 5.888300 15.858300 255 0 0
-16.417999 6.295000 3.362000 0 255 255
-16.889999 5.350000 3.370000 0 255 255
-16.416700 6.430000 19.540001 0 255 0
-15.816700 5.776700 17.908300 255 0 0
-15.823300 5.676700 24.203300 0 255 0
-15.805000 5.830000 14.425000 255 0 0
-15.820000 5.980000 15.390000 0 255 0
-15.809000 6.093000 8.461000 255 0 0
-15.797500 6.148700 5.101300 0 255 0
-15.812900 6.018600 11.604300 255 0 0
-16.658300 5.433900 4.018900 0 255 255
-16.058300 5.625000 2.663300 0 255 255
-15.517500 6.787500 16.165001 0 255 0
-15.518000 6.824000 16.162001 0 255 0
-16.197800 5.681100 3.122200 0 255 255
-17.040001 6.200000 3.580000 0 255 255
-16.240000 5.330000 13.030000 0 255 0
-16.750000 6.076700 4.360000 0 255 255
-15.520000 6.150000 22.510000 0 255 0
-15.490000 5.320000 13.500000 0 255 0
-15.947500 6.473700 2.515000 0 255 0
-15.953300 6.832200 12.006700 0 255 0
-15.972000 6.474000 3.526000 0 255 0
-15.813300 5.830000 10.706700 255 0 0
-15.792500 5.772500 13.612500 255 0 0
-15.810000 5.871400 7.452900 255 0 0
-15.808200 5.737300 16.853600 0 255 0
-16.129999 5.800000 2.300000 0 255 255
-15.406700 5.293300 17.330000 0 255 0
-16.510000 5.425000 23.375000 0 255 0
-16.910000 5.891300 4.705000 0 255 255
-16.112000 6.018000 4.056000 0 255 0
-16.625000 5.920000 5.040000 0 255 255
-15.315600 5.418900 11.154400 0 255 0
-15.430000 5.280000 24.790001 0 255 0
-16.514999 5.437500 23.110001 0 255 0
-16.420000 5.610000 3.330000 0 255 255
-16.410000 5.445000 2.940000 0 255 255
-16.105000 5.625000 25.320000 0 255 0
-16.090000 5.530000 18.809999 0 255 0
-15.160000 5.240000 20.799999 0 255 0
-15.662500 5.900000 2.772500 0 255 0
-15.665000 5.985000 9.260000 255 0 0
-15.673000 5.934600 6.109400 0 255 0
-16.219999 4.660000 16.920000 0 255 0
-14.956200 5.228900 3.145300 0 255 255
-16.160000 6.423300 3.043300 0 255 255
-16.167500 6.140000 22.417500 0 255 0
-16.156000 6.282000 19.358000 0 255 0
-15.825000 5.620000 22.445000 0 255 0
-15.800000 5.815000 9.810000 255 0 0
-15.802500 5.914700 3.509400 255 0 0
-15.813300 5.870000 6.563300 255 0 0
-15.805000 5.760000 12.900000 255 0 0
-15.805700 5.732900 16.157101 255 0 0
-15.812500 5.682500 19.215000 255 0 0
-16.010500 5.883200 3.266400 255 0 0
-16.014999 6.438300 19.621700 0 255 0
-15.260000 5.973800 2.705000 0 255 0
-16.753099 6.769200 3.865400 0 255 255
-15.340000 5.230000 17.459999 0 255 0
-15.362500 5.280000 20.610001 0 255 0
-17.010000 6.342000 4.300000 0 255 255
-15.340000 5.040000 25.299999 0 255 0
-16.346701 6.383300 3.393300 0 255 255
-16.340000 6.240000 3.250000 0 255 255
-15.208800 6.485000 16.022499 0 255 0
-15.800000 5.810000 12.150000 255 0 0
-15.800000 5.920000 5.850000 255 0 0
-15.796400 5.974500 2.706400 0 255 0
-15.805000 5.630000 24.817499 0 255 0
-15.801400 5.784300 15.356400 255 0 0
-15.814000 5.724000 18.514000 255 0 0
-15.790000 5.820000 10.900000 255 0 0
-15.816700 5.793300 14.220000 255 0 0
-15.816700 5.732200 17.462200 255 0 0
-15.805000 5.865000 7.655000 255 0 0
-15.564600 7.084600 2.903800 0 255 255
-15.555000 6.545000 19.620001 0 255 0
-15.550000 6.810000 3.170000 0 255 255
-15.570000 6.973300 12.653300 0 255 0
-15.565000 6.480000 19.625000 0 255 0
-15.110000 6.135000 19.605000 0 255 0
-16.030001 5.620000 21.820000 255 0 0
-15.975000 5.740000 2.670000 0 255 0
-15.960000 5.880000 12.140000 255 0 0
-15.978800 5.976300 5.867500 255 0 0
-14.819700 5.579100 2.775600 0 255 255
-15.520000 6.370000 2.155000 0 255 0
-15.960000 6.535000 3.570000 0 255 0
-16.362000 6.330000 19.426001 0 255 0
-16.165001 6.945000 12.265000 0 255 0
-16.367500 6.950000 4.870000 0 255 255
-16.950001 5.672000 14.802000 0 255 0
-15.630000 5.440000 2.570000 0 255 255
-15.606700 4.890000 12.873300 0 255 0
-15.900000 5.833300 3.104400 255 0 0
-15.910000 5.790000 6.240000 255 0 0
-15.910000 5.975000 18.910000 0 255 0
-16.776699 6.483300 4.266700 0 255 255
-15.720000 6.350000 3.990000 0 255 0
-15.716300 6.021200 10.560000 255 0 0
-15.719800 6.074300 7.311200 0 255 0
-15.455000 5.990000 2.716300 0 255 0
-15.955200 6.888300 12.458700 0 255 0
-16.712000 5.975300 4.712700 0 255 255
-16.370001 5.340000 2.520000 0 255 255
-16.355000 4.730000 16.775000 0 255 0
-16.350000 5.678600 3.214300 0 255 255
-16.799999 6.170000 4.070000 0 255 255
-16.516100 5.427500 4.059300 0 255 255
-16.510000 5.365000 20.565001 0 255 0
-16.457500 6.185000 4.512500 0 255 255
-16.459999 5.710000 3.360000 0 255 255
-16.846701 6.236700 4.053300 0 255 255
-16.469999 6.170000 3.620000 0 255 255
-16.461399 5.730000 4.065700 0 255 255
-16.871401 5.884300 3.612900 0 255 255
-16.860001 5.693300 16.270000 0 255 0
-16.450001 5.700000 3.170000 0 255 255
-16.459999 5.810000 4.540000 0 255 255
-15.950000 5.925000 14.790000 255 0 0
-15.980000 6.000000 5.140000 255 0 0
-15.957500 5.882500 11.660000 255 0 0
-15.410000 5.630000 25.030001 0 255 0
-15.452200 4.937800 13.107800 0 255 0
-16.379999 6.080000 4.450000 0 255 255
-16.969999 5.610000 4.470000 0 255 255
-16.603300 6.831100 4.811100 0 255 255
-16.668600 5.128600 17.561399 0 255 0
-16.705000 5.415000 16.320000 0 255 0
-16.920000 5.635000 4.145000 0 255 255
-15.680000 5.590000 24.340000 0 255 0
-16.313299 6.140000 4.443300 0 255 255
-16.712000 5.820000 3.662000 0 255 255
-16.606001 5.884000 3.650000 0 255 255
-16.620001 6.940000 3.560000 0 255 255
-15.962500 5.635000 16.459999 255 0 0
-16.304001 6.780000 14.462000 0 255 0
-16.764999 6.582000 4.457000 0 255 255
-16.915001 6.591700 4.198300 0 255 255
-16.409401 5.126500 4.196500 0 255 255
-16.415001 5.150000 2.775000 0 255 255
-15.520000 6.260000 2.960000 0 255 0
-15.510000 5.660000 15.990000 0 255 0
-15.518300 5.618300 11.113300 0 255 0
-15.175000 5.482500 20.775000 0 255 0
-16.379999 6.640000 3.206700 0 255 255
-16.658300 4.928300 17.563299 0 255 0
-15.430000 5.420000 2.310000 0 255 255
-16.709999 6.510000 4.270000 0 255 255
-16.629999 4.950000 19.639999 0 255 0
-16.780001 6.140000 4.120000 0 255 255
-16.557400 5.475900 4.117800 0 255 255
-16.672501 6.177500 4.605000 0 255 255
-15.840000 6.010000 10.070000 255 0 0
-15.856200 5.912500 3.560000 255 0 0
-16.410000 4.930000 17.590000 0 255 0
-16.650000 6.145000 4.750000 0 255 255
-15.855000 6.087000 9.161000 255 0 0
-15.840000 6.050000 8.630000 255 0 0
-15.850000 6.070000 12.430000 0 255 0
-15.850700 5.942100 2.117100 0 255 0
-16.680000 6.195000 4.840000 0 255 255
-15.850000 6.050000 6.360000 255 0 0
-15.855700 6.074300 9.860000 255 0 0
-16.660000 6.130000 4.270000 0 255 255
-15.510000 5.970000 25.010000 0 255 0
-16.208300 5.330000 2.510000 0 255 255
-15.850000 5.970000 25.620001 0 255 0
-15.870000 5.845000 15.810000 255 0 0
-15.875000 5.875000 19.105000 255 0 0
-16.666700 6.481100 4.607800 0 255 255
-15.860000 5.740000 9.313300 255 0 0
-15.840000 5.740000 7.580000 255 0 0
-15.865000 5.880000 17.049999 255 0 0
-15.863600 5.770000 10.714400 255 0 0
-15.850000 6.173300 6.116700 255 0 0
-16.650000 5.950000 4.020000 0 255 255
-15.870000 6.433300 19.663300 0 255 0
-15.770000 6.120000 8.830000 255 0 0
-15.765000 6.220300 2.464100 0 255 0
-15.730000 6.420000 12.120000 0 255 0
-16.170000 5.110000 19.059999 0 255 0
-16.160000 5.040000 25.799999 0 255 0
-16.219999 6.380000 22.700001 0 255 0
-16.205000 5.875000 3.155000 0 255 255
-16.206699 6.443300 19.356701 0 255 0
-15.990000 5.700000 15.405000 255 0 0
-15.990000 5.770000 8.930000 0 255 0
-15.590000 5.410000 2.900000 0 255 255
-15.470000 5.085000 13.308300 0 255 0
-15.930000 6.120000 22.530001 0 255 0
-15.905300 5.837400 3.503700 255 0 0
-15.910000 5.800000 6.670000 255 0 0
-15.119000 6.877100 4.017100 0 255 255
-16.667500 5.542500 3.120000 0 255 255
-16.667500 5.572500 3.267500 0 255 255
-16.615000 6.868000 4.818000 0 255 255
-16.594999 6.630000 21.004999 0 255 0
-16.696699 6.426700 14.526700 0 255 0
-16.879999 6.630000 3.120000 0 255 255
-16.459999 4.820000 22.709999 0 255 0
-16.453300 5.783300 3.620000 0 255 255
-16.116699 5.526700 12.976700 0 255 0
-16.115000 5.330000 25.594999 0 255 0
-15.655000 5.845000 12.855000 255 0 0
-15.666700 5.976700 22.413300 0 255 0
-15.658600 6.082400 3.063800 0 255 0
-15.665000 6.115000 6.120000 255 0 0
-16.525999 5.924000 4.913000 0 255 255
-16.490000 5.670000 4.290000 0 255 255
-16.459999 5.928900 4.594400 0 255 255
-16.860001 5.360000 23.280001 0 255 0
-15.625000 5.985000 11.210000 0 255 0
-15.157500 5.492500 24.867500 0 255 0
-15.570000 6.060000 15.980000 0 255 0
-15.560000 6.025000 22.405001 0 255 0
-15.290000 5.740000 13.400000 0 255 0
-15.456700 7.130600 3.199400 0 255 255
-15.766700 5.790000 6.506700 255 0 0
-15.758600 5.692900 12.805700 255 0 0
-15.416700 5.173300 24.950001 0 255 0
-16.030001 6.332500 18.955000 0 255 0
-16.016001 5.628000 22.464001 255 0 0
-16.010000 5.630000 21.415001 255 0 0
-16.055000 5.640000 22.370001 255 0 0
-15.710000 5.700000 13.800000 255 0 0
-15.702200 5.834400 4.004400 0 255 0
-15.698000 5.935200 10.512400 255 0 0
-15.696300 5.977800 7.262900 255 0 0
-15.730000 5.700000 14.905000 255 0 0
-15.723300 5.841700 5.520000 255 0 0
-15.705700 5.981100 8.561600 255 0 0
-15.710000 5.895000 2.260000 0 255 0
-15.706300 5.930700 11.803000 255 0 0
-16.562201 5.383300 3.553300 0 255 255
-16.750000 6.530000 20.830000 0 255 0
-16.363199 6.678200 14.558600 0 255 0
-15.530000 5.040000 13.330000 0 255 0
-15.100000 4.880000 13.140000 0 255 0
-15.766700 5.892700 3.960300 255 0 0
-15.761500 5.776200 10.715100 255 0 0
-16.804300 6.441400 4.698600 0 255 255
-15.962500 5.640000 17.166300 255 0 0
-16.614000 6.722000 3.396000 0 255 255
-16.629999 6.436700 22.966700 0 255 0
-16.719999 5.090000 16.480000 0 255 0
-15.397800 5.430000 3.057800 0 255 255
-16.615000 6.420000 3.995000 0 255 255
-16.705000 5.382500 16.661301 0 255 0
-16.398701 6.416300 4.125000 0 255 255
-16.400000 6.190000 4.260000 0 255 255
-16.160000 5.910000 2.480000 0 255 255
-15.912500 5.870000 22.462500 0 255 0
-15.890000 5.780000 15.700000 255 0 0
-14.990000 6.545000 2.665000 0 255 255
-14.997500 6.285000 18.477501 0 255 0
-15.465000 5.125000 24.905001 0 255 0
-15.001900 5.791200 2.561400 0 255 255
-15.015000 5.465000 22.090000 0 255 0
-15.105300 5.520000 7.965900 0 255 0
-16.955000 6.080000 4.657500 0 255 255
-16.257799 5.524400 3.948900 0 255 255
-16.740000 5.800000 17.920000 0 255 0
-15.043300 5.387500 8.054200 0 255 0
-15.103300 5.636700 19.510000 0 255 0
-15.956700 6.223300 3.670000 255 0 0
-15.960000 6.070000 6.810000 255 0 0
-15.950000 6.330000 22.620001 0 255 0
-14.820000 5.375000 19.705000 0 255 0
-15.265000 6.625000 19.870001 0 255 0
-15.496700 6.930000 3.553300 0 255 255
-15.100000 6.700000 3.660000 0 255 255
-16.306700 6.020000 4.611700 0 255 255
-16.309999 5.360000 17.330000 0 255 0
-16.308599 5.974300 4.615700 0 255 255
-16.299999 4.940000 22.580000 0 255 0
-15.462500 5.536200 2.310000 0 255 255
-16.040001 5.660000 24.020000 255 0 0
-16.070000 5.610000 20.770000 255 0 0
-16.070000 5.100000 11.760000 0 255 0
-15.660000 6.975000 3.245000 0 255 255
-16.430000 6.690000 4.890000 0 255 255
-14.853700 5.537500 2.760600 0 255 255
-16.500000 5.235000 2.850000 0 255 255
-16.760000 5.596000 3.258000 0 255 255
-16.049999 6.130000 22.469999 0 255 0
-16.049999 5.827100 3.652900 0 255 0
-16.062500 6.475000 19.057501 0 255 0
-15.700000 4.660000 21.000000 0 255 0
-16.020000 5.430000 22.700001 0 255 0
-16.700001 6.170000 2.540000 0 255 255
-16.615999 5.432000 2.572000 0 255 255
-16.420000 5.780000 23.170000 0 255 0
-16.889999 5.830000 23.139999 0 255 0
-16.413300 6.483900 4.213300 0 255 255
-16.020000 5.883300 22.510000 0 255 0
-16.010000 6.020000 8.020000 255 0 0
-15.923100 5.180000 11.771300 0 255 0
-15.916300 5.341100 14.466800 0 255 0
-15.480000 7.110000 2.720000 0 255 255
-15.690000 5.070000 13.100000 0 255 0
-16.052500 5.682500 2.502500 0 255 255
-16.000000 4.640000 19.313999 0 255 0
-16.045000 4.890000 2.750000 0 255 255
-16.309999 5.850000 14.430000 0 255 0
-15.320000 6.095000 2.610000 0 255 0
-15.716100 6.229400 3.013900 0 255 0
-16.762899 5.630700 3.612100 0 255 255
-16.569000 6.171000 3.610000 0 255 255
-16.770000 5.560000 2.930000 0 255 255
-16.600000 6.930000 3.280000 0 255 255
-15.180000 5.100000 17.540001 0 255 0
-14.900000 5.420000 13.140000 0 255 0
-14.910000 5.526000 19.458000 0 255 0
-16.730000 5.500000 23.105000 0 255 0
-16.709999 5.910000 4.420000 0 255 255
-15.420000 5.570000 3.950000 0 255 255
-15.910000 5.727500 17.662500 255 0 0
-16.219999 5.640000 22.490000 0 255 0
-16.530001 6.440000 4.130000 0 255 255
-16.080000 4.575000 21.415001 0 255 0
-15.280000 6.525000 3.145000 0 255 255
-16.000000 5.770000 17.680000 255 0 0
-16.014999 5.670000 24.150000 255 0 0
-16.003300 5.650000 17.413300 255 0 0
-16.690001 5.600000 23.100000 0 255 0
-16.690001 5.280000 4.360000 0 255 255
-16.730000 5.465000 16.620001 0 255 0
-16.617100 6.318600 4.365700 0 255 255
-16.624001 6.320000 4.404000 0 255 255
-16.713301 5.481700 16.648300 0 255 0
-16.639999 5.685000 3.995000 0 255 255
-16.361200 5.291200 2.813700 0 255 255
-16.972700 6.429100 2.815500 0 255 255
-16.462999 6.628000 12.061000 0 255 0
-16.480000 6.675000 12.207500 0 255 0
-15.830000 6.230000 22.469999 0 255 0
-15.810000 6.245000 19.650000 0 255 0
-15.797500 6.322500 3.810000 0 255 0
-16.110001 4.720000 23.080000 0 255 0
-16.116699 4.770000 17.366699 0 255 0
-15.145000 6.770000 3.165000 0 255 255
-14.807500 5.582300 8.061100 0 255 0
-16.110399 5.331700 3.799100 0 255 255
-15.595000 6.090000 5.310000 0 255 0
-16.590000 6.610000 4.675000 0 255 255
-16.608400 6.534000 12.209600 0 255 0
-16.660000 5.170000 20.580000 0 255 0
-15.655000 4.620000 16.250000 0 255 0
-15.680000 6.680000 3.830000 0 255 255
-16.403299 5.886700 4.653300 0 255 255
-16.913300 5.533300 17.700001 0 255 0
-16.656700 6.231700 3.991700 0 255 255
-15.866300 5.880500 2.958900 0 255 0
-15.810000 6.570000 24.360001 0 255 0
-15.803300 6.683800 18.002899 0 255 0
-15.812800 6.680000 17.969999 0 255 0
-15.861300 6.187400 4.315700 255 0 0
-15.865600 6.381100 17.347799 0 255 0
-16.639999 5.980000 4.140000 0 255 255
-15.845000 6.165000 6.870000 255 0 0
-15.613600 6.926400 12.563600 0 255 0
-15.845000 5.330000 2.465000 0 255 255
-15.870000 5.560000 18.639999 255 0 0
-16.110001 5.730000 20.655001 0 255 0
-16.110001 5.740000 20.350000 0 255 0
-15.769600 5.893700 3.808400 255 0 0
-15.770000 5.675000 16.469999 255 0 0
-15.759300 5.780300 10.158700 255 0 0
-15.760000 5.730000 5.820000 0 255 0
-15.760000 5.880000 2.520000 0 255 0
-15.767500 5.790500 9.063500 255 0 0
-15.773300 5.686700 15.558300 255 0 0
-15.180000 5.520000 13.300000 0 255 0
-15.167500 5.820000 19.652500 0 255 0
-15.865000 4.730000 14.745000 0 255 0
-15.830000 5.600000 17.540001 255 0 0
-16.698299 6.585000 4.561700 0 255 255
-15.761300 5.744700 12.206700 255 0 0
-15.766400 5.988000 2.408000 0 255 0
-15.750000 5.885000 8.918300 255 0 0
-15.760600 5.841300 5.660600 255 0 0
-15.764700 5.778700 15.463300 255 0 0
-15.758500 5.741500 12.116900 255 0 0
-15.758100 5.980500 2.708500 0 255 0
-15.750000 5.871200 9.018700 255 0 0
-15.770000 5.776400 15.363600 255 0 0
-15.763600 5.839800 5.759600 255 0 0
-15.759600 5.974600 2.858900 0 255 0
-15.744000 5.874000 9.165000 255 0 0
-15.761200 5.733500 12.758200 255 0 0
-15.764300 5.784300 15.915000 255 0 0
-15.761300 5.833000 6.007000 255 0 0
-15.765000 5.638300 18.818300 0 255 0
-15.745700 5.875700 9.407100 255 0 0
-15.760700 5.742900 12.514300 255 0 0
-15.770000 5.776000 15.758000 255 0 0
-15.752300 5.980200 3.108000 255 0 0
-15.763000 5.837600 6.160500 0 255 0
-15.350000 5.170000 24.940001 0 255 0
-16.020000 5.400000 2.860000 0 255 255
-16.124399 7.193300 5.150000 0 255 255
-16.101700 6.636700 2.661700 0 255 255
-16.008101 5.376500 3.107700 0 255 255
-16.025000 5.525000 18.830000 0 255 0
-16.030001 5.570000 11.800000 0 255 0
-15.656700 4.663300 12.723300 0 255 0
-16.070000 5.560000 23.129999 0 255 0
-16.008499 6.929200 12.315000 0 255 0
-16.708700 6.127500 4.355000 0 255 255
-16.440001 7.010000 3.675000 0 255 255
-15.452000 5.878000 2.374000 0 255 0
-15.613000 6.336700 4.794700 0 255 0
-15.508000 5.530000 2.254000 0 255 0
-15.501700 4.783300 11.560000 0 255 0
-16.513300 6.843900 5.302800 0 255 255
-16.350000 6.430000 3.666700 0 255 255
-16.969999 5.640000 19.190001 0 255 0
-16.480000 5.610000 3.340000 0 255 255
-16.862499 5.567500 4.362500 0 255 255
-16.465599 5.423300 16.012199 0 255 0
-16.457500 5.582500 25.557501 0 255 0
-15.651000 5.982000 21.117001 0 255 0
-15.680000 6.170000 7.680000 255 0 0
-15.680000 6.115000 4.395000 255 0 0
-15.675600 5.835600 11.366700 255 0 0
-15.910000 5.880000 20.370001 255 0 0
-15.918800 5.820000 10.562500 255 0 0
-15.920000 5.935000 17.100000 255 0 0
-16.650000 6.510000 14.540000 0 255 0
-16.665001 6.635000 20.855000 0 255 0
-15.855000 5.735000 2.805000 0 255 0
-15.860000 5.935000 15.460000 255 0 0
-15.845000 5.790000 5.865000 255 0 0
-15.865000 5.815000 9.111000 255 0 0
-15.550000 5.190000 13.380000 0 255 0
-15.650000 4.670000 16.100000 0 255 0
-15.673300 6.426700 19.553301 0 255 0
-16.645000 5.580000 23.205000 0 255 0
-16.712500 6.270000 4.565000 0 255 255
-16.400000 6.675000 4.825000 0 255 255
-16.709101 6.734500 3.902700 0 255 255
-16.715000 6.285000 14.592500 0 255 0
-15.365700 4.982100 13.256400 0 255 0
-16.490000 5.710000 22.520000 0 255 0
-16.520000 5.480000 25.600000 0 255 0
-16.813299 5.733300 5.814500 0 255 255
-15.455000 4.930000 13.342500 0 255 0
-15.718100 6.172500 2.455000 0 255 0
-15.717000 5.878500 8.610400 255 0 0
-15.698200 5.828200 11.758200 255 0 0
-15.720400 6.115000 5.609600 0 255 0
-15.710000 5.910000 15.770000 0 255 0
-15.720000 5.660000 18.959999 0 255 0
-15.718400 6.130800 3.112400 0 255 0
-15.711700 5.880100 6.309700 255 0 0
-15.715200 5.835800 9.459200 255 0 0
-15.368000 6.724000 2.354000 0 255 255
-16.264000 5.682000 4.510400 0 255 255
-16.840000 5.285000 3.250000 0 255 255
-15.460000 6.023300 21.026699 0 255 0
-15.050000 5.620000 20.889999 0 255 0
-15.056700 5.543300 14.616700 0 255 0
-15.720000 6.140000 10.460000 255 0 0
-15.700000 6.180000 7.205000 255 0 0
-15.695500 6.032900 3.959500 0 255 0
-15.718300 5.886700 13.370000 255 0 0
-15.290000 6.690000 3.450000 0 255 255
-15.317500 6.472500 16.102501 0 255 0
-14.960000 5.400000 13.190000 0 255 0
-14.961400 5.289300 19.504999 0 255 0
-15.315000 4.860000 11.510000 0 255 0
-15.790000 5.810000 11.020000 255 0 0
-15.810000 5.690000 20.415001 0 255 0
-15.830000 5.765000 14.125000 255 0 0
-15.790000 5.920000 4.690000 255 0 0
-15.810000 5.870000 7.765000 255 0 0
-15.801400 5.731400 17.358601 255 0 0
-15.340000 5.850000 2.280000 0 255 0
-15.815000 5.865000 8.320000 255 0 0
-15.816000 5.738000 17.613001 255 0 0
-15.300000 5.630000 24.530001 0 255 0
-15.805000 5.770000 12.060000 255 0 0
-15.825000 5.865000 5.910000 255 0 0
-15.810000 5.936900 2.561900 0 255 0
-15.810500 5.818400 9.060000 255 0 0
-15.809200 5.732300 15.202300 255 0 0
-15.816700 5.685000 18.555000 255 0 0
-16.254999 5.425000 3.753300 0 255 255
-15.070000 6.216000 16.072001 0 255 0
-15.040000 6.290000 18.350000 0 255 0
-15.790000 5.790000 13.265000 255 0 0
-15.813300 5.820000 10.263300 255 0 0
-15.798600 5.913600 3.753600 0 255 0
-15.800000 5.872500 7.107500 255 0 0
-15.812000 5.722000 16.403999 255 0 0
-15.807500 5.863700 5.210000 0 255 0
-15.810700 5.730700 15.107900 255 0 0
-15.790000 5.760000 11.980000 255 0 0
-15.808600 5.821400 8.360300 0 255 0
-15.807500 5.680000 18.257500 255 0 0
-16.010000 4.776700 19.306700 0 255 0
-15.620000 6.822900 12.301400 0 255 0
-16.570000 6.290000 3.300000 0 255 255
-15.730000 6.780000 2.390000 0 255 0
-16.120001 6.990000 2.940000 0 255 255
-16.850000 5.060000 17.600000 0 255 0
-16.948900 5.783300 5.722200 0 255 255
-15.576200 6.385000 3.768800 0 255 0
-16.354000 5.540000 23.112000 0 255 0
-16.960699 5.778700 16.318701 0 255 0
-15.530000 6.533300 3.873300 0 255 255
-15.160000 5.290000 18.980000 0 255 0
-15.290000 6.160000 20.690001 0 255 0
-15.280000 6.810000 4.150000 0 255 255
-16.530001 6.660000 4.660000 0 255 255
-16.400000 7.040000 4.450000 0 255 255
-15.365600 5.523800 18.915001 0 255 0
-15.320500 6.775900 4.205500 0 255 255
-16.264999 6.337500 4.655000 0 255 255
-16.258200 6.485300 3.361800 0 255 255
-16.861700 5.326700 16.350000 0 255 0
-15.703300 5.383300 24.726700 0 255 0
-15.958000 4.874000 17.570000 0 255 0
-16.620001 7.000000 3.690000 0 255 255
-16.645000 5.487500 4.105000 0 255 255
-15.410000 5.075000 25.230000 0 255 0
-15.360000 6.015000 21.007500 0 255 0
-15.890000 6.160000 5.180000 255 0 0
-16.722000 5.920000 14.546000 0 255 0
-16.700001 5.670000 4.360000 0 255 255
-16.697500 5.875000 17.805000 0 255 0
-16.618000 5.726000 17.806000 0 255 0
-16.709999 5.520000 3.800000 0 255 255
-16.721300 5.528700 2.959300 0 255 255
-16.200001 5.876700 3.100000 0 255 255
-16.212500 6.430000 19.398800 0 255 0
-16.320000 5.480000 3.440000 0 255 255
-16.995001 6.120000 3.455000 0 255 255
-16.320000 6.470000 3.540000 0 255 255
-16.315001 6.525000 3.760000 0 255 255
-15.720000 5.570000 22.629999 0 255 0
-16.080000 5.000000 25.870001 0 255 0
-15.859100 6.381100 4.807500 0 255 0
-16.654699 5.370600 3.761800 0 255 255
-16.709999 4.910000 17.549999 0 255 0
-15.757600 4.835300 16.053499 0 255 0
-14.820000 6.084400 8.010000 0 255 0
-16.730000 6.200000 4.630000 0 255 255
-16.600000 5.370000 3.380000 0 255 255
-14.870000 6.000000 19.430000 0 255 0
-15.500000 5.160000 25.059999 0 255 0
-16.365601 6.134400 20.503300 0 255 0
-16.049999 5.770000 3.920000 0 255 255
-16.040001 6.490000 23.450001 0 255 0
-15.830000 5.520000 22.420000 0 255 0
-16.100000 6.280000 4.590000 0 255 0
-16.565701 6.279300 4.660700 0 255 255
-15.612500 6.669200 18.105801 0 255 0
-15.614300 6.682100 18.063601 0 255 0
-16.450001 6.596700 12.053300 0 255 0
-16.459999 6.410000 2.630000 0 255 255
-16.062500 7.167500 4.672500 0 255 255
-16.379999 5.990000 24.240000 0 255 0
-16.980000 5.770000 14.760000 0 255 0
-16.600000 5.770000 23.330000 0 255 0
-16.770000 5.590000 3.200000 0 255 255
-16.570000 6.180000 3.916700 0 255 255
-16.750000 5.750000 23.250000 0 255 0
-16.758101 5.622500 3.900600 0 255 255
-16.754700 5.633700 3.206800 0 255 255
-16.750000 5.690000 19.129999 0 255 0
-16.330000 4.740000 16.799999 0 255 0
-15.765000 6.915000 3.600000 0 255 255
-15.760000 6.635300 3.210000 0 255 0
-16.875000 5.630000 4.057500 0 255 255
-16.139999 6.160000 22.430000 0 255 0
-16.158701 6.488700 3.073300 0 255 255
-15.630000 5.170000 24.889999 0 255 0
-17.075001 6.172500 3.125000 0 255 255
-16.254999 4.625000 19.389999 0 255 0
-16.590000 6.130000 23.059999 0 255 0
-16.709999 5.473300 23.066700 0 255 0
-16.660000 4.967500 19.565001 0 255 0
-15.010000 5.628600 8.063400 0 255 0
-15.020000 5.440000 20.712500 0 255 0
-16.719999 4.830000 21.270000 0 255 0
-16.370001 4.900000 22.690001 0 255 0
-16.450001 5.600000 3.900000 0 255 255
-16.862000 6.084000 3.924000 0 255 255
-16.450001 6.750000 12.330000 0 255 0
-16.670000 6.030000 4.590000 0 255 255
-15.856700 6.142500 6.414200 255 0 0
-15.880000 6.080000 3.160000 255 0 0
-15.860000 6.175000 7.120000 0 255 0
-16.639999 5.990000 3.630000 0 255 255
-16.080000 5.370000 2.420000 0 255 255
-15.850000 6.110000 10.310000 255 0 0
-15.860000 6.076400 9.610900 255 0 0
-16.674999 6.115000 4.290000 0 255 255
-16.554501 6.730000 12.305500 0 255 0
-16.557501 6.215000 3.917500 0 255 255
-16.780001 5.260000 3.930000 0 255 255
-16.754000 5.422000 2.924000 0 255 255
-16.766701 5.631700 16.366699 0 255 0
-16.543301 6.376700 3.866700 0 255 255
-16.763800 5.427100 3.861200 0 255 255
-16.556700 6.216700 3.873300 0 255 255
-16.760000 5.295000 3.845000 0 255 255
-15.510000 5.710000 13.390000 0 255 0
-16.670000 6.030000 4.100000 0 255 255
-15.843300 6.336700 19.566700 0 255 0
-15.857100 6.139300 6.912100 255 0 0
-15.956700 6.473300 19.629999 0 255 0
-15.653300 6.228300 3.661700 0 255 0
-15.770000 5.717500 16.212500 255 0 0
-15.758600 5.880700 12.914300 255 0 0
-15.753400 5.824500 9.657900 255 0 0
-15.766200 5.940500 3.159700 255 0 0
-16.263300 6.380000 14.505800 0 255 0
-16.254999 6.240000 4.410000 0 255 0
-16.240000 6.550000 23.370001 0 255 0
-14.918300 6.221700 21.108299 0 255 0
-16.059999 5.745000 17.504999 255 0 0
-16.049999 5.936400 4.464300 0 255 0
-15.920000 5.600000 19.799999 255 0 0
-15.906000 5.626000 16.662001 255 0 0
-15.860000 6.575000 23.459999 0 255 0
-15.670000 6.575000 2.215000 0 255 0
-14.926200 5.673100 2.760000 0 255 255
-15.540000 4.740000 21.240000 0 255 0
-15.480000 4.710000 21.100000 0 255 0
-16.639999 5.270000 23.420000 0 255 0
-14.880000 5.560000 19.520000 0 255 0
-15.150000 6.300000 19.240000 0 255 0
-15.157100 6.421400 16.221399 0 255 0
-15.813600 5.024500 2.925500 0 255 255
-15.560000 6.381400 3.200000 0 255 0
-15.750000 6.100000 3.640000 255 0 0
-15.756700 5.910000 7.356700 255 0 0
-15.758600 5.832900 13.865000 255 0 0
-15.748200 5.984500 10.615500 255 0 0
-15.420000 7.010000 3.310000 0 255 255
-15.790000 5.960000 3.120000 255 0 0
-15.790000 5.720000 18.900000 255 0 0
-15.797700 5.779200 15.764600 0 255 0
-15.745000 6.025000 5.000000 255 0 0
-15.760000 5.900000 20.514999 0 255 0
-15.754200 6.089100 8.260900 255 0 0
-15.778000 5.838000 17.268000 255 0 0
-15.775000 5.970000 14.005000 255 0 0
-15.740000 5.930000 10.745000 255 0 0
-15.745000 5.790000 6.265000 255 0 0
-15.774000 5.740000 3.006000 0 255 0
-15.750000 5.685000 12.765000 255 0 0
-15.740000 6.040000 6.510000 255 0 0
-15.752700 5.935300 12.456700 255 0 0
-15.759300 6.178700 3.457900 255 0 0
-15.763300 6.068300 9.760000 255 0 0
-15.655000 5.675000 18.889999 0 255 0
-15.645000 5.840000 3.110000 0 255 0
-15.675600 5.892200 6.260000 0 255 0
-15.674000 5.925300 9.400700 255 0 0
-15.480000 6.490000 3.780000 0 255 255
-15.962500 6.925000 17.927500 0 255 0
-15.707100 5.928600 3.110000 255 0 0
-15.720000 5.740000 15.740000 255 0 0
-15.717800 5.781300 12.514800 255 0 0
-15.962300 5.928700 4.659700 255 0 0
-15.755000 5.865000 9.655000 255 0 0
-15.749500 5.977000 3.161900 255 0 0
-15.780000 5.780000 16.219999 255 0 0
-15.761000 5.836000 6.508900 255 0 0
-15.770000 5.720000 13.054000 255 0 0
-16.602501 6.178800 4.047500 0 255 255
-16.712900 5.527100 4.051400 0 255 255
-16.600000 5.900000 23.030001 0 255 0
-16.090000 5.190000 25.879999 0 255 0
-16.105000 6.331200 2.198700 0 255 0
-15.750000 5.040000 17.520000 0 255 0
-15.818300 5.835000 3.555800 255 0 0
-15.804300 5.784300 7.154300 255 0 0
-15.812000 5.738000 10.318000 255 0 0
-15.800000 5.690000 13.461700 255 0 0
-16.209999 6.780000 4.740000 0 255 255
-16.214001 6.637300 14.557300 0 255 0
-15.846700 5.650000 14.060000 255 0 0
-16.598301 6.125000 4.505800 0 255 255
-16.500000 6.090000 4.180000 0 255 255
-16.799999 5.640000 4.170000 0 255 255
-16.520000 6.030000 4.100000 0 255 255
-16.504999 5.930000 23.070000 0 255 0
-16.813299 5.628300 4.013300 0 255 255
-16.503300 6.076700 4.003300 0 255 255
-16.504999 5.970000 23.165001 0 255 0
-16.945000 5.660000 22.674999 0 255 0
-16.360001 6.090000 19.410000 0 255 0
-16.455000 6.370000 4.670000 0 255 255
-16.910000 6.310000 4.110000 0 255 255
-16.430000 5.281200 4.120000 0 255 255
-16.366301 6.732500 2.957500 0 255 255
-16.655500 5.336400 16.064501 0 255 0
-14.850000 5.840000 18.307501 0 255 0
-14.963300 5.617500 2.710400 0 255 255
-16.639999 5.770000 4.030000 0 255 255
-16.170000 5.250000 18.990000 0 255 0
-15.712900 5.728600 15.952900 255 0 0
-15.717800 5.937800 2.914400 0 255 0
-15.716200 5.789500 12.710000 255 0 0
-15.730000 5.710000 16.680000 255 0 0
-15.710000 5.780000 13.395000 255 0 0
-15.722200 5.940600 3.614400 255 0 0
-15.680000 5.830000 14.130000 255 0 0
-15.678800 6.068800 5.012900 255 0 0
-16.980000 5.490000 16.350000 0 255 0
-15.880000 5.650000 19.400000 255 0 0
-15.860000 5.585000 16.250000 255 0 0
-15.872000 5.632000 16.153999 255 0 0
-15.930000 5.900000 2.300000 0 255 0
-16.802500 6.777500 3.705000 0 255 255
-15.840000 6.810000 17.490000 0 255 0
-15.857300 6.632300 4.846800 0 255 0
-16.680000 5.790000 23.190001 0 255 0
-16.659300 5.477900 3.857100 0 255 255
-15.706000 5.479300 2.809300 0 255 0
-15.703300 5.340000 24.916700 0 255 0
-16.850000 6.170000 4.000000 0 255 255
-16.455000 5.838300 3.705000 0 255 255
-16.480000 5.600000 23.350000 0 255 0
-16.467501 5.677500 4.010000 0 255 255
-16.865700 5.527400 3.709100 0 255 255
-16.530001 6.060000 4.100000 0 255 255
-16.514999 5.970000 23.070000 0 255 0
-16.219999 5.680000 4.060000 0 255 255
-16.209999 5.635000 3.945000 0 255 255
-16.193300 5.996700 3.200000 0 255 255
-15.690000 5.890000 16.040001 0 255 0
-15.715900 6.077300 3.010000 0 255 0
-15.694800 6.039000 6.261200 255 0 0
-15.506700 6.166700 2.666700 0 255 0
-16.379999 6.690000 20.990000 0 255 0
-15.710000 5.615000 24.815001 0 255 0
-15.722700 6.117600 5.210000 255 0 0
-15.712000 5.834600 12.162300 255 0 0
-15.707900 5.877700 9.005600 255 0 0
-15.670000 5.770000 13.205000 255 0 0
-16.740000 6.430000 4.010000 0 255 255
-16.549999 5.400000 4.030000 0 255 255
-15.940000 6.250000 2.570000 0 255 0
-15.960000 6.060000 5.920000 255 0 0
-15.990000 5.895000 8.010000 255 0 0
-15.780000 7.275000 3.805000 0 255 255
-15.957800 6.273300 3.971100 0 255 0
-16.673300 5.846700 2.970000 0 255 255
-16.116699 6.946700 2.943300 0 255 255
-15.053100 6.427700 18.313101 0 255 0
-15.590000 7.010000 12.650000 0 255 0
-15.750000 5.890000 10.770000 255 0 0
-15.770000 6.000000 4.480000 255 0 0
-15.764900 5.838700 7.611100 255 0 0
-15.763500 5.731300 14.363000 255 0 0
-16.830000 5.370000 23.420000 0 255 0
-15.660500 5.773700 2.856300 0 255 0
-15.649100 6.785500 16.118200 0 255 0
-15.813100 6.940000 12.456900 0 255 0
-16.549999 6.300000 4.605000 0 255 255
-16.559999 6.030000 3.870000 0 255 255
-16.762501 5.472500 3.870000 0 255 255
-17.008900 6.191100 4.156700 0 255 255
-16.740000 5.970000 4.790000 0 255 255
-16.219999 6.775000 14.512500 0 255 0
-16.303801 6.130000 4.667500 0 255 0
-14.930000 6.860000 3.250000 0 255 255
-15.840000 6.740000 4.070000 0 255 255
-15.905000 5.630000 20.705000 255 0 0
-15.812900 5.845700 4.311400 255 0 0
-15.830000 5.640000 16.959999 255 0 0
-15.812500 5.743300 10.461700 255 0 0
-15.811700 5.683300 13.710800 255 0 0
-15.805000 5.792500 7.212500 255 0 0
-15.150000 6.130000 24.730000 0 255 0
-15.540000 5.650000 14.510000 0 255 0
-15.540000 5.570000 11.280000 0 255 0
-15.559400 5.922400 21.064100 0 255 0
-15.540000 6.130000 20.620001 0 255 0
-16.417700 6.276900 4.816900 0 255 255
-16.413300 6.783300 3.160000 0 255 255
-15.000000 6.240000 18.549999 0 255 0
-15.616700 6.243300 4.806700 0 255 0
-16.080000 6.520000 14.690000 0 255 0
-16.610001 6.420000 14.600000 0 255 0
-15.955000 5.625000 14.505000 255 0 0
-16.490000 6.150000 4.530000 0 255 255
-16.510000 5.675000 17.660000 0 255 0
-16.730000 5.330000 23.440001 0 255 0
-15.680000 6.065000 7.900000 255 0 0
-15.675700 6.027100 4.759700 0 255 0
-15.675900 6.074400 4.256300 255 0 0
-15.680000 5.830000 13.260000 255 0 0
-15.660000 6.130000 7.330000 255 0 0
-15.605000 6.030000 16.049999 0 255 0
-15.960000 5.850000 3.170000 255 0 0
-15.970000 5.750000 9.480000 0 255 0
-15.965000 5.865000 18.955000 255 0 0
-15.756700 5.733300 22.530001 0 255 0
-15.747500 6.026400 2.712500 0 255 0
-15.755500 6.081800 5.961800 255 0 0
-15.756000 5.980000 13.112000 255 0 0
-15.765000 5.830000 16.165001 255 0 0
-16.330000 6.540000 19.590000 0 255 0
-16.304501 6.173600 3.310000 0 255 255
-15.920000 5.590000 16.170000 0 255 0
-15.890000 5.640000 12.930000 0 255 0
-16.406700 4.966700 17.596701 0 255 0
-16.889999 5.940000 3.780000 0 255 255
-16.407900 5.674700 3.757400 0 255 255
-14.960000 5.170000 13.150000 0 255 0
-15.818000 5.434000 24.556000 0 255 0
-15.680000 6.810000 2.970000 0 255 255
-15.660000 6.968600 12.608600 0 255 0
-16.601700 6.290000 4.863300 0 255 255
-16.695000 5.620000 17.905001 0 255 0
-15.853300 6.747300 3.456700 0 255 255
-15.871700 6.884200 12.457500 0 255 0
-15.810000 5.283800 2.258800 0 255 255
-16.555000 6.220000 3.970000 0 255 255
-16.762501 5.275000 3.945000 0 255 255
-16.575001 6.360000 3.500000 0 255 255
-15.854700 6.226700 3.655300 255 0 0
-16.664000 5.882000 4.096000 0 255 255
-15.870000 6.725000 2.580000 0 255 255
-15.400000 4.775000 12.930000 0 255 0
-15.668800 6.130000 3.506300 255 0 0
-15.678300 5.836700 10.665000 255 0 0
-16.065001 5.685000 16.844999 255 0 0
-15.716200 5.883600 7.511600 255 0 0
-15.712600 6.128000 3.508200 255 0 0
-15.709400 5.828200 10.660300 255 0 0
-15.326700 5.426700 2.360000 0 255 255
-16.440001 5.950000 2.460000 0 255 255
-15.730000 4.950000 17.850000 0 255 0
-15.057500 5.332500 16.110001 0 255 0
-15.560000 5.420000 25.170000 0 255 0
-15.551800 5.281800 2.551800 0 255 255
-15.570000 5.526000 18.875999 0 255 0
-16.711500 5.882000 4.911000 0 255 255
-14.923300 5.720000 19.820000 0 255 0
-15.759300 5.976700 2.665400 0 255 0
-15.753300 5.863300 8.953300 255 0 0
-15.768900 5.734400 12.157800 255 0 0
-15.770600 5.780000 15.312500 255 0 0
-15.762400 5.841600 5.808500 255 0 0
-15.766100 5.982400 2.562600 0 255 0
-15.766000 5.738500 12.064500 255 0 0
-15.747100 5.878600 9.055700 255 0 0
-15.769000 5.781000 15.209000 255 0 0
-15.762300 5.839600 5.911100 255 0 0
-15.753800 5.980000 2.816900 0 255 0
-15.747100 5.867100 9.318600 255 0 0
-15.755600 5.735600 12.608900 255 0 0
-15.766400 5.772900 15.860700 255 0 0
-15.760800 5.834200 6.059600 0 255 0
-15.816400 5.881800 3.065500 0 255 0
-15.808800 5.730600 12.460000 255 0 0
-15.809700 5.830800 6.310700 255 0 0
-15.806900 5.786400 9.211500 255 0 0
-15.818600 5.682100 15.711400 255 0 0
-16.645700 6.374300 3.961400 0 255 255
-15.880000 5.820000 9.720000 255 0 0
-15.840000 5.930000 16.459999 255 0 0
-15.840000 5.875000 13.220000 255 0 0
-15.860000 5.790000 6.460000 255 0 0
-15.865000 5.825000 9.815000 255 0 0
-15.860000 5.910000 16.360001 255 0 0
-15.843300 5.793300 6.576700 0 255 0
-15.860000 6.030000 22.520000 0 255 0
-15.850000 5.726700 3.543300 0 255 0
-15.880000 5.810000 9.840000 255 0 0
-15.865000 5.797500 6.712500 255 0 0
-15.600000 5.700000 22.480000 0 255 0
-15.607800 5.984400 2.675600 0 255 0
-15.858000 6.268000 2.656000 0 255 0
-15.854000 6.446000 12.300000 0 255 0
-14.720000 5.778000 8.120000 0 255 0
-15.515400 6.170800 3.016900 0 255 0
-15.530000 5.595000 16.055000 0 255 0
-16.520000 6.324400 4.861100 0 255 255
-16.809999 5.532000 14.663000 0 255 0
-16.500000 6.190000 14.650000 0 255 0
-15.612600 6.181700 3.112000 0 255 0
-15.430000 5.150000 24.709999 0 255 0
-15.420000 5.485000 2.410000 0 255 255
-15.700000 5.810000 14.820000 255 0 0
-15.720000 6.170000 5.810000 255 0 0
-15.713500 6.032600 2.558200 0 255 0
-15.700000 5.879100 11.560900 255 0 0
-16.700001 5.978000 4.610000 0 255 255
-16.605000 5.320000 23.389999 0 255 0
-15.740000 5.630000 15.750000 0 255 0
-15.768300 5.835000 3.125000 255 0 0
-15.760000 5.670000 18.905001 0 255 0
-15.750300 5.866700 6.259300 255 0 0
-15.756000 5.779500 12.410500 255 0 0
-15.758300 5.798300 6.558300 255 0 0
-15.762000 5.682000 12.862000 255 0 0
-16.410700 6.685600 14.560700 0 255 0
-15.720000 5.700000 13.060000 255 0 0
-15.706300 5.820000 3.165000 0 255 0
-15.701700 5.973300 6.510000 255 0 0
-15.701500 5.927200 9.662200 255 0 0
-15.715000 4.735000 11.700000 0 255 0
-15.558000 5.838000 22.511999 0 255 0
-15.559200 5.932300 16.006901 0 255 0
-15.210000 6.885000 3.830000 0 255 255
-16.360001 7.000000 5.250000 0 255 255
-16.368000 4.930000 17.518000 0 255 0
-15.810000 5.941000 2.456000 0 255 0
-15.811700 5.871700 5.605000 255 0 0
-15.804000 5.766000 12.360000 255 0 0
-15.800500 5.817100 8.756200 255 0 0
-15.806400 5.725000 15.512100 255 0 0
-15.826700 5.680000 18.673300 255 0 0
-16.417500 6.185000 3.257500 0 255 255
-16.889999 5.230000 16.309999 0 255 0
-15.604000 5.532000 18.892000 0 255 0
-14.970000 6.820000 3.960000 0 255 255
-16.940001 5.390000 17.780001 0 255 0
-16.057100 4.724300 19.215700 0 255 0
-16.290001 6.710000 3.150000 0 255 255
-16.315001 6.087500 2.892500 0 255 255
-16.299000 5.371000 3.058000 0 255 255
-15.069000 5.163000 11.017000 0 255 0
-16.709999 5.180000 2.980000 0 255 255
-16.930000 5.680000 3.410000 0 255 255
-15.664000 4.873000 12.969000 0 255 0
-16.661699 5.635000 17.853300 0 255 0
-16.058599 5.975700 2.270000 0 255 0
-16.066700 6.023300 2.860000 0 255 0
-16.052900 5.831400 15.907100 0 255 0
-16.049999 6.200000 3.130000 0 255 0
-15.720000 5.030000 2.840000 0 255 255
-15.996700 5.883300 9.913300 255 0 0
-16.001301 5.978700 3.603900 255 0 0
-16.359400 6.279400 3.718100 0 255 255
-16.458000 6.868000 3.400000 0 255 255
-15.804000 4.688000 13.010000 0 255 0
-15.800000 4.616700 16.173300 0 255 0
-16.705000 6.172500 3.922500 0 255 255
-16.709999 6.510000 20.575001 0 255 0
-16.612400 5.428800 3.908000 0 255 255
-16.730000 6.350000 3.760000 0 255 255
-16.610001 5.363300 3.753300 0 255 255
-15.040000 5.420000 22.190001 0 255 0
-15.040000 5.370000 19.080000 0 255 0
-15.720000 6.970000 12.290000 0 255 0
-15.470000 5.360000 24.639999 0 255 0
-15.455000 5.320000 24.713301 0 255 0
-15.410000 4.942500 13.207500 0 255 0
-15.370000 5.572500 24.407499 0 255 0
-14.860000 5.833300 18.263300 0 255 0
-15.490000 6.582500 2.400000 0 255 255
-16.655001 5.560000 23.165001 0 255 0
-16.660000 5.650000 17.730000 0 255 0
-15.510000 5.550000 24.799999 0 255 0
-16.559999 5.992500 3.760000 0 255 255
-16.780001 6.030000 23.219999 0 255 0
-16.549999 5.776700 23.196699 0 255 0
-15.165000 5.570000 2.955000 0 255 255
-16.040001 6.040000 3.393300 255 0 0
-16.680000 5.850000 3.580000 0 255 255
-15.748700 6.772700 3.972700 0 255 255
-16.661100 5.413300 3.165600 0 255 255
-15.600000 6.090000 19.090000 0 255 0
-15.630000 6.940000 12.710000 0 255 0
-16.503300 6.288300 4.813300 0 255 255
-16.809999 5.633300 17.856701 0 255 0
-16.410000 6.120000 4.710000 0 255 255
-15.807100 5.622900 20.458599 0 255 0
-15.810000 5.769400 10.910600 0 255 0
-15.806000 5.866800 4.559700 255 0 0
-15.810700 5.682900 17.213600 255 0 0
-15.811700 5.726700 14.157500 255 0 0
-15.809600 5.829600 7.812500 255 0 0
-15.810000 5.760000 13.040000 255 0 0
-15.830000 5.680000 19.559999 255 0 0
-15.796700 5.866700 6.506700 255 0 0
-15.797500 5.817500 9.650000 255 0 0
-15.807100 5.921700 3.163300 255 0 0
-15.812700 5.727300 16.204500 255 0 0
-16.303301 6.731700 14.556700 0 255 0
-15.856700 5.476700 14.503300 0 255 0
-15.870000 5.650000 24.889999 0 255 0
-16.705000 6.078300 4.160000 0 255 255
-16.614599 5.531400 4.151100 0 255 255
-15.700000 6.020000 11.793300 0 255 0
-16.340000 4.750000 19.340000 0 255 0
-16.357800 4.686700 16.863300 0 255 0
-16.379999 5.215000 4.150000 0 255 255
-15.205000 5.132500 25.007500 0 255 0
-15.001200 5.781800 2.699400 0 255 255
-15.010000 5.460000 22.059999 0 255 0
-15.830000 6.010000 12.740000 255 0 0
-15.805700 6.140000 6.458900 255 0 0
-15.796300 6.190500 3.214700 0 255 0
-15.810000 6.069400 9.507100 255 0 0
-15.390000 5.030000 25.105000 0 255 0
-15.705000 5.240000 3.375000 0 255 255
-15.855000 5.745000 20.465000 255 0 0
-15.852500 5.672500 17.305000 255 0 0
-15.123700 6.592600 2.361600 0 255 255
-16.204500 6.218000 4.766000 0 255 0
-16.209999 5.250000 17.410000 0 255 0
-14.955000 5.687500 21.917500 0 255 0
-15.820000 5.470000 24.420000 0 255 0
-15.056700 5.636700 24.910000 0 255 0
-15.252000 5.334500 3.023500 0 255 255
