-11.620000 0.676700 23.969999 0 255 0
-11.202500 1.275000 27.455000 0 255 0
-11.198600 1.385700 21.167101 0 255 0
-12.602900 2.574300 1.102900 0 255 255
-11.930000 2.900000 3.050000 0 255 255
-10.876700 1.663300 14.870000 0 255 0
-12.520000 2.260000 2.700000 0 255 255
-12.306200 1.626900 3.122300 0 255 255
-11.730000 2.810000 16.400000 0 255 0
-11.720000 2.920000 22.730000 0 255 0
-10.856200 2.127900 16.797600 0 255 0
-12.220000 2.170000 2.650000 0 255 255
-12.230000 2.680000 21.719999 0 255 0
-11.590000 2.600000 20.830000 0 255 0
-11.454300 3.184300 2.808600 0 255 255
-12.360000 1.470000 19.719999 0 255 0
-11.352500 0.785000 23.112499 0 255 0
-11.670000 1.560000 24.410000 0 255 0
-11.650000 1.600000 24.969999 255 0 0
-12.510000 2.570000 3.140000 0 255 255
-12.630000 2.035000 23.469999 0 255 0
-11.106400 1.921800 15.174500 0 255 0
-12.655600 2.681400 12.761900 0 255 0
-12.430000 2.875000 3.705000 0 255 255
-12.100000 2.040000 0.780000 0 255 255
-12.115000 2.595000 3.270000 0 255 255
-12.713300 2.770000 3.220000 0 255 255
-12.660000 2.070000 3.266700 0 255 255
-12.610000 2.045000 3.090000 0 255 255
-12.208000 2.683300 2.605300 0 255 255
-12.213300 2.686700 1.540000 0 255 255
-12.456700 2.688900 2.612200 0 255 255
-12.510000 1.784500 2.651800 0 255 255
-12.555600 2.683300 2.462800 0 255 255
-12.223300 1.339200 2.610800 0 255 255
-12.600000 2.150000 2.020000 0 255 255
-10.510700 1.582000 17.418699 0 255 0
-11.606000 2.982000 3.558000 0 255 255
-10.760000 2.340000 23.040001 0 255 0
-10.766700 2.031700 16.906700 0 255 0
-11.766700 1.583300 24.346701 0 255 0
-11.750000 1.430000 27.400000 0 255 0
-10.710000 2.365000 22.865000 0 255 0
-11.290000 1.000000 24.090000 0 255 0
-11.265000 1.422500 14.921200 0 255 0
-12.480000 2.170000 1.540000 0 255 255
-11.415400 3.435400 3.309200 0 255 255
-12.552900 2.878600 3.762900 0 255 255
-12.403300 3.083300 3.580000 0 255 255
-12.100000 2.370000 21.330000 0 255 0
-12.101700 2.583300 3.310000 0 255 255
-11.210000 2.170000 27.129999 0 255 0
-11.063200 3.486400 2.804300 0 255 255
-11.096700 3.480000 2.768300 0 255 255
-12.620000 2.650000 12.860000 0 255 0
-12.630000 2.790000 3.210000 0 255 255
-12.515000 2.780000 3.030000 0 255 255
-12.463300 1.583300 3.123300 0 255 255
-12.615000 2.045000 3.075000 0 255 255
-12.410000 3.026000 12.708000 0 255 0
-12.407500 2.780000 2.902500 0 255 255
-11.365000 2.920000 2.472500 0 255 255
-12.162500 3.171300 2.554600 0 255 255
-12.646700 2.720000 2.660000 0 255 255
-12.514000 2.685300 2.416000 0 255 255
-12.553600 2.692700 2.408200 0 255 255
-12.600000 1.995000 2.460000 0 255 255
-12.570000 2.480000 3.400000 0 255 255
-12.495000 2.630000 21.770000 0 255 0
-12.507500 3.143700 2.168800 0 255 255
-12.461800 3.330000 1.710900 0 255 255
-11.470000 1.920000 19.340000 255 0 0
-11.448000 2.498000 4.756000 255 0 0
-11.480000 2.520000 7.920000 255 0 0
-11.446100 2.427200 1.410000 0 255 0
-12.030000 2.090000 22.090000 0 255 0
-10.964000 2.784000 21.066000 0 255 0
-11.380000 2.100000 22.200001 0 255 0
-11.050000 2.560000 24.600000 0 255 0
-11.161700 1.478300 21.001699 0 255 0
-12.110000 2.670000 21.407499 0 255 0
-12.500000 1.880000 25.980000 0 255 0
-12.503300 2.140000 23.459999 0 255 0
-11.968000 2.788000 2.968000 0 255 255
-11.970000 2.530000 1.030000 0 255 255
-12.712700 2.184500 21.566401 0 255 0
-12.307500 2.935000 16.510000 0 255 0
-12.612800 1.675000 17.369400 0 255 0
-11.680000 2.350000 8.770000 255 0 0
-11.662500 2.012500 15.295000 255 0 0
-11.660000 2.272400 5.410300 255 0 0
-11.660000 2.210000 2.270000 255 0 0
-11.640000 2.085000 18.459999 255 0 0
-11.660000 2.366700 11.905000 255 0 0
-11.650000 2.250000 1.610000 255 0 0
-11.670000 2.330000 8.105000 255 0 0
-11.657000 2.371000 11.361000 255 0 0
-11.666700 2.020000 15.873300 255 0 0
-11.673300 2.080000 19.110001 255 0 0
-11.666900 2.276600 4.857200 0 255 0
-11.407100 3.625300 3.661200 0 255 255
-11.490000 1.350000 25.700001 0 255 0
-11.330000 3.000000 16.280001 0 255 0
-11.310000 3.170000 3.595000 0 255 255
-11.112500 3.333800 3.397500 0 255 255
-10.824400 3.126700 3.218900 0 255 255
-12.575000 2.800000 3.715000 0 255 255
-10.730000 3.270000 3.050000 0 255 255
-11.207800 3.524400 3.165600 0 255 255
-12.413300 3.266700 3.513300 0 255 255
-11.210000 3.490000 2.760000 0 255 255
-12.510000 2.760000 3.140000 0 255 255
-12.315000 2.990000 3.075000 0 255 255
-11.347300 3.325500 2.759100 0 255 255
-11.409000 3.128100 2.759000 0 255 255
-12.412000 3.230000 2.870000 0 255 255
-11.990000 1.350000 25.660000 0 255 0
-12.430000 1.810000 2.890000 0 255 255
-12.530000 2.480000 21.480000 0 255 0
-12.503800 2.975600 2.658700 0 255 255
-11.153800 3.072500 2.411300 0 255 255
-12.475300 3.188000 2.548000 0 255 255
-12.257500 2.735000 1.840000 0 255 255
-12.240000 2.720000 2.480000 0 255 255
-12.611700 2.721700 2.401700 0 255 255
-12.558300 2.720000 2.356700 0 255 255
-12.458000 2.378000 17.554001 0 255 0
-12.504300 3.180500 2.204800 0 255 255
-12.450000 2.650000 21.900000 0 255 0
-12.450000 3.150000 2.130000 0 255 255
-12.653300 1.993300 2.206700 0 255 255
-11.560000 0.673300 23.830000 0 255 0
-11.662500 0.731300 21.656300 0 255 0
-11.065000 2.565000 24.155001 0 255 0
-12.353300 2.110000 21.666700 0 255 0
-12.620000 1.520000 17.530001 0 255 0
-12.612500 1.472500 20.767500 0 255 0
-11.375000 3.630000 3.355000 0 255 255
-12.500000 2.833300 2.763300 0 255 255
-12.610000 2.400000 2.330000 0 255 255
-12.516700 2.936700 12.853300 0 255 0
-12.490000 2.880000 3.100000 0 255 255
-12.620000 1.880000 23.770000 0 255 0
-12.600000 1.990000 17.453300 0 255 0
-11.530000 0.740000 24.040001 0 255 0
-11.530000 0.670000 26.670000 0 255 0
-11.570000 3.372000 3.406000 0 255 255
-12.310000 1.430000 3.340000 0 255 255
-12.490000 1.210000 27.209999 0 255 0
-12.527100 1.574300 17.312901 0 255 0
-12.505000 1.290000 24.049999 0 255 0
-11.206900 3.288700 3.008100 0 255 255
-12.263300 2.976700 3.248300 0 255 255
-12.465000 2.735000 3.125000 0 255 255
-11.304000 3.300000 2.756000 0 255 255
-11.362400 3.127600 2.715900 0 255 255
-11.470000 1.980000 18.110001 255 0 0
-11.457100 2.532700 2.559500 255 0 0
-11.655700 3.341400 2.514300 0 255 255
-12.561200 2.732500 2.663700 0 255 255
-12.556400 2.731600 2.616800 0 255 255
-12.462000 3.221300 2.512000 0 255 255
-12.496700 2.977800 2.311100 0 255 255
-11.425300 2.516800 2.007900 255 0 0
-12.207000 3.129000 1.856000 0 255 255
-12.500000 2.610000 1.650000 0 255 255
-12.502000 2.585000 17.466000 0 255 0
-12.260000 3.370000 1.670000 0 255 255
-11.155000 0.780000 27.254999 0 255 0
-11.360800 0.827500 21.749201 0 255 0
-11.120000 1.780000 19.719999 0 255 0
-12.146700 2.623300 21.553301 0 255 0
-11.750000 2.780000 3.770000 0 255 255
-11.756700 2.336700 25.806700 0 255 0
-11.380000 3.090000 19.040001 0 255 0
-11.352100 3.186800 12.710000 0 255 0
-12.240000 1.860000 2.560000 0 255 255
-12.260000 2.835000 12.672500 0 255 0
-11.611400 3.276800 12.916200 0 255 0
-11.620000 3.040000 3.000000 0 255 255
-12.715000 1.726700 23.719999 0 255 0
-12.450000 2.870000 12.810000 0 255 0
-12.473300 3.130000 2.910000 0 255 255
-12.463300 1.685000 2.546700 0 255 255
-12.454300 3.027100 12.771400 0 255 0
-11.920000 2.110000 18.250000 0 255 0
-12.650000 2.465000 3.130000 0 255 255
-12.666100 2.633900 12.762100 0 255 0
-11.267100 3.544100 4.011800 0 255 255
-10.860400 3.325000 3.402900 0 255 255
-11.008300 3.330000 3.253300 0 255 255
-12.150000 1.695000 26.575001 0 255 0
-12.120000 1.270000 2.920000 0 255 255
-12.120000 2.620000 3.410000 0 255 255
-12.100000 2.436700 16.466700 0 255 0
-11.213200 3.372800 2.965200 0 255 255
-11.063300 3.183300 2.726700 0 255 255
-11.125000 3.370000 2.740000 0 255 255
-11.705000 2.775000 2.870000 0 255 255
-12.351800 3.326400 2.458200 0 255 255
-12.340000 3.330000 2.420000 0 255 255
-11.850000 2.930000 2.573300 0 255 255
-11.658100 2.426100 8.705800 255 0 0
-11.865200 3.476200 1.505200 0 255 255
-11.606000 3.220000 0.774000 0 255 255
-11.570000 2.300000 27.430000 0 255 0
-11.630000 3.170000 3.370000 0 255 255
-11.790000 2.400000 2.140000 255 0 0
-11.790000 2.780000 2.450000 0 255 255
-11.712900 3.571400 3.755700 0 255 255
-11.180000 0.790000 26.080000 0 255 0
-12.552700 1.770000 2.664500 0 255 255
-11.610000 0.940000 22.110001 0 255 0
-12.656200 2.030600 23.468800 0 255 0
-11.300000 1.090000 27.480000 0 255 0
-11.157500 1.732500 18.163799 0 255 0
-11.155900 1.687100 15.008200 0 255 0
-11.580000 2.770000 3.600000 0 255 255
-11.563700 2.326300 13.010000 255 0 0
-11.554300 2.171400 16.260000 255 0 0
-12.240000 2.820000 0.750000 0 255 255
-12.460000 1.660000 1.780000 0 255 255
-12.210000 3.450000 2.090000 0 255 255
-12.475000 2.885000 3.370000 0 255 255
-12.440000 2.540000 24.270000 0 255 0
-12.650000 2.490000 1.720000 0 255 255
-12.305000 2.480000 2.415000 0 255 255
-12.765000 2.175000 17.545000 0 255 0
-12.780000 2.070000 17.629999 0 255 0
-12.440000 1.710000 3.250000 0 255 255
-11.230000 1.880000 25.410000 0 255 0
-11.390000 2.380000 21.139999 0 255 0
-12.695000 2.090000 2.675000 0 255 255
-12.810000 2.327500 2.552500 0 255 255
-11.605000 1.645000 25.389999 255 0 0
-11.630000 1.700000 22.379999 255 0 0
-11.050000 1.930000 18.250000 0 255 0
-10.810000 1.690000 18.059999 0 255 0
-10.810000 1.720000 14.920000 0 255 0
-11.850000 3.070000 0.760000 0 255 255
-11.300000 1.483800 23.363800 0 255 0
-10.660000 1.835000 1.610000 0 255 255
-11.550000 2.980000 19.120001 0 255 0
-12.302500 1.087500 27.012501 0 255 0
-12.307500 1.135000 23.862499 0 255 0
-11.820000 1.750000 1.580000 0 255 255
-11.102900 2.020000 15.255700 0 255 0
-12.405000 2.130000 21.625000 0 255 0
-11.958500 3.333200 12.857000 0 255 0
-11.765000 3.625000 3.665000 0 255 255
-12.500000 2.976700 2.913300 0 255 255
-12.525000 3.175000 1.965000 0 255 255
-11.695000 2.565000 2.220000 255 0 0
-11.722500 2.232500 11.702500 255 0 0
-11.705500 2.286400 8.559500 0 255 0
-11.850000 2.780000 1.110000 0 255 255
-12.410000 2.440000 0.910000 0 255 255
-12.757500 1.917500 17.357500 0 255 0
-10.640000 1.850000 1.670000 0 255 255
-11.060000 2.537100 24.451401 0 255 0
-11.565000 2.573300 21.045000 0 255 0
-12.660000 2.320000 22.153299 0 255 0
-12.180000 1.160000 23.700001 0 255 0
-12.277500 2.532500 2.967500 0 255 255
-10.666700 1.476700 23.456699 0 255 0
-10.654000 1.522000 26.615999 0 255 0
-12.615000 2.985000 2.650000 0 255 255
-12.505000 2.695000 1.790000 0 255 255
-12.223300 2.120000 21.663300 0 255 0
-12.450000 2.700000 1.540000 0 255 255
-12.466700 2.533300 17.548300 0 255 0
-11.660000 2.230000 27.615000 0 255 0
-11.655000 2.631700 1.511700 0 255 0
-11.265000 1.090000 25.870001 0 255 0
-11.430000 0.930000 18.440001 0 255 0
-11.964300 0.792900 22.154301 0 255 0
-12.470000 1.076000 20.908001 0 255 0
-12.457800 1.131100 23.955601 0 255 0
-11.600000 2.020000 23.059999 0 255 0
-11.612500 2.138700 16.563700 0 255 0
-11.610000 2.076700 19.693300 0 255 0
-11.570000 2.640000 21.059999 0 255 0
-12.420000 3.090000 2.590000 0 255 255
-12.420000 2.390000 21.559999 0 255 0
-12.670000 2.140000 1.240000 0 255 255
-11.610000 3.310000 3.790000 0 255 255
-12.562500 1.990000 17.512501 0 255 0
-11.765000 1.970000 19.860001 255 0 0
-11.750000 1.830000 22.920000 255 0 0
-12.106800 2.930000 1.662600 0 255 255
-12.210000 1.080000 26.075001 0 255 0
-11.707100 0.782900 26.661400 0 255 0
-12.372500 2.365000 0.907500 0 255 255
-11.106400 1.434500 23.364500 0 255 0
-11.450000 2.270000 27.639999 0 255 0
-11.322500 1.622500 15.192500 0 255 0
-11.357500 1.182500 26.022499 0 255 0
-12.526700 2.533300 3.560000 0 255 255
-12.420000 3.030000 2.830000 0 255 255
-12.413300 2.736700 21.606701 0 255 0
-11.021700 2.675000 14.863300 0 255 0
-11.360000 3.143300 16.400000 0 255 0
-11.590000 1.140000 27.270000 0 255 0
-11.650000 1.600000 24.340000 0 255 0
-11.650000 1.540000 21.760000 0 255 0
-11.655000 1.465000 18.395000 0 255 0
-11.257000 1.329000 21.752001 0 255 0
-11.540000 2.090000 14.520000 255 0 0
-11.553300 1.983300 21.016701 255 0 0
-11.570000 2.127500 17.770000 255 0 0
-11.560000 1.485000 27.719999 0 255 0
-11.550000 2.123300 18.206699 255 0 0
-12.765000 1.930000 19.905001 0 255 0
-11.210000 2.300000 23.900000 0 255 0
-11.770000 1.680000 0.890000 0 255 255
-12.362100 2.936300 12.904200 0 255 0
-12.303300 1.833300 0.913300 0 255 255
-12.306000 2.842000 12.766000 0 255 0
-10.706200 1.987700 16.773100 0 255 0
-10.606200 2.226300 15.051300 0 255 0
-12.490000 1.440000 18.070000 0 255 0
-12.100000 2.345000 16.605000 0 255 0
-12.090000 2.580000 0.800000 0 255 255
-12.524400 1.486700 19.711100 0 255 0
-11.367500 3.176200 2.752500 0 255 255
-11.765500 2.681000 1.264500 0 255 255
-11.070000 1.510000 15.120000 0 255 0
-12.530000 2.490000 0.890000 0 255 255
-12.540000 2.840000 3.625000 0 255 255
-12.630000 2.700000 3.970000 0 255 255
-11.505900 0.879400 23.915300 0 255 0
-11.020000 1.875000 19.825001 0 255 0
-11.697900 2.425000 6.117100 255 0 0
-11.055000 0.930000 23.125000 0 255 0
-11.810000 1.780000 20.400000 0 255 0
-11.770000 1.010000 18.610001 0 255 0
-11.760000 1.100000 21.840000 0 255 0
-10.760000 1.126700 23.456699 0 255 0
-11.370000 2.070000 23.889999 0 255 0
-11.805000 3.010000 21.264999 0 255 0
-10.730000 1.700000 16.990000 0 255 0
-11.580000 2.890000 12.760000 0 255 0
-11.560000 2.560000 6.630000 255 0 0
-11.310000 1.550000 23.445000 0 255 0
-10.770000 1.960000 24.850000 0 255 0
-10.759700 2.630900 14.653600 0 255 0
-11.260000 1.232000 25.705999 0 255 0
-12.626700 1.833300 2.800000 0 255 255
-10.657500 1.530000 17.407499 0 255 0
-12.170000 3.450000 3.580000 0 255 255
-12.715000 2.620000 2.455000 0 255 255
-12.550600 1.326500 17.814699 0 255 0
-10.814200 1.429700 14.908200 0 255 0
-11.390000 1.815000 26.010000 0 255 0
-11.422500 2.022500 12.962500 255 0 0
-12.310000 1.220000 27.459999 0 255 0
-12.540000 1.660000 2.420000 0 255 255
-12.330000 2.450000 1.530000 0 255 255
-11.690000 1.280000 22.270000 0 255 0
-12.610000 2.780000 3.990000 0 255 255
-10.695000 1.775000 17.004999 0 255 0
-10.710000 2.122700 16.817301 0 255 0
-12.190000 0.760000 25.230000 0 255 0
-12.160700 1.379600 17.907000 0 255 0
-12.180000 1.220000 21.219999 0 255 0
-11.280000 1.710000 23.760000 0 255 0
-11.475000 2.569000 4.170000 255 0 0
-11.296700 1.126700 25.716700 0 255 0
-11.510000 2.210000 15.330000 255 0 0
-12.560000 2.390000 21.540001 0 255 0
-10.656700 1.626700 17.363300 0 255 0
-10.655000 1.710000 26.795000 0 255 0
-11.863300 3.134400 1.151100 0 255 255
-11.060000 2.280000 0.690000 0 255 255
-11.390000 2.100000 22.000000 0 255 0
-12.462000 2.728000 2.610000 0 255 255
-12.430000 1.940000 1.325000 0 255 255
-10.670000 2.810000 14.860000 0 255 0
-11.810000 3.085000 2.460000 0 255 255
-11.760000 2.450000 0.830000 0 255 255
-11.760000 2.240000 13.850000 255 0 0
-11.740000 2.470000 3.940000 255 0 0
-11.250000 1.738800 15.205000 0 255 0
-11.575000 2.375000 27.610001 0 255 0
-11.554300 2.325700 11.911700 255 0 0
-11.553300 2.276700 8.673300 255 0 0
-11.550800 2.183800 14.956900 0 255 0
-11.550000 2.460000 26.780001 0 255 0
-11.555600 2.273100 13.711200 255 0 0
-11.080000 1.580000 18.290001 0 255 0
-11.255000 0.870000 24.011299 0 255 0
-11.100000 2.142000 15.162000 0 255 0
-11.210000 1.000000 27.400000 0 255 0
-11.220000 1.030000 24.170000 0 255 0
-11.857400 3.131900 16.458500 0 255 0
-11.910000 2.760000 2.460000 0 255 255
-11.910000 2.780000 1.500000 0 255 255
-11.403300 2.463300 24.016701 0 255 0
-11.405000 2.415000 27.170000 0 255 0
-12.280000 1.040000 23.580000 0 255 0
-12.261100 1.477800 1.312200 0 255 255
-11.164000 3.382000 3.464000 0 255 255
-11.625000 2.972500 20.762501 0 255 0
-11.730000 2.430000 10.410000 255 0 0
-11.730000 2.760000 1.400000 0 255 0
-12.306700 1.333300 27.066700 0 255 0
-12.320000 1.200000 23.990000 0 255 0
-11.310000 1.560000 26.600000 0 255 0
-12.165000 1.835000 25.745001 0 255 0
-12.520000 1.830000 25.780001 0 255 0
-12.110000 3.170000 1.475000 0 255 255
-12.112000 3.176000 1.612000 0 255 255
-12.366700 1.196700 19.753300 0 255 0
-12.515000 2.585000 2.665000 0 255 255
-12.305000 2.840000 16.510000 0 255 0
-12.280000 2.640000 22.700001 0 255 0
-11.760000 3.180000 16.375000 0 255 0
-11.767500 3.377500 3.695000 0 255 255
-11.960000 3.220000 2.700000 0 255 255
-11.750000 1.950000 23.080000 0 255 0
-11.780000 2.360000 0.900000 0 255 255
-11.754800 2.177000 13.558300 255 0 0
-11.749000 2.015000 16.705999 255 0 0
-11.743300 2.280000 7.200000 255 0 0
-11.740000 2.130000 10.390000 255 0 0
-12.710000 2.470000 2.660000 0 255 255
-12.264700 2.079300 21.669300 0 255 0
-11.500000 3.250000 3.290000 0 255 255
-11.508800 3.274400 12.859100 0 255 0
-11.262500 1.675000 23.807501 0 255 0
-12.020000 2.480000 21.459999 0 255 0
-12.180000 3.120000 3.290000 0 255 255
-12.356700 2.590000 22.793301 0 255 0
-10.668300 2.371700 22.860001 0 255 0
-10.950000 2.520000 24.400000 0 255 0
-10.958000 2.794000 14.604000 0 255 0
-12.470000 3.135000 1.210000 0 255 255
-11.400000 3.035000 16.340000 0 255 0
-10.690000 2.750000 16.240000 0 255 0
-10.858100 3.383100 2.719200 0 255 255
-11.690000 2.700000 2.390000 0 255 0
-12.706700 2.390000 1.896700 0 255 255
-12.460000 1.980000 3.010000 0 255 255
-11.850000 2.740000 26.120001 0 255 0
-11.860000 2.695000 22.850000 0 255 0
-12.465000 1.095000 24.000000 0 255 0
-12.360000 1.140000 24.100000 0 255 0
-12.351400 1.076400 20.955000 0 255 0
-11.910000 1.400000 17.910000 0 255 0
-12.320000 2.870000 1.710000 0 255 255
-11.358900 1.781700 15.051700 0 255 0
-11.480000 2.030000 12.810000 255 0 0
-11.470000 2.070000 15.980000 255 0 0
-11.740000 0.900000 22.340000 0 255 0
-12.590000 2.320000 2.520000 0 255 255
-12.620000 2.034000 21.658001 0 255 0
-11.240000 1.650000 14.980000 0 255 0
-11.240000 1.310000 21.530001 0 255 0
-12.260000 2.430000 1.500000 0 255 255
-11.460000 1.990000 14.230000 255 0 0
-11.240000 1.570000 27.525000 0 255 0
-11.800000 1.990000 18.840000 255 0 0
-12.060000 2.490000 19.740000 0 255 0
-12.058300 2.438300 16.510000 0 255 0
-12.430000 3.180000 3.420000 0 255 255
-11.275000 2.915000 20.700001 0 255 0
-12.420000 3.270000 3.030000 0 255 255
-12.505000 2.485000 1.125000 0 255 255
-12.370000 2.900000 2.930000 0 255 255
-12.190000 3.390000 3.960000 0 255 255
-12.490000 2.095000 17.430000 0 255 0
-11.590000 2.370000 2.020000 255 0 0
-11.612000 2.124000 17.066000 255 0 0
-11.470000 1.081500 23.864599 0 255 0
-11.466700 1.120000 27.120001 0 255 0
-12.466700 2.416700 3.823300 0 255 255
-11.230000 1.330000 21.510000 0 255 0
-12.250000 1.782500 0.905000 0 255 255
-11.130000 1.560000 21.559999 0 255 0
-10.900000 1.170000 27.410000 0 255 0
-12.570000 2.245000 2.920000 0 255 255
-11.330000 2.250000 7.330000 255 0 0
-11.330000 2.520000 27.120001 0 255 0
-11.302000 2.584000 23.962000 0 255 0
-10.725000 2.010000 1.140000 0 255 255
-11.400000 1.790000 22.530001 0 255 0
-11.810000 3.565000 3.855000 0 255 255
-11.400000 2.430000 9.710000 0 255 0
-11.417700 2.473400 6.459200 255 0 0
-12.690000 2.050000 21.740000 0 255 0
-12.330000 2.740000 3.505000 0 255 255
-11.990000 3.120000 2.800000 0 255 255
-11.654500 2.233200 6.861800 255 0 0
-11.666700 2.383300 16.510000 0 255 0
-11.655000 2.030000 19.250000 255 0 0
-11.662900 2.229400 7.808600 255 0 0
-11.650000 2.110000 25.750000 0 255 0
-12.700000 2.230000 22.110001 0 255 0
-12.375000 2.335000 21.504999 0 255 0
-11.562600 2.629500 20.912100 0 255 0
-11.261700 1.725000 24.754999 0 255 0
-10.820000 1.700000 15.230000 0 255 0
-10.817100 1.630000 18.255699 0 255 0
-10.812600 1.928400 24.071100 0 255 0
-10.816700 1.886700 27.223301 0 255 0
-11.046700 1.068300 27.508301 0 255 0
-11.810000 2.336700 2.916700 0 255 0
-11.060000 3.400000 3.300000 0 255 255
-11.555000 1.630000 25.205000 0 255 0
-11.540000 1.650000 24.650000 255 0 0
-12.404600 1.631500 2.969200 0 255 255
-12.455000 1.635000 3.015000 0 255 255
-12.314000 1.518000 3.346000 0 255 255
-11.830000 2.060000 25.355000 0 255 0
-11.813300 2.430000 3.316700 0 255 0
-11.620000 2.680000 2.990000 0 255 0
-11.313300 0.934400 22.944401 0 255 0
-11.370000 0.960000 23.820000 0 255 0
-11.300000 1.027500 24.100000 0 255 0
-11.340000 1.770000 20.780001 0 255 0
-11.040000 1.300000 27.264999 0 255 0
-11.055700 3.530000 3.354300 0 255 255
-11.100000 2.310000 23.160000 0 255 0
-10.980000 3.000000 0.890000 0 255 255
-10.807800 2.873900 14.714400 0 255 0
-11.616500 2.525900 16.558800 0 255 0
-11.590000 2.190000 13.990000 255 0 0
-12.530000 1.820000 2.370000 0 255 255
-12.465000 1.885000 2.610000 0 255 255
-11.553900 2.580000 2.913300 255 0 0
-11.562400 2.586000 2.562000 255 0 0
-12.368000 2.686000 2.952000 0 255 255
-12.765000 2.162500 1.797500 0 255 255
-10.560000 1.870000 26.080000 0 255 0
-12.570000 2.080000 1.540000 0 255 255
-12.565000 1.687500 26.857500 0 255 0
-12.565000 1.640000 23.615000 0 255 0
-12.545000 1.735000 17.315001 0 255 0
-12.760000 2.024400 21.464399 0 255 0
-12.618300 2.025000 23.561701 0 255 0
-12.410000 2.700000 3.330000 0 255 255
-11.912000 1.280000 27.368000 0 255 0
-12.075000 2.170000 19.120001 0 255 0
-12.050000 2.210000 22.160000 0 255 0
-10.566700 1.780000 26.116699 0 255 0
-11.690000 2.550000 4.960000 255 0 0
-11.713300 2.226700 11.300000 255 0 0
-11.707900 2.279600 8.160400 255 0 0
-11.697800 2.571100 1.803300 255 0 0
-11.708900 1.973300 16.700001 255 0 0
-11.710000 1.920000 19.940001 255 0 0
-11.710000 1.695000 22.645000 255 0 0
-11.950000 1.270000 27.400000 0 255 0
-11.980000 1.140000 17.990000 0 255 0
-11.962500 1.427500 24.352501 0 255 0
-12.330000 2.700000 2.290000 0 255 255
-12.656700 2.020000 2.603300 0 255 255
-12.466700 2.742200 2.555600 0 255 255
-11.154700 3.032400 2.361500 0 255 255
-11.856700 2.726700 2.615000 0 255 0
-12.056700 3.223300 2.800000 0 255 255
-12.400000 3.066000 12.770000 0 255 0
-12.400000 2.820000 2.950000 0 255 255
-12.565000 2.127500 3.120000 0 255 255
-12.715000 2.183300 3.455000 0 255 255
-11.218100 3.138100 2.856500 0 255 255
-11.818800 2.435000 16.367500 0 255 0
-11.806700 2.633300 3.313300 0 255 0
-12.300000 2.970000 12.940000 0 255 0
-12.300000 2.940000 3.560000 0 255 255
-11.575000 2.875000 3.410000 0 255 255
-11.220000 3.090000 3.580000 0 255 255
-12.715000 2.495000 12.720000 0 255 0
-12.680000 2.527500 12.850000 0 255 0
-12.720000 2.760000 2.870000 0 255 255
-12.362000 2.842000 12.652000 0 255 0
-12.355000 2.880000 3.230000 0 255 255
-12.559000 1.473800 19.758600 0 255 0
-10.815000 1.886700 18.196699 0 255 0
-10.811300 1.930600 15.055200 0 255 0
-12.470000 2.829300 2.498600 0 255 255
-12.455000 2.722500 21.665001 0 255 0
-12.360000 1.060000 24.100000 0 255 0
-12.510000 2.270000 3.530000 0 255 255
-11.600000 2.530000 27.330000 0 255 0
-11.553500 2.594700 1.257100 0 255 255
-11.780000 1.580000 24.230000 0 255 0
-11.760000 1.440000 27.580000 0 255 0
-11.750000 1.700000 20.290001 0 255 0
-11.774500 3.537300 1.550900 0 255 255
-12.362500 3.372500 2.012500 0 255 255
-11.296400 3.070000 2.566400 0 255 255
-12.245000 2.922500 12.617500 0 255 0
-12.270000 2.760000 2.855000 0 255 255
-12.290000 2.070000 2.970000 0 255 255
-12.270000 2.765000 2.895000 0 255 255
-10.830000 3.195000 2.605000 0 255 255
-12.670000 2.840000 3.190000 0 255 255
-11.764300 2.977200 12.860700 0 255 0
-11.805800 3.029200 3.250000 0 255 255
-12.106000 3.088000 3.402000 0 255 255
-11.307500 3.580000 3.180000 0 255 255
-11.306000 3.384000 3.218000 0 255 255
-10.714000 3.084700 3.126700 0 255 255
-10.716800 3.291600 3.213700 0 255 255
-11.552100 2.283200 12.362600 255 0 0
-11.560000 2.160000 18.299999 255 0 0
-11.553300 2.290700 11.811300 255 0 0
-12.758700 1.891300 17.463800 0 255 0
-12.476700 1.283300 17.213301 0 255 0
-12.461200 2.683700 21.716200 0 255 0
-11.165600 3.430000 3.197800 0 255 255
-11.755000 1.060000 27.455000 0 255 0
-11.607500 2.082500 17.605000 255 0 0
-11.605000 2.025000 20.764999 255 0 0
-11.750000 1.875000 23.905001 0 255 0
-11.751400 1.975700 17.612900 255 0 0
-11.765000 2.085000 10.880000 0 255 0
-11.763300 1.830800 20.753300 255 0 0
-11.740000 1.850000 20.430000 255 0 0
-11.755000 1.981700 17.151699 255 0 0
-11.760000 1.860000 23.650000 0 255 0
-11.555000 2.970000 2.758300 0 255 255
-12.568600 2.125700 2.217100 0 255 255
-12.440000 2.450000 21.540001 0 255 0
-12.460000 2.930000 2.560000 0 255 255
-11.911000 3.334000 2.660000 0 255 255
-11.058600 3.391400 2.507100 0 255 255
-11.195900 3.423700 2.617400 0 255 255
-11.330000 2.380000 4.810000 255 0 0
-11.315000 2.277500 24.152500 0 255 0
-11.164700 3.431000 2.658500 0 255 255
-11.197500 2.382500 24.209999 0 255 0
-11.210000 2.410000 21.070000 0 255 0
-11.306000 3.286000 2.954000 0 255 255
-11.030000 3.080000 16.106701 0 255 0
-11.020000 3.286700 3.043300 0 255 255
-12.506700 2.840000 3.646700 0 255 255
-10.995000 2.318300 14.711700 0 255 0
-11.610000 3.446700 3.453300 0 255 255
-11.111700 3.536700 3.308300 0 255 255
-10.910000 3.085000 3.320000 0 255 255
-11.060000 3.350000 3.460000 0 255 255
-11.108000 3.388000 3.502000 0 255 255
-11.207900 3.177600 3.556400 0 255 255
-12.517500 1.727500 17.407499 0 255 0
-12.290000 2.640000 24.299999 0 255 0
-12.000000 2.570000 3.200000 0 255 255
-11.140000 2.520000 20.969999 0 255 0
-11.140000 2.610000 14.650000 0 255 0
-12.353300 1.330000 20.958099 0 255 0
-11.350000 3.110000 2.890000 0 255 255
-11.255000 1.090000 27.365000 0 255 0
-11.262500 1.035000 24.120001 0 255 0
-11.714300 0.782900 22.305700 0 255 0
-11.572500 2.187500 16.365000 255 0 0
-11.562000 2.320000 13.308000 255 0 0
-11.550000 2.290000 9.810000 255 0 0
-11.568300 2.175000 16.311701 255 0 0
-11.560900 2.321700 12.953900 255 0 0
-11.590000 0.910000 23.940001 0 255 0
-11.610000 0.730000 21.850000 0 255 0
-12.415000 2.927500 2.527500 0 255 255
-11.360000 2.880000 20.799999 0 255 0
-11.380000 2.400000 2.000000 255 0 0
-11.370000 2.233300 5.323300 255 0 0
-11.380000 2.290000 8.580000 255 0 0
-12.615000 2.670000 2.525000 0 255 255
-12.603600 2.627900 2.557900 0 255 255
-12.606000 2.638000 2.602000 0 255 255
-11.617500 2.685000 2.901200 0 255 0
-12.620000 2.810000 3.030000 0 255 255
-12.413300 2.830000 3.380000 0 255 255
-11.110000 3.534200 3.170800 0 255 255
-10.671200 3.085300 3.155900 0 255 255
-10.903300 1.693300 26.850000 0 255 0
-10.620000 1.830000 24.360001 0 255 0
-12.430000 2.840000 3.510000 0 255 255
-12.620000 2.830000 3.380000 0 255 255
-12.615200 2.679300 12.756300 0 255 0
-12.502500 3.175000 2.907500 0 255 255
-12.625000 2.640000 12.730000 0 255 0
-12.620000 2.780000 2.955000 0 255 255
-12.170000 2.900000 12.920000 0 255 0
-11.595000 2.330000 1.965000 255 0 0
-11.630000 2.170000 11.720000 255 0 0
-11.615700 2.260000 5.202900 255 0 0
-11.616700 2.266700 4.556700 255 0 0
-11.618000 2.216000 7.907000 255 0 0
-11.630000 2.320000 1.430000 0 255 0
-12.720000 2.327100 21.618601 0 255 0
-12.110000 2.480000 2.600000 0 255 255
-12.120000 2.773300 21.406700 0 255 0
-11.130000 2.480000 21.150000 0 255 0
-11.100000 2.630000 24.525000 0 255 0
-12.657100 2.179700 17.513901 0 255 0
-11.930000 1.400000 17.940001 0 255 0
-11.164700 3.433300 2.197300 0 255 255
-11.540000 0.900000 21.959999 0 255 0
-11.560000 3.339000 2.462000 0 255 255
-11.858000 2.622500 2.513500 0 255 0
-11.160000 2.220000 25.780001 0 255 0
-11.211600 3.370000 2.853600 0 255 255
-12.350000 1.750000 25.750000 0 255 0
-12.510000 1.920000 3.243300 0 255 255
-12.410000 1.780000 25.879999 0 255 0
-12.160000 1.410000 3.110000 0 255 255
-11.057900 3.379300 3.110700 0 255 255
-11.380000 3.520000 3.550000 0 255 255
-12.190000 1.150000 23.780001 0 255 0
-10.694000 1.336000 22.552000 0 255 0
-11.340000 3.580000 4.030000 0 255 255
-12.519100 2.580000 2.461800 0 255 255
-12.430000 2.070000 2.580000 0 255 255
-12.666700 2.536700 17.503300 0 255 0
-12.040000 1.970000 17.370001 0 255 0
-12.480000 3.020000 1.200000 0 255 255
-12.110000 2.726000 19.893999 0 255 0
-11.661700 2.228300 14.611700 255 0 0
-11.663300 2.477900 4.806300 255 0 0
-11.780000 1.680000 20.174999 0 255 0
-11.760000 1.585000 26.920000 0 255 0
-10.630000 1.970000 1.230000 0 255 255
-11.780000 1.740000 21.780001 0 255 0
-11.765000 1.895000 19.254999 255 0 0
-11.760000 1.620000 27.820000 0 255 0
-11.300000 2.710000 21.155001 0 255 0
-11.096000 2.836000 21.010000 0 255 0
-12.718300 2.128300 2.553300 0 255 255
-10.560000 1.790000 25.100000 0 255 0
-10.570000 1.770000 26.150000 0 255 0
-12.107500 2.680000 21.764999 0 255 0
-11.680000 1.235000 27.355000 0 255 0
-11.730000 1.530000 22.639999 0 255 0
-12.140000 1.960000 0.960000 0 255 255
-12.463300 3.123300 2.026700 0 255 255
-12.420000 3.100000 3.890000 0 255 255
-11.475000 1.995000 13.925000 255 0 0
-11.530000 3.020000 2.560000 0 255 255
-11.145000 2.340000 20.920000 0 255 0
-11.320000 2.790000 20.900000 0 255 0
-11.315000 2.730000 21.049999 0 255 0
-11.105000 2.735000 21.094999 0 255 0
-11.120000 2.690000 24.370001 0 255 0
-12.400000 2.570000 17.549999 0 255 0
-11.970000 1.640000 17.750000 0 255 0
-12.520000 2.675000 1.295000 0 255 255
-11.090000 2.470000 24.459999 0 255 0
-12.230000 2.635000 21.510000 0 255 0
-11.740000 1.585000 18.350000 0 255 0
-10.830000 2.185000 22.870001 0 255 0
-11.720000 2.085000 16.705000 255 0 0
-11.720000 2.040000 19.870001 255 0 0
-11.700500 2.371000 8.963300 255 0 0
-11.700000 2.317500 12.102500 255 0 0
-11.709000 2.277000 2.451000 255 0 0
-11.725000 2.075000 15.655000 255 0 0
-11.730000 2.030000 18.920000 255 0 0
-11.701700 2.236700 6.658900 255 0 0
-11.710000 2.270000 3.410000 255 0 0
-11.692900 2.364300 9.907900 255 0 0
-12.160000 1.450000 27.450001 0 255 0
-12.170000 1.420000 27.219999 0 255 0
-12.306000 2.178000 24.106001 0 255 0
-11.806700 1.743300 22.613300 0 255 0
-11.810000 1.660000 23.719999 0 255 0
-11.566700 1.693300 22.306700 255 0 0
-11.555000 1.740000 25.565001 255 0 0
-11.990000 1.850000 25.570000 0 255 0
-12.110000 2.670000 21.520000 0 255 0
-12.316700 2.880000 3.773300 0 255 255
-11.275000 2.265000 24.350000 0 255 0
-10.796700 3.186700 3.016700 0 255 255
-12.510000 2.000000 2.000000 0 255 255
-11.670000 2.500000 2.940000 255 0 0
-11.670000 2.220000 12.440000 255 0 0
-11.655700 2.520000 6.311400 255 0 0
-11.640000 2.090000 27.469999 0 255 0
-10.560000 1.530000 22.639999 0 255 0
-11.310000 2.280000 5.310000 255 0 0
-12.517500 1.567500 15.097500 0 255 0
-11.016700 2.430000 24.406700 0 255 0
-11.030000 2.560000 14.740000 0 255 0
-11.015000 2.570000 14.900000 0 255 0
-11.140000 1.720000 21.600000 0 255 0
-11.550000 2.660000 27.120001 0 255 0
-11.609100 3.581800 4.011800 0 255 255
-11.100000 2.440000 24.245001 0 255 0
-11.110000 2.630000 24.040001 0 255 0
-12.295000 3.190000 2.195000 0 255 255
-12.260000 1.165000 23.459999 0 255 0
-12.066700 2.868300 1.768300 0 255 255
-12.260000 1.060000 27.389999 0 255 0
-12.258000 0.988000 21.115999 0 255 0
-12.264000 1.482000 2.104000 0 255 255
-11.262200 3.273300 3.464400 0 255 255
-11.301700 3.185000 2.851700 0 255 255
-12.647500 2.087500 2.702500 0 255 255
-10.613600 1.929200 15.008000 0 255 0
-11.410000 2.110000 7.110000 255 0 0
-11.390000 2.250000 0.820000 0 255 255
-11.405000 2.200000 3.950000 255 0 0
-12.440000 1.950000 2.270000 0 255 255
-11.471400 2.567100 1.212900 0 255 255
-11.610000 2.883300 2.660000 0 255 255
-11.610600 2.325000 12.456200 255 0 0
-12.530000 2.170000 2.610000 0 255 255
-10.608300 2.815000 1.266700 0 255 255
-11.215000 0.985000 24.205000 0 255 0
-11.050000 1.250000 21.860001 0 255 0
-11.400000 2.650000 20.990000 0 255 0
-10.653800 2.377700 14.417700 0 255 0
-11.061100 1.634400 20.871099 0 255 0
-10.967100 2.245700 14.754300 0 255 0
-10.961700 2.233700 15.009300 0 255 0
-11.163300 0.885600 23.062201 0 255 0
-12.710000 2.031000 17.413700 0 255 0
-11.210000 1.762000 15.110000 0 255 0
-12.460000 1.472200 17.853300 0 255 0
-11.308100 1.581200 15.158100 0 255 0
-11.315000 2.090000 27.570000 0 255 0
-11.290000 1.480000 14.920000 0 255 0
-12.256000 2.622000 3.258000 0 255 255
-12.530000 2.020000 1.690000 0 255 255
-12.390000 2.410000 3.530000 0 255 255
-12.450000 1.763300 1.716700 0 255 255
-11.050900 2.627300 14.600900 0 255 0
-12.420000 1.925000 1.370000 0 255 255
-11.060000 2.850000 20.879999 0 255 0
-11.040000 2.750000 14.540000 0 255 0
-11.420000 1.790000 22.340000 0 255 0
-11.940000 1.780000 25.889999 0 255 0
-12.465000 1.165000 21.014999 0 255 0
-10.990000 2.000000 16.719999 0 255 0
-12.453300 2.123300 2.970000 0 255 255
-10.960000 2.030000 14.910000 0 255 0
-10.940000 2.090000 18.170000 0 255 0
-11.365000 0.925000 21.651300 0 255 0
-12.630000 2.120000 21.620001 0 255 0
-11.040000 2.020000 15.130000 0 255 0
-11.464400 3.087800 2.756700 0 255 255
-11.009300 2.680700 21.207100 0 255 0
-11.217100 3.411400 2.808600 0 255 255
-12.310000 2.780000 1.130000 0 255 255
-12.255000 2.431200 21.504999 0 255 0
-12.260000 2.940000 2.500000 0 255 255
-12.550000 1.375600 19.724400 0 255 0
-11.270000 1.780000 25.340000 0 255 0
-10.903300 1.520000 23.758301 0 255 0
-11.270000 2.280000 24.059999 0 255 0
-11.080000 2.350000 22.879999 0 255 0
-11.110000 3.490000 2.370000 0 255 255
-11.070000 2.380000 25.920000 0 255 0
-11.680000 2.145000 16.190001 255 0 0
-11.676900 2.390000 7.907700 255 0 0
-11.671300 2.322000 4.758700 255 0 0
-11.640000 1.810000 22.740000 255 0 0
-11.663300 2.273300 1.406700 0 255 0
-11.658200 2.076800 12.861400 255 0 0
-11.600000 2.110000 13.870000 255 0 0
-11.610000 2.070000 17.030001 255 0 0
-11.607500 2.023700 20.160000 255 0 0
-11.960000 2.040000 18.180000 0 255 0
-11.953300 1.966700 15.013300 0 255 0
-11.015500 1.284500 21.204500 0 255 0
-11.005500 1.375500 14.910000 0 255 0
-12.460000 2.480000 3.304000 0 255 255
-12.522000 2.822000 3.764000 0 255 255
-12.060000 2.900000 21.320000 0 255 0
-10.665000 2.320000 22.705000 0 255 0
-11.101400 2.578600 14.605700 0 255 0
-12.300000 3.370000 3.520000 0 255 255
-12.040000 2.800000 1.110000 0 255 255
-12.380000 2.830000 3.130000 0 255 255
-11.943300 1.383300 1.416700 0 255 255
-11.710000 1.220000 27.360001 0 255 0
-12.350000 2.390000 2.770000 0 255 255
-10.708900 2.734900 14.764900 0 255 0
-12.305000 2.130000 1.325000 0 255 255
-12.310000 1.733300 27.420000 0 255 0
-11.596700 3.083300 12.796700 0 255 0
-11.615900 3.080400 12.948900 0 255 0
-11.396700 3.446700 3.160000 0 255 255
-10.623300 2.323300 22.650000 0 255 0
-11.170000 2.940000 20.709999 0 255 0
-11.808200 3.527300 1.509100 0 255 255
-12.352500 1.670000 19.605000 0 255 0
-11.056700 3.372100 2.960000 0 255 255
-11.740000 1.770000 22.090000 255 0 0
-11.760000 1.620000 25.139999 0 255 0
-11.740000 1.780000 22.270000 255 0 0
-11.780000 2.090000 2.480000 0 255 0
-12.550000 2.240000 19.330000 0 255 0
-11.620000 2.250000 1.305000 0 255 0
-11.602000 2.190000 4.466000 255 0 0
-11.590000 2.510000 7.860000 255 0 0
-11.615000 1.940000 20.900000 255 0 0
-11.262000 0.878000 24.096001 0 255 0
-11.055500 2.134500 15.116400 0 255 0
-11.460000 3.634000 3.346000 0 255 255
-11.440000 3.615000 3.120000 0 255 255
-11.857500 2.875000 2.600000 0 255 255
-11.968600 2.835700 2.760000 0 255 255
-11.954600 2.975400 12.904600 0 255 0
-12.607300 1.326400 19.764500 0 255 0
-11.308000 1.774000 15.013300 0 255 0
-12.640000 2.280000 17.639999 0 255 0
-12.680000 2.040000 2.010000 0 255 255
-12.270000 0.890000 27.139999 0 255 0
-12.270000 0.835000 24.105000 0 255 0
-11.560000 2.320000 27.590000 0 255 0
-11.570000 2.830000 21.049999 0 255 0
-11.554000 2.560000 4.752000 255 0 0
-11.950000 3.533300 3.463300 0 255 255
-11.958000 3.538000 3.608000 0 255 255
-10.960000 1.210000 21.400000 0 255 0
-12.645000 2.920000 3.195000 0 255 255
-12.115700 2.482900 1.514300 0 255 255
-12.113300 2.783300 21.303301 0 255 0
-12.507800 3.132200 2.208300 0 255 255
-12.505000 2.615000 21.830000 0 255 0
-12.770000 2.190000 2.265000 0 255 255
-11.575000 1.960000 21.219999 255 0 0
-11.580000 2.060000 14.720000 255 0 0
-11.570000 2.140000 17.940001 255 0 0
-10.864000 2.130000 23.974001 0 255 0
-10.861700 2.178300 27.105000 0 255 0
-10.860000 2.337900 14.570700 0 255 0
-11.900000 1.660000 25.340000 0 255 0
-11.050000 2.470000 24.440001 0 255 0
-12.425000 1.130000 19.895000 0 255 0
-11.930000 3.560000 2.850000 0 255 255
-12.366700 1.786700 1.510000 0 255 255
-12.666700 1.446700 19.690001 0 255 0
-12.210000 2.170000 23.959999 0 255 0
-12.215000 2.135000 27.209999 0 255 0
-11.923300 2.710000 2.466700 0 255 0
-11.810000 3.575000 3.395000 0 255 255
-11.150000 3.320000 2.180000 0 255 255
-11.620000 2.670000 5.170000 0 255 0
-12.476700 3.133300 2.206700 0 255 255
-11.665000 2.233300 14.860000 255 0 0
-11.662300 2.478700 5.358000 255 0 0
-12.110000 2.870000 1.580000 0 255 255
-12.050000 3.310000 3.960000 0 255 255
-12.315000 3.425000 1.913300 0 255 255
-12.662000 1.630000 17.455999 0 255 0
-12.720000 2.360000 19.309999 0 255 0
-12.710000 2.240000 3.116700 0 255 255
-11.106700 2.583300 14.756700 0 255 0
-12.256200 3.085400 12.909200 0 255 0
-11.863900 2.785300 12.858900 0 255 0
-11.860000 2.632500 3.475000 0 255 0
-12.310000 2.210000 3.330000 0 255 255
-10.870000 1.910000 15.400000 0 255 0
-11.350000 3.350000 3.230000 0 255 255
-12.580000 2.330000 2.775000 0 255 255
-11.515000 2.072500 17.565001 255 0 0
-11.501600 2.132400 14.311200 255 0 0
-12.430000 2.810000 3.600000 0 255 255
-12.412400 3.078300 12.904900 0 255 0
-11.373600 2.286400 5.060900 255 0 0
-11.380000 2.220000 24.360001 0 255 0
-11.366700 2.283300 27.510000 0 255 0
-11.401700 3.496700 3.853300 0 255 255
-11.473000 3.379000 3.664000 0 255 255
-10.773600 2.994300 3.466400 0 255 255
-11.556200 3.384600 3.663100 0 255 255
-11.414000 3.332000 3.564000 0 255 255
-11.050000 3.160000 3.300000 0 255 255
-11.604300 2.185700 16.163601 255 0 0
-11.614300 2.784300 3.504300 0 255 255
-11.613300 2.196700 4.000000 255 0 0
-11.600000 2.470000 10.780000 255 0 0
-11.610000 2.230000 0.740000 0 255 255
-11.605700 2.528600 7.508600 255 0 0
-11.600000 1.950000 21.375000 255 0 0
-11.914000 3.032000 3.508000 0 255 255
-12.326700 2.693300 3.356700 0 255 255
-12.512500 2.930000 2.750000 0 255 255
-12.458300 1.133300 21.002501 0 255 0
-11.690000 2.233300 16.816700 0 255 0
-11.700000 2.413300 4.153300 255 0 0
-12.440000 2.600000 21.760000 0 255 0
-12.420000 2.590000 1.680000 0 255 255
-12.305000 1.110000 22.230000 0 255 0
-12.465200 2.981900 12.763000 0 255 0
-11.265800 3.583100 3.704400 0 255 255
-11.680000 3.440000 3.860000 0 255 255
-11.404300 3.578600 3.212900 0 255 255
-11.420300 2.527000 3.563700 255 0 0
-11.110000 3.431700 2.969400 0 255 255
-12.270000 3.237800 2.000000 0 255 255
-12.462500 1.690000 2.617500 0 255 255
-11.680000 1.960000 12.860000 255 0 0
-11.670000 1.980000 11.490000 255 0 0
-11.650000 1.730000 21.405001 255 0 0
-11.660000 1.679300 18.267099 0 255 0
-11.645000 1.760000 24.559999 255 0 0
-12.800000 2.485000 1.805000 0 255 255
-12.405500 2.983600 12.811100 0 255 0
-11.390000 3.160000 12.890000 0 255 0
-11.159200 3.188400 3.510400 0 255 255
-11.660000 0.740000 22.450001 0 255 0
-10.846100 3.332800 2.752800 0 255 255
-12.600000 1.940000 1.970000 0 255 255
-10.600000 2.600000 1.140000 0 255 255
-11.740000 2.110000 18.990000 0 255 0
-11.756200 2.483700 1.565000 0 255 0
-11.757200 2.225600 11.455600 255 0 0
-11.756700 2.020000 25.323299 0 255 0
-11.740000 2.475000 2.125000 255 0 0
-11.740000 2.360000 8.675000 255 0 0
-11.754600 2.220800 11.904600 255 0 0
-11.750000 2.320000 5.400000 255 0 0
-12.175000 2.730000 1.550000 0 255 255
-11.430000 1.590000 25.309999 0 255 0
-11.000000 1.485000 1.595000 0 255 255
-11.370000 1.573300 27.660000 0 255 0
-12.280000 2.610000 3.570000 0 255 255
-11.472000 2.137300 11.814000 255 0 0
-11.465000 1.575000 27.455000 0 255 0
-11.470000 2.130000 11.558800 255 0 0
-11.407400 3.532900 4.062900 0 255 255
-11.510000 3.265000 12.710000 0 255 0
-11.500000 3.224000 3.054000 0 255 255
-11.516700 3.243300 3.700000 0 255 255
-11.370000 2.200000 10.270000 255 0 0
-11.375200 2.289300 3.760000 255 0 0
-11.318600 3.140000 3.455700 0 255 255
-11.103300 3.290000 3.266700 0 255 255
-11.266200 2.935000 2.548400 0 255 255
-12.410000 1.820000 25.770000 0 255 0
-12.425000 2.185000 2.820000 0 255 255
-11.507500 1.697500 23.820000 0 255 0
-12.176700 2.276700 3.603300 0 255 255
-11.266000 0.838000 23.964001 0 255 0
-11.266700 0.883300 27.203300 0 255 0
-11.830000 1.430000 23.430000 0 255 0
-11.810000 1.486700 20.250000 0 255 0
-11.230000 2.720000 21.270000 0 255 0
-11.200000 2.660000 24.420000 0 255 0
-11.410000 2.140000 8.600000 255 0 0
-11.430000 2.200000 5.445000 255 0 0
-11.412500 2.732500 20.872499 0 255 0
-12.690000 2.080000 3.010000 0 255 255
-12.506900 2.430800 17.467699 0 255 0
-11.663000 3.283000 13.009000 0 255 0
-12.470000 2.450000 21.719999 0 255 0
-12.467300 2.930900 2.696400 0 255 255
-11.306700 3.526700 3.710000 0 255 255
-11.206700 3.480000 3.516700 0 255 255
-11.370000 1.860000 23.030001 0 255 0
-11.060000 3.371400 3.255700 0 255 255
-11.167100 3.383600 3.205700 0 255 255
-10.717100 3.227100 3.005700 0 255 255
-11.217500 3.392500 3.152500 0 255 255
-11.217300 3.340000 2.761800 0 255 255
-12.160000 1.790000 0.960000 0 255 255
-11.470000 2.010000 16.340000 255 0 0
-11.465000 2.030000 16.799999 255 0 0
-11.470000 2.000000 13.680000 255 0 0
-11.860000 3.360000 2.080000 0 255 255
-11.110000 0.780000 25.889999 0 255 0
-11.190000 1.340000 21.580000 0 255 0
-11.217800 1.444400 15.060000 0 255 0
-11.204000 1.636000 27.709999 0 255 0
-12.563300 2.370000 23.753300 0 255 0
-12.308000 2.428000 21.478001 0 255 0
-12.460400 1.137800 19.767401 0 255 0
-11.710000 3.370000 12.790000 0 255 0
-11.702000 3.080000 19.167999 0 255 0
-11.012200 1.283900 14.967800 0 255 0
-10.664600 2.284600 14.455400 0 255 0
-11.256700 1.336700 27.400000 0 255 0
-11.255000 1.630000 21.070000 0 255 0
-11.330000 1.810000 27.020000 0 255 0
-12.710000 2.190000 21.753300 0 255 0
-12.230000 0.940000 22.309999 0 255 0
-12.255300 3.435900 1.768800 0 255 255
-12.662700 2.077300 23.514500 0 255 0
-12.220000 1.130000 27.139999 0 255 0
-12.208600 1.181400 23.898600 0 255 0
-11.810000 2.868000 3.308000 0 255 255
-11.808100 2.738800 12.808700 0 255 0
-12.020000 2.800000 12.810000 0 255 0
-12.455000 2.927000 12.867000 0 255 0
-12.655000 2.578800 17.498699 0 255 0
-11.070000 3.280000 3.464000 0 255 255
-11.213000 3.497500 3.652000 0 255 255
-11.070000 0.836700 23.006701 0 255 0
-11.403300 1.793300 19.646700 0 255 0
-11.362900 0.825700 24.012899 0 255 0
-11.356700 0.873300 27.156700 0 255 0
-10.922000 3.325000 3.202000 0 255 255
-11.305700 3.029300 16.310699 0 255 0
-11.300000 3.230000 3.250000 0 255 255
-11.150000 3.188000 3.158000 0 255 255
-11.160000 3.195000 3.075000 0 255 255
-12.510000 1.890000 3.200000 0 255 255
-12.610000 2.870000 2.920000 0 255 255
-11.770000 2.790000 2.670000 0 255 255
-12.770000 2.300000 2.360000 0 255 255
-12.570000 2.430000 1.720000 0 255 255
-12.470000 1.940000 2.555000 0 255 255
-10.757300 2.082700 23.007299 0 255 0
-12.460000 1.475000 27.415001 0 255 0
-10.675000 1.650000 18.165001 0 255 0
-10.655600 1.584700 15.017500 0 255 0
-11.111700 1.233300 15.006700 0 255 0
-11.630000 3.510000 3.080000 0 255 255
-11.610000 3.386700 12.823300 0 255 0
-11.603300 1.890000 16.216700 255 0 0
-11.618000 2.394000 9.460000 255 0 0
-11.605000 1.773300 22.521700 255 0 0
-11.595000 1.840000 19.280001 255 0 0
-11.561400 1.830000 21.414301 255 0 0
-11.562300 2.430500 9.157300 255 0 0
-11.555000 2.530000 2.675000 255 0 0
-11.580000 1.950000 14.900000 255 0 0
-11.570000 2.520000 1.600000 255 0 0
-11.580000 2.360000 4.950000 255 0 0
-11.580000 2.060000 25.350000 0 255 0
-11.566000 1.826000 22.360001 255 0 0
-11.570000 2.450000 8.116700 255 0 0
-11.566700 1.940000 15.866700 255 0 0
-12.280000 2.400000 3.120000 0 255 255
-12.650000 1.850000 2.950000 0 255 255
-11.320000 1.560000 21.190001 0 255 0
-11.310000 1.660000 27.490000 0 255 0
-12.354700 2.881600 12.657400 0 255 0
-11.956000 3.026000 3.458000 0 255 255
-12.410000 1.720000 1.790000 0 255 255
-12.250000 3.120000 1.690000 0 255 255
-11.410000 2.430000 26.400000 0 255 0
-11.430000 3.320000 12.870000 0 255 0
-11.415000 3.468300 3.301700 0 255 255
-12.260000 2.120000 2.940000 0 255 255
-11.230000 1.830000 24.969999 0 255 0
-12.323300 2.273300 22.073299 0 255 0
-12.330000 1.990000 2.910000 0 255 255
-12.265000 2.135000 2.825000 0 255 255
-12.012500 2.595000 21.459999 0 255 0
-10.907700 2.432300 14.609700 0 255 0
-11.120000 1.250000 15.090000 0 255 0
-11.340000 0.810000 22.010000 0 255 0
-12.400000 1.990000 1.350000 0 255 255
-12.406700 1.580000 27.450001 0 255 0
-11.590000 3.050000 19.100000 0 255 0
-11.813300 1.627800 20.175600 0 255 0
-12.216700 2.533300 21.663300 0 255 0
-12.305000 3.135000 2.810000 0 255 255
-12.310000 2.627500 21.615000 0 255 0
-10.565700 1.826400 15.062900 0 255 0
-12.560000 3.134000 2.058000 0 255 255
-12.616400 2.079300 17.412100 0 255 0
-12.620000 2.440000 2.390000 0 255 255
-12.305000 3.390000 2.720000 0 255 255
-12.230000 0.910000 25.809999 0 255 0
-11.417500 2.082500 23.892500 0 255 0
-12.430000 1.370000 17.440001 0 255 0
-12.460000 1.400000 26.690001 0 255 0
-11.570000 2.440000 7.070000 255 0 0
-11.555000 1.830000 20.110001 255 0 0
-12.480000 1.610000 26.889999 0 255 0
-12.467500 2.440000 17.555000 0 255 0
-12.445000 2.990000 1.715000 0 255 255
-12.350000 2.010000 1.100000 0 255 255
-11.330000 1.780000 22.059999 0 255 0
-12.730000 2.650000 3.400000 0 255 255
-11.560000 0.910000 22.160000 0 255 0
-12.245000 1.740000 25.754999 0 255 0
-12.240000 2.200000 2.840000 0 255 255
-12.546700 1.733300 2.780000 0 255 255
-12.110900 1.322700 2.810000 0 255 255
-12.107500 1.328800 2.443800 0 255 255
-10.810000 3.345000 2.615000 0 255 255
-11.763300 1.481700 27.458300 0 255 0
-11.715000 3.070000 0.810000 0 255 255
-11.645000 2.980000 21.225000 0 255 0
-10.940000 1.350000 23.760000 0 255 0
-10.940000 1.490000 14.820000 0 255 0
-11.720000 1.936700 20.510000 255 0 0
-11.700000 1.980000 17.350000 255 0 0
-11.695000 1.700000 23.730000 255 0 0
-11.713300 1.620000 26.863300 0 255 0
-11.714400 1.968900 17.013300 255 0 0
-11.710000 1.670000 23.980000 255 0 0
-11.340000 1.613300 21.156700 0 255 0
-11.354000 1.532000 27.466000 0 255 0
-12.240000 2.040000 23.549999 0 255 0
-12.305000 1.480000 1.765000 0 255 255
-12.505000 3.235000 1.960000 0 255 255
-12.460000 1.522500 17.275000 0 255 0
-12.480000 1.220000 24.010000 0 255 0
-12.400000 1.970000 23.370001 0 255 0
-12.240000 1.130000 26.090000 0 255 0
-11.690000 2.415000 8.405000 255 0 0
-11.695000 2.465000 5.160000 255 0 0
-12.796700 2.416700 1.810000 0 255 255
-12.390000 2.370000 24.170000 0 255 0
-10.840000 1.340000 26.820000 0 255 0
-11.740000 2.800000 2.410000 0 255 255
-10.846700 3.033300 14.803300 0 255 0
-11.611700 2.176700 15.766700 255 0 0
-11.604800 2.515900 5.962200 255 0 0
-11.605000 2.465000 9.100000 255 0 0
-11.600000 1.870000 22.945000 0 255 0
-12.667500 2.230000 21.565001 0 255 0
-12.640000 1.920000 2.620000 0 255 255
-12.520000 2.790000 0.950000 0 255 255
-11.230000 2.950000 20.740000 0 255 0
-12.440000 2.970000 1.910000 0 255 255
-10.725000 3.240000 3.215000 0 255 255
-11.260000 1.070000 27.170000 0 255 0
-11.262900 1.022900 23.912901 0 255 0
-11.245000 1.680000 26.605000 0 255 0
-12.351700 1.235000 20.996700 0 255 0
-12.380000 1.510000 27.540001 0 255 0
-11.706500 1.381800 21.644100 0 255 0
-12.612500 2.173800 23.653799 0 255 0
-12.090000 3.480000 2.770000 0 255 255
-11.370000 1.585000 27.555000 0 255 0
-11.370000 1.673300 21.059999 0 255 0
-11.640000 1.880000 1.060000 0 255 255
-11.660000 1.780000 20.809999 255 0 0
-11.990000 2.290000 16.719999 0 255 0
-12.012000 2.633000 19.802000 0 255 0
-12.480000 2.960000 1.210000 0 255 255
-12.240000 1.090000 21.139999 0 255 0
-11.110000 1.435000 25.240000 0 255 0
-11.150000 1.470000 22.520000 0 255 0
-11.160400 0.880800 23.008400 0 255 0
-11.340000 1.580000 26.680000 0 255 0
-10.725000 1.930000 27.225000 0 255 0
-10.690000 1.700000 17.830000 0 255 0
-11.200000 2.010000 25.440001 0 255 0
-12.610000 2.578000 2.910000 0 255 255
-12.480000 1.830000 27.413300 0 255 0
-11.240000 2.520000 23.900000 0 255 0
-12.620000 2.130000 23.840000 0 255 0
-11.455000 1.235000 22.965000 0 255 0
-11.655000 1.445000 21.719999 0 255 0
-10.670000 2.930000 3.190000 0 255 255
-10.666000 1.480000 23.559999 0 255 0
-10.640000 1.950000 1.420000 0 255 255
-10.660900 1.537300 26.713600 0 255 0
-12.020000 2.640000 21.520000 0 255 0
-11.720000 2.960000 2.810000 0 255 255
-10.770000 1.982500 18.250000 0 255 0
-10.753200 2.130000 15.002600 0 255 0
-11.203300 1.820000 24.756701 0 255 0
-11.216700 1.493300 21.049999 0 255 0
