-0.050000 -16.219999 8.140000 0 255 0
-0.245000 -14.960000 -5.080000 0 255 255
-0.710000 -15.050000 -3.500000 255 0 0
-0.715800 -15.112500 -0.245800 255 0 0
-0.320000 -15.740000 8.830000 0 255 0
-0.303300 -15.663300 5.566700 0 255 0
-0.760000 -16.620001 14.090000 0 255 0
-1.055000 -16.875000 15.120000 0 255 0
-0.110000 -14.635000 9.955000 0 255 0
-0.065000 -15.125000 15.505000 0 255 0
0.092000 -15.972000 8.152000 0 255 0
-1.365000 -14.510000 -4.535000 0 255 255
-1.300000 -14.050000 -3.760000 0 255 255
-1.320000 -14.080000 -3.570000 0 255 255
-0.380000 -14.190000 -5.120000 0 255 255
-0.061700 -14.816700 9.663900 0 255 0
-0.060000 -14.770000 12.670000 0 255 0
-0.055000 -14.820000 9.615000 0 255 0
0.240000 -14.350000 -5.120000 0 255 255
0.139100 -14.768400 5.358200 0 255 0
-0.672500 -15.515000 10.360000 255 0 0
-0.875000 -14.970000 -3.837500 255 0 0
-0.855300 -14.930900 -0.589700 0 255 0
-0.810000 -15.211400 2.808600 255 0 0
-0.797500 -15.270000 6.061700 255 0 0
-0.809100 -15.323600 9.305500 0 255 0
0.146000 -14.154000 -4.380000 0 255 255
0.183300 -16.530001 17.650000 0 255 0
-1.300000 -14.820000 -4.610000 0 255 255
0.281700 -14.965000 9.408300 0 255 0
0.286100 -14.917800 9.559600 0 255 0
-0.112000 -16.166000 12.420000 0 255 0
-1.513300 -16.070000 16.556700 0 255 0
-0.105200 -14.519300 -4.237000 0 255 255
0.026700 -15.113300 -4.886700 0 255 255
-1.370000 -14.820000 -4.580000 0 255 255
-0.010000 -15.666700 8.008300 0 255 0
-0.268700 -14.430000 9.859300 0 255 0
-0.263300 -14.440000 9.720000 0 255 0
-0.700000 -15.790000 16.023300 0 255 0
-0.690000 -15.810000 12.830000 255 0 0
-0.200000 -14.300000 -4.630000 0 255 255
-0.430000 -16.330000 13.950000 0 255 0
-1.372000 -16.172001 15.954000 0 255 0
0.050000 -15.470000 15.520000 0 255 0
0.040000 -15.630000 7.430000 0 255 0
0.037700 -15.863800 4.300000 0 255 0
-1.110000 -14.830000 9.065000 0 255 0
-0.140000 -16.299999 8.860000 0 255 0
-0.376700 -15.876700 4.163300 0 255 0
-0.370000 -16.020000 7.430000 0 255 0
-0.355000 -16.525000 13.175000 0 255 0
-0.753300 -14.303300 -5.103300 0 255 255
-0.266700 -16.275000 10.268300 0 255 0
-0.868600 -14.171400 -4.290000 0 255 255
0.126700 -15.780000 16.606701 0 255 0
-1.040000 -14.180000 -4.700000 0 255 255
0.345000 -15.810000 8.050000 0 255 0
-0.230000 -16.440001 16.049999 0 255 0
-0.940000 -15.040000 13.150000 0 255 0
0.086700 -14.710000 -5.390000 0 255 255
0.090000 -14.725000 -5.335000 0 255 255
-0.114400 -16.368900 11.707800 0 255 0
-0.095000 -15.165700 -4.747900 0 255 255
-0.107500 -16.485001 11.652500 0 255 0
0.142300 -15.370800 12.454600 0 255 0
-0.080000 -15.100000 15.710000 0 255 0
-0.509000 -16.018000 8.164000 0 255 0
-0.510000 -16.033300 8.216700 0 255 0
-0.215700 -16.317101 10.160000 0 255 0
-0.898000 -15.516000 -5.288000 0 255 255
-1.365000 -14.770000 7.575000 0 255 0
-0.820000 -15.810000 16.174999 0 255 0
-0.666700 -14.116700 -3.276700 0 255 255
-0.916700 -14.913300 9.123300 0 255 0
-0.890000 -15.060000 -0.470000 255 0 0
-0.902500 -15.007500 -3.737500 255 0 0
0.195000 -15.715000 8.112500 0 255 0
-1.220000 -15.470000 -5.290000 0 255 255
-0.307500 -14.262500 -5.105000 0 255 255
-1.490000 -14.520000 -4.510000 0 255 255
0.060000 -15.360000 14.770000 0 255 0
-1.325000 -16.485001 14.165000 0 255 0
-0.690000 -15.180000 2.010000 255 0 0
-0.722000 -15.216000 5.170000 255 0 0
-0.965000 -16.075001 6.815000 0 255 0
0.320000 -15.860000 11.890000 0 255 0
-1.190000 -14.080000 -4.260000 0 255 255
-0.802900 -15.064800 -3.994300 255 0 0
-0.809000 -15.110000 -0.739000 255 0 0
-0.570000 -15.960000 7.850000 0 255 0
-0.990000 -16.440001 11.910000 0 255 0
-0.553300 -16.820000 13.206700 0 255 0
-0.570000 -16.889999 16.160000 0 255 0
-0.560000 -16.809999 14.710000 0 255 0
-0.370000 -16.010000 13.060000 0 255 0
-0.370000 -15.860000 9.260000 0 255 0
-1.090000 -15.580000 -5.240000 0 255 255
-1.330000 -16.719999 14.100000 0 255 0
-1.270000 -14.660000 -4.730000 0 255 0
-1.315000 -15.863300 12.848300 0 255 0
0.280000 -14.970000 7.290000 0 255 0
-1.190000 -13.900000 -4.430000 0 255 255
-1.560000 -14.270000 -4.203300 0 255 255
-0.705000 -14.910000 -4.900000 0 255 0
-0.920000 -16.770000 16.080000 0 255 0
-0.340000 -16.440001 8.910000 0 255 0
-0.673300 -14.876700 -4.390000 255 0 0
0.140000 -16.469999 17.680000 0 255 0
-1.330000 -14.950000 9.210000 0 255 0
-0.295000 -15.555000 10.500000 0 255 0
-0.290000 -15.700000 7.000000 0 255 0
-1.310000 -16.480000 17.260000 0 255 0
-1.313300 -16.410000 14.090000 0 255 0
-0.320000 -14.800000 13.470000 0 255 0
-1.257800 -15.274400 9.413300 0 255 0
-0.312500 -14.627500 -4.482500 0 255 255
-1.280000 -15.035000 -4.470000 0 255 255
-0.750000 -15.200000 1.455000 255 0 0
-0.751900 -15.328100 7.760600 255 0 0
-0.766000 -15.170600 4.709800 255 0 0
-0.810000 -15.640000 16.530001 0 255 0
-1.245000 -15.075000 -4.580000 0 255 255
0.187500 -14.321500 -4.625500 0 255 255
-1.407500 -13.977500 -3.593800 0 255 255
-0.050000 -15.880000 12.100000 0 255 0
-1.460000 -16.430000 17.110001 0 255 0
-0.907000 -14.728000 -5.388000 0 255 0
0.140000 -14.675000 -4.755000 0 255 255
0.160000 -14.660000 -4.780000 0 255 255
-0.857000 -13.826300 -4.537000 0 255 255
-1.550000 -15.500000 -4.680000 0 255 255
-1.520000 -14.630000 7.520000 0 255 0
-0.500000 -16.870001 15.850000 0 255 0
-1.680000 -14.640000 -4.190000 0 255 255
-1.666300 -14.611300 -4.137500 0 255 255
-1.790000 -14.550000 -4.210000 0 255 255
-0.056700 -15.926700 8.020000 0 255 0
-1.010000 -15.590000 9.380000 0 255 0
-0.356700 -14.176700 -4.696700 0 255 255
-0.810000 -15.685000 16.160000 0 255 0
-1.450000 -16.014999 9.400000 0 255 0
-0.860000 -14.540000 -4.040000 0 255 255
-0.848200 -14.887100 -1.041800 255 0 0
-0.357800 -16.172199 5.817400 0 255 0
-0.104000 -15.563000 4.004000 0 255 0
-0.870000 -15.370000 16.379999 0 255 0
0.370000 -15.620000 12.810000 0 255 0
-1.070000 -16.389999 13.280000 0 255 0
-1.062200 -15.668900 6.907800 0 255 0
0.070000 -15.610000 8.140000 0 255 0
0.056700 -15.570000 7.256700 0 255 0
0.090000 -15.170700 12.665000 0 255 0
-1.064000 -14.320000 -4.296000 0 255 255
-0.960000 -15.000000 -0.830000 255 0 0
-0.950900 -15.070000 -3.998200 255 0 0
-1.065000 -14.322100 -4.135700 0 255 255
-0.862000 -16.778000 15.162000 0 255 0
-0.910000 -14.915700 9.207100 0 255 0
-0.920000 -14.900000 9.350000 0 255 0
-1.075000 -14.310000 -4.080000 0 255 255
-1.130000 -13.970000 -4.300000 0 255 255
0.100000 -15.025000 5.157500 0 255 0
-0.895000 -14.810000 -4.545000 255 0 0
-1.540000 -15.080000 -5.040000 0 255 255
-0.766700 -14.883300 -0.233300 255 0 0
-0.750000 -14.725000 9.660000 0 255 0
-0.755000 -14.910000 -3.390000 255 0 0
-0.766900 -14.832800 -3.540000 255 0 0
-0.758600 -14.618600 9.513800 0 255 0
0.244400 -14.317500 -4.944400 0 255 255
-0.050000 -15.680000 16.430000 0 255 0
0.195000 -14.662100 7.960000 0 255 0
-1.650000 -15.630000 12.680000 0 255 0
-1.656700 -15.673300 9.510000 0 255 0
-0.940000 -16.830000 16.389999 0 255 0
-1.010000 -14.080000 -4.635000 0 255 255
-1.200000 -14.220000 -3.640000 0 255 255
-1.203300 -16.770000 15.513300 0 255 0
0.294600 -15.671300 5.012800 0 255 0
-1.100000 -14.620000 -4.410000 0 255 0
-1.570000 -14.720000 -4.140000 0 255 255
-0.240000 -15.760000 5.756700 0 255 0
-0.280000 -15.685000 12.265000 0 255 0
-0.240000 -15.690000 12.520000 0 255 0
-1.215000 -16.465000 15.700000 0 255 0
-0.670000 -16.113300 12.273300 0 255 0
-0.600000 -15.425000 12.260000 0 255 0
-0.616400 -15.317100 6.312900 255 0 0
-0.560000 -15.160000 -4.390000 0 255 0
-0.565000 -15.230000 4.920000 255 0 0
-1.495000 -15.215000 -4.610000 0 255 255
-1.040000 -13.850000 -4.730000 0 255 255
-0.680000 -15.490000 10.590000 255 0 0
-1.150000 -16.690001 13.930000 0 255 0
-0.954700 -15.027300 -4.088700 255 0 0
-1.070000 -16.670000 13.860000 0 255 0
-1.006700 -14.426700 -4.720000 0 255 255
-1.111700 -14.728300 -5.031700 0 255 0
-1.146700 -16.690001 13.956700 0 255 0
-0.720000 -14.830000 -5.450000 0 255 0
-0.558700 -16.124001 5.714700 0 255 0
-0.550000 -16.360001 14.822500 0 255 0
-0.540000 -16.270000 8.370000 0 255 0
-0.561000 -16.122400 5.856200 0 255 0
-0.560000 -16.049999 11.520000 0 255 0
-0.717100 -14.368600 7.811400 0 255 0
-0.700000 -14.580000 -4.446700 0 255 0
-0.565000 -16.416700 12.413300 0 255 0
-0.580000 -15.520000 9.520000 255 0 0
-0.095000 -16.219999 12.325000 0 255 0
-1.460000 -15.730000 -4.850000 0 255 255
-0.700000 -14.410000 7.940000 0 255 0
-0.710000 -14.625000 -4.700000 0 255 0
-1.450000 -15.250000 -4.770000 0 255 255
-0.270000 -15.220000 10.050000 0 255 0
-1.630000 -16.540001 16.270000 0 255 0
0.200000 -15.550000 7.440000 0 255 0
-0.530000 -15.820000 12.740000 0 255 0
-0.500000 -16.405001 13.305000 0 255 0
-0.260000 -15.610000 13.375000 0 255 0
-0.580000 -15.270000 6.810000 255 0 0
-0.650000 -15.220000 12.325000 0 255 0
-0.645000 -15.315000 5.815000 255 0 0
-0.602500 -16.264999 8.957500 0 255 0
-0.660000 -15.250000 2.610000 255 0 0
-0.620000 -16.360001 9.090000 0 255 0
-0.663100 -15.224600 5.860500 255 0 0
-1.020000 -16.709999 13.500000 0 255 0
-0.100000 -15.480000 5.390000 0 255 0
-0.718900 -15.017800 -4.393300 0 255 0
-0.718200 -14.882700 -1.190800 0 255 0
-0.245000 -15.225000 -5.200000 0 255 255
-0.270000 -15.815000 7.865000 0 255 0
-0.265500 -15.127300 1.110900 0 255 0
-0.693600 -14.909100 -2.985500 255 0 0
-1.618300 -15.818300 9.356700 0 255 0
-1.355700 -14.818600 -4.545700 0 255 255
-0.800000 -16.469999 16.110001 0 255 0
-0.080000 -16.600000 15.940000 0 255 0
-1.045000 -13.905000 -5.042500 0 255 255
-0.860000 -16.707500 16.270000 0 255 0
-0.357500 -14.312500 -4.842500 0 255 255
-0.799000 -14.010000 -4.480000 0 255 255
-0.180000 -14.835000 -4.935000 0 255 255
-0.155000 -15.015000 8.100000 0 255 0
0.328800 -14.820000 5.403100 0 255 0
0.087100 -15.717100 3.757100 0 255 0
0.087300 -15.575500 7.263600 0 255 0
-0.754300 -14.418600 -4.498600 0 255 255
0.136700 -16.183300 10.153300 0 255 0
-0.530000 -15.950000 16.770000 0 255 0
-0.513600 -15.676400 9.060000 0 255 0
-1.411500 -15.925400 9.263800 0 255 0
-1.420000 -16.030001 16.459999 0 255 0
-1.403800 -15.875000 7.048700 0 255 0
-1.160000 -14.961400 -5.288600 0 255 255
-1.405000 -15.773600 7.055000 0 255 0
-1.556700 -16.233299 16.956699 0 255 0
-1.540000 -16.209999 17.120001 0 255 0
-1.030000 -14.870000 -5.050000 0 255 0
-1.406000 -16.112000 9.220000 0 255 0
-0.210000 -15.090000 -4.220000 0 255 255
-1.165000 -14.980000 -5.640000 0 255 255
-1.161100 -15.571100 7.003300 0 255 0
-0.815000 -17.020000 17.209999 0 255 0
-1.250000 -16.070000 9.140000 0 255 0
-0.227500 -14.267500 -5.170000 0 255 255
0.078000 -15.710000 7.962000 0 255 0
-0.250000 -15.860000 16.620001 0 255 0
-0.997100 -14.475700 -4.800000 0 255 255
-1.070000 -16.500000 14.160000 0 255 0
-1.330000 -14.870000 -4.330000 0 255 255
-0.717500 -14.466300 -4.493800 0 255 0
-1.060000 -15.750000 18.250000 0 255 0
-0.010000 -15.160000 1.100000 0 255 0
0.100000 -15.615000 5.742500 0 255 0
0.085000 -15.216700 12.721700 0 255 0
0.100000 -15.187500 9.565000 0 255 0
-0.955300 -15.921800 -4.987100 0 255 255
-0.070000 -15.515000 -5.350000 0 255 255
-0.190000 -16.280001 6.070000 0 255 0
0.186000 -14.376000 -4.790000 0 255 255
-0.570000 -14.930000 -2.480000 255 0 0
-0.550000 -15.290000 12.340000 0 255 0
-1.550000 -14.020000 -4.820000 0 255 255
-0.890000 -15.970000 7.040000 0 255 0
-0.890000 -15.100000 2.880000 255 0 0
0.045000 -15.810000 11.820000 0 255 0
0.047500 -15.930000 11.822500 0 255 0
0.390000 -15.316000 7.948000 0 255 0
-0.955000 -14.872500 -4.850000 0 255 0
-0.759000 -15.016000 -4.544000 255 0 0
-0.810000 -16.360001 6.930000 0 255 0
-1.390000 -14.120000 -3.830000 0 255 255
-1.756000 -15.972000 14.002000 0 255 0
-0.315000 -14.975000 -4.870000 0 255 255
-1.130000 -16.770000 15.490000 0 255 0
-1.040000 -14.660000 -4.940000 0 255 0
0.290000 -15.058900 -4.585600 0 255 255
-0.560000 -15.820000 12.213300 0 255 0
-0.550000 -15.870000 8.966700 0 255 0
-0.540000 -15.920000 15.390000 0 255 0
-1.160000 -15.380000 12.660000 0 255 0
-0.270000 -16.670000 15.880000 0 255 0
-0.120000 -14.830000 -5.030000 0 255 255
-1.440000 -16.299999 15.870000 0 255 0
-1.055000 -16.565001 15.915000 0 255 0
-0.311900 -15.163300 0.861700 0 255 0
-0.268300 -14.470000 9.610000 0 255 0
-0.798000 -16.021999 12.366000 0 255 0
-0.822900 -13.877100 -4.457100 0 255 255
-0.760000 -16.610001 14.580000 0 255 0
-0.620000 -15.210000 3.046700 255 0 0
-0.605000 -15.370000 12.508800 0 255 0
-0.616000 -15.269000 6.210000 255 0 0
0.150000 -15.700000 5.040000 0 255 0
-1.270000 -15.440000 -5.040000 0 255 255
-1.010000 -14.290000 -4.470000 0 255 255
-1.305500 -13.921800 -3.393600 0 255 255
-1.220000 -15.530000 -4.970000 0 255 255
-0.900000 -15.020000 0.463300 255 0 0
-0.315000 -14.830000 -5.390000 0 255 255
-0.315000 -15.325000 13.360000 0 255 0
-0.310000 -15.350000 3.710000 0 255 0
-1.220000 -15.500000 -5.040000 0 255 255
-0.756000 -14.308000 -3.440000 0 255 255
-1.411000 -14.678000 7.655500 0 255 0
-1.480000 -16.330000 14.270000 0 255 0
-0.309100 -14.005500 -5.039100 0 255 255
-0.245000 -14.835000 13.355000 0 255 0
-1.706700 -15.306700 8.866700 0 255 0
-1.549500 -15.869500 9.362000 0 255 0
-1.057500 -15.571200 7.710000 0 255 0
0.235000 -14.425000 -4.675000 0 255 255
-1.010000 -14.600000 -5.060000 0 255 0
-1.430000 -16.139999 16.520000 0 255 0
-1.408600 -15.973600 7.012900 0 255 0
-1.550000 -16.030001 13.670000 0 255 0
-0.065000 -15.255000 5.445000 0 255 0
-1.411700 -14.711700 7.698300 0 255 0
-1.460000 -16.250000 16.480000 0 255 0
-1.270000 -16.209999 16.969999 0 255 0
-1.050000 -14.610000 -5.520000 0 255 0
-1.060000 -14.520000 -5.280000 0 255 0
-1.103300 -16.610001 15.963300 0 255 0
-1.240000 -14.550000 -4.110000 0 255 255
-0.950000 -16.559999 16.170000 0 255 0
-0.696700 -14.980000 -1.283300 255 0 0
-0.711300 -15.027000 1.958900 255 0 0
-0.311100 -14.519300 -4.187400 0 255 255
-1.020000 -16.090000 6.760000 0 255 0
-1.010000 -16.063299 6.903300 0 255 0
-1.340000 -15.240000 -5.010000 0 255 255
-1.064300 -15.074300 -4.494300 0 255 0
-0.355000 -15.290000 -5.255000 0 255 255
-0.780000 -15.990000 16.350000 255 0 0
-1.840000 -14.630000 -4.760000 0 255 255
-1.000000 -14.130000 -4.110000 0 255 255
-0.090000 -15.770000 14.550000 0 255 0
-1.010000 -15.235000 -4.090000 0 255 255
-1.000000 -14.667500 -5.435000 0 255 0
-0.761800 -15.220200 5.557100 255 0 0
0.020000 -15.660000 14.570000 0 255 0
-0.723300 -15.183300 9.303300 0 255 0
-0.700000 -15.260000 2.796700 255 0 0
-0.715000 -15.315000 5.965000 255 0 0
0.395100 -14.974600 0.510800 0 255 0
-0.070000 -16.110001 12.190000 0 255 0
-0.055000 -16.170000 9.055000 0 255 0
-0.070000 -16.200001 5.920000 0 255 0
0.280000 -14.660000 -4.460000 0 255 255
0.288900 -14.818900 5.365200 0 255 0
-0.872500 -15.920000 -4.842500 0 255 255
-0.570000 -15.280000 7.490000 255 0 0
-0.570000 -15.175700 0.952900 255 0 0
-0.540000 -15.680000 11.650000 255 0 0
-0.557500 -15.560000 5.112500 0 255 0
-0.140000 -15.260000 16.680000 0 255 0
-0.753700 -15.366200 8.111300 255 0 0
-0.655000 -14.470000 -4.882500 0 255 255
-0.850600 -14.833500 -4.036500 255 0 0
-0.620000 -14.800000 13.450000 0 255 0
-0.330000 -16.530001 9.790000 0 255 0
-0.720000 -14.327500 -4.437500 0 255 255
-0.260000 -15.030000 -4.985000 0 255 255
-0.280000 -14.870000 9.740000 0 255 0
-0.909000 -15.832000 7.008000 0 255 0
-1.005000 -15.665000 -5.170000 0 255 255
0.320000 -16.440001 13.460000 0 255 0
-1.568900 -15.015600 9.308900 0 255 0
-0.662200 -15.113300 1.414400 255 0 0
-0.125000 -16.430000 11.200000 0 255 0
-0.121100 -15.371700 5.216700 0 255 0
-0.359000 -14.262500 -4.436000 0 255 255
-0.370000 -14.290000 -4.145000 0 255 255
-0.350000 -14.276700 -4.790000 0 255 255
-0.800000 -15.100000 -3.940000 0 255 0
-1.552500 -14.220000 -4.335000 0 255 255
-0.705000 -15.472500 12.360000 0 255 0
-0.412900 -14.420000 -4.888600 0 255 255
-0.400000 -16.430000 14.510000 0 255 0
-0.050000 -15.150000 14.680000 0 255 0
-0.816500 -15.167100 2.459400 255 0 0
-0.794000 -15.228000 5.710000 255 0 0
-0.530000 -15.910000 13.960000 255 0 0
-0.813300 -16.616699 13.903300 0 255 0
-0.820000 -15.620000 11.750000 0 255 0
-0.830000 -15.730000 18.080000 0 255 0
-1.480000 -16.270000 16.709999 0 255 0
-1.405000 -14.465000 -4.590000 0 255 255
-0.330000 -15.160000 9.580000 0 255 0
-0.020000 -15.230000 14.800000 0 255 0
-0.770000 -15.025000 -2.205000 255 0 0
-0.754300 -15.127100 4.314600 255 0 0
-0.762200 -14.980300 1.060600 255 0 0
-0.070000 -15.210000 14.600000 0 255 0
-0.050000 -15.770000 5.600000 0 255 0
-0.060000 -15.770000 12.050000 0 255 0
-1.530000 -14.030000 -3.870000 0 255 255
-1.240000 -15.220000 12.760000 0 255 0
-1.270000 -14.312500 -4.870000 0 255 255
0.045000 -15.575000 3.915000 0 255 0
0.055000 -15.720000 7.255000 0 255 0
-0.010300 -15.023000 5.357000 0 255 0
0.070000 -14.690000 -5.170000 0 255 255
0.120000 -15.140000 9.860000 0 255 0
-0.110000 -14.456700 -5.023300 0 255 255
0.053300 -14.926700 -4.893300 0 255 255
-0.160000 -15.085000 15.710000 0 255 0
0.236700 -15.613300 7.963300 0 255 0
0.060000 -14.800000 -4.160000 0 255 255
0.036700 -14.872000 5.312400 0 255 0
-1.140000 -14.990000 9.190000 0 255 0
-1.164000 -15.218000 -4.596000 0 255 255
-1.370000 -15.450000 6.980000 0 255 0
0.243200 -14.966000 5.216800 0 255 0
-0.930000 -14.910000 -4.930000 0 255 0
-0.897500 -14.958800 -1.687500 0 255 0
-0.846700 -15.183300 4.516700 255 0 0
-0.410000 -16.959999 14.960000 0 255 0
-0.750000 -15.150000 0.460000 255 0 0
-0.780000 -15.300000 3.610000 255 0 0
-0.757100 -15.277400 6.758300 0 255 0
0.138200 -15.170000 7.201800 0 255 0
0.180000 -16.510000 13.310000 0 255 0
-1.280000 -14.755000 -4.575000 0 255 255
-0.580000 -16.520000 10.650000 0 255 0
0.060000 -15.870000 10.180000 0 255 0
0.030000 -15.780000 3.640000 0 255 0
-0.130000 -16.670000 13.580000 0 255 0
-0.306000 -14.927000 9.653000 0 255 0
-1.240000 -15.330000 12.720000 0 255 0
-1.253800 -15.373800 9.465000 0 255 0
-0.756700 -14.480000 -3.956700 0 255 255
-0.455000 -14.320000 -4.336700 0 255 255
-0.560300 -14.219300 -4.538300 0 255 255
-0.460600 -14.069400 -3.851000 0 255 255
-0.550000 -14.410000 7.940000 0 255 0
-0.462100 -14.068600 -3.705700 0 255 255
-1.557500 -15.722500 6.862500 0 255 0
-0.250000 -16.820000 15.880000 0 255 0
-0.660000 -16.110001 16.629999 0 255 0
-0.627100 -15.214300 3.560000 255 0 0
-0.600000 -15.370000 13.200000 0 255 0
-0.621100 -15.280000 6.705600 255 0 0
-0.710000 -15.131400 0.517100 255 0 0
-0.703800 -15.062500 -2.641900 0 255 0
-0.723300 -14.930000 13.160000 0 255 0
-0.010000 -13.980000 -4.625000 0 255 255
-0.819600 -14.912900 -1.292100 255 0 0
-0.790000 -14.870000 -4.545000 255 0 0
-0.980000 -14.770000 -3.240000 0 255 0
0.180000 -15.125000 -4.595000 0 255 255
-0.754400 -14.182200 -3.778900 0 255 255
-0.030000 -16.080000 8.030000 0 255 0
-1.110000 -16.389999 16.049999 0 255 0
0.044000 -15.368000 14.850000 0 255 0
0.210000 -15.890000 12.450000 0 255 0
-0.965000 -14.990000 9.495000 0 255 0
-0.310000 -15.230000 -5.385000 0 255 255
-0.320000 -15.800000 8.080000 0 255 0
-0.306700 -15.121800 0.910400 0 255 0
-0.040000 -14.250000 -4.605000 0 255 255
0.297900 -15.473600 5.912900 0 255 0
-0.463300 -14.900000 -5.393300 0 255 0
-0.090000 -16.059999 11.770000 0 255 0
-0.118600 -15.912900 8.107100 0 255 0
-0.130000 -15.900000 14.460000 0 255 0
-0.113300 -16.028299 7.963300 0 255 0
-0.754800 -14.308300 -3.537000 0 255 255
-0.559200 -15.018700 9.603300 0 255 0
-1.171200 -14.287500 -3.697500 0 255 255
-0.463300 -14.266700 -4.943300 0 255 255
-0.106700 -16.270000 6.543300 0 255 0
-1.512900 -15.717700 7.008600 0 255 0
-1.700000 -16.250000 16.530001 0 255 0
-1.300000 -14.340000 -4.710000 0 255 255
0.050000 -15.290000 5.220000 0 255 0
-0.830000 -16.389999 11.910000 0 255 0
-0.130000 -16.160000 10.350000 0 255 0
-0.115000 -16.174999 12.345000 0 255 0
-0.100000 -16.180000 12.230000 0 255 0
-0.125000 -16.219999 11.652500 0 255 0
0.040000 -16.120001 14.080000 0 255 0
0.060000 -16.030001 7.780000 0 255 0
-0.470000 -15.520000 -4.770000 0 255 255
-0.110000 -16.236700 13.896700 0 255 0
-0.103300 -15.960000 10.396700 0 255 0
0.373300 -15.110000 -4.936700 0 255 255
-0.130000 -15.960000 8.850000 0 255 0
-0.105800 -15.908300 5.715800 0 255 0
-0.112200 -16.212200 12.416700 0 255 0
-0.110000 -15.910000 7.225000 0 255 0
-0.110000 -15.975800 10.367500 0 255 0
-1.530000 -14.990000 -4.590000 0 255 255
-0.120000 -16.360001 13.640000 0 255 0
-0.130000 -15.990000 16.200001 0 255 0
-0.130000 -16.020000 6.110000 0 255 0
-0.760000 -14.732500 -5.250000 0 255 0
-0.852500 -14.757500 -4.835000 0 255 0
-0.258600 -15.715700 8.112100 0 255 0
-0.266700 -15.823300 5.900000 0 255 0
-0.265000 -15.762500 9.045000 0 255 0
-0.862500 -16.013800 15.958800 0 255 0
-0.160000 -15.070000 7.164000 0 255 0
-0.650000 -13.850000 -4.600000 0 255 255
0.170000 -16.580000 17.160000 0 255 0
0.330000 -15.263300 0.710000 0 255 0
0.088600 -15.528600 7.995700 0 255 0
-0.670800 -15.064300 -0.189500 255 0 0
-0.860000 -16.559999 13.410000 0 255 0
-1.612200 -14.713300 -4.091100 0 255 255
-1.020000 -16.840000 16.330000 0 255 0
-1.053300 -14.013300 -3.250000 0 255 255
-1.250000 -14.160000 -5.040000 0 255 255
-0.880000 -14.720000 9.180000 0 255 0
-0.840000 -14.880000 -0.390000 0 255 0
-0.854200 -14.515800 -3.890000 0 255 255
-0.071700 -15.211700 5.376700 0 255 0
-1.412600 -15.877800 7.012600 0 255 0
0.145000 -15.010000 -4.440000 0 255 255
0.141000 -14.872900 5.365500 0 255 0
-0.090000 -14.800000 -5.120000 0 255 255
-0.245000 -15.217500 9.960000 0 255 0
-0.840000 -16.389999 15.270000 0 255 0
-0.860900 -16.462700 8.751800 0 255 0
-1.010000 -14.766000 9.266000 0 255 0
-0.500000 -16.167900 5.805300 0 255 0
-0.511800 -16.025499 8.963600 0 255 0
-0.515000 -16.305000 14.915000 0 255 0
-0.490000 -16.230000 15.050000 0 255 0
-0.500000 -16.049999 5.660000 0 255 0
-0.260000 -14.724000 9.655500 0 255 0
-0.990000 -15.720000 -4.820000 0 255 255
-0.090000 -15.450000 7.990000 0 255 0
-0.116000 -16.464001 17.851999 0 255 0
-0.853800 -14.823800 -3.388700 255 0 0
0.096700 -14.950000 9.943300 0 255 0
0.176700 -16.223301 13.350000 0 255 0
-0.540000 -15.990000 14.520000 0 255 0
-0.570000 -15.960000 16.715000 0 255 0
-0.705000 -15.516700 10.313300 255 0 0
-0.870000 -16.360001 6.980000 0 255 0
-0.350000 -16.309999 8.050000 0 255 0
-1.010000 -15.150000 -4.435000 0 255 0
-0.390000 -15.580000 4.100000 0 255 0
-1.220000 -16.260000 17.690001 0 255 0
-1.214300 -15.775700 12.904300 0 255 0
-1.230000 -16.004999 6.995000 0 255 0
-0.710000 -15.590000 12.430000 0 255 0
0.175000 -14.460000 -4.690000 0 255 255
-0.174000 -14.924000 -4.784000 0 255 255
-1.180000 -15.680000 12.720000 0 255 0
-0.730000 -16.760000 15.220000 0 255 0
0.200000 -15.270000 14.680000 0 255 0
0.092500 -15.510000 5.600000 0 255 0
-0.266600 -14.478200 -4.186100 0 255 255
0.210000 -16.260000 13.170000 0 255 0
0.200000 -16.230000 9.900000 0 255 0
-1.006700 -16.476700 15.920000 0 255 0
0.360000 -15.260000 7.180000 0 255 0
0.338900 -15.365600 0.648900 0 255 0
-1.480000 -15.180000 -4.530000 0 255 255
0.143300 -16.176701 11.803300 0 255 0
0.128000 -16.323999 11.164000 0 255 0
0.130000 -16.320000 11.310000 0 255 0
-1.210000 -15.310000 12.620000 0 255 0
-1.213300 -15.266700 9.463300 0 255 0
-1.210000 -15.110000 12.690000 0 255 0
-0.869300 -15.022100 -3.390700 255 0 0
-0.860000 -15.270000 6.010000 255 0 0
-0.861800 -15.221800 9.266400 0 255 0
-0.857900 -14.971000 -0.140200 0 255 0
-1.048200 -14.817600 9.113500 0 255 0
-0.865000 -16.226299 4.326200 0 255 0
0.001700 -15.928300 4.211700 0 255 0
-1.740000 -15.250000 9.400000 0 255 0
0.135000 -14.770000 9.565000 0 255 0
-0.755000 -14.560000 9.620000 0 255 0
-0.756800 -14.920500 -0.288100 0 255 0
-1.106000 -16.216000 6.770000 0 255 0
0.070000 -14.420000 -4.150000 0 255 255
0.087100 -15.775000 5.659600 0 255 0
0.089000 -15.677000 12.418000 0 255 0
-0.245000 -15.815000 9.010000 0 255 0
-1.671400 -15.264300 9.112900 0 255 0
-0.870000 -16.900000 16.100000 0 255 0
-0.810900 -14.225500 -3.650900 0 255 255
-0.604100 -14.111200 -3.848800 0 255 255
-0.715000 -14.670000 -4.546300 0 255 0
0.200000 -15.150000 5.250000 0 255 0
0.190000 -15.000000 -4.290000 0 255 255
0.130000 -16.217501 9.515000 0 255 0
-1.730000 -15.700000 9.300000 0 255 0
-1.710000 -16.180000 14.113300 0 255 0
-1.520000 -15.390000 12.570000 0 255 0
-1.540000 -14.660000 -4.430000 0 255 255
-0.407500 -16.317499 8.965000 0 255 0
-0.420000 -16.253300 5.720000 0 255 0
-0.570000 -16.090000 15.000000 0 255 0
-0.508800 -16.121201 8.961200 0 255 0
-0.893000 -14.879000 -3.481000 255 0 0
-0.740000 -15.110000 2.220000 255 0 0
-0.751600 -15.030000 -4.091600 255 0 0
-0.763300 -14.966700 -0.843300 255 0 0
-0.770000 -15.455000 8.905000 255 0 0
-0.771900 -15.213300 4.909000 0 255 0
-0.480000 -16.620001 15.690000 0 255 0
-0.470000 -16.660000 12.453300 0 255 0
-0.560000 -15.260000 13.070000 0 255 0
-1.420000 -16.760000 15.360000 0 255 0
-1.467300 -16.118200 6.675500 0 255 0
-0.810000 -15.860000 18.049999 0 255 0
-0.810000 -15.800000 14.900000 255 0 0
-0.810000 -15.780000 11.620000 0 255 0
-0.360000 -16.040001 18.309999 0 255 0
-0.353300 -16.173300 8.916700 0 255 0
-0.565000 -14.622500 9.716300 0 255 0
-0.850000 -14.630000 -4.390000 0 255 0
0.170000 -16.170000 17.910000 0 255 0
0.190000 -16.225000 13.405000 0 255 0
-1.790000 -15.330000 -4.470000 0 255 255
0.200000 -15.740000 13.410000 0 255 0
-0.850000 -15.217100 4.458600 255 0 0
-0.860300 -14.915900 -1.690800 255 0 0
-0.900000 -14.830000 -1.900000 255 0 0
-0.910000 -14.570000 -4.790000 0 255 0
0.080000 -15.420000 9.940000 0 255 0
0.085500 -15.517300 3.660900 0 255 0
-0.963800 -14.818500 -5.385400 0 255 0
-0.580000 -15.110000 1.910000 255 0 0
-0.560000 -15.020000 -4.400000 0 255 0
-0.560000 -15.340000 14.540000 0 255 0
-0.720000 -15.110000 -1.460000 255 0 0
-0.705000 -15.060000 -4.675000 255 0 0
-0.715000 -14.985000 1.590000 255 0 0
-1.697100 -14.571400 -4.005700 0 255 255
-0.160000 -14.340000 -3.760000 0 255 255
-0.860000 -16.139999 16.799999 0 255 0
-0.790000 -14.520000 -3.490000 0 255 255
0.080000 -16.100000 11.710000 0 255 0
0.090000 -16.206699 9.553300 0 255 0
-0.730000 -16.049999 9.000000 0 255 0
-0.712500 -15.967500 15.505000 255 0 0
-0.710000 -15.968800 8.955000 0 255 0
-1.560000 -15.720000 9.497500 0 255 0
0.180000 -15.750000 11.720000 0 255 0
0.180000 -15.370000 -5.330000 0 255 255
0.190000 -15.740000 16.790001 0 255 0
0.378600 -14.930000 5.198600 0 255 0
-0.570000 -15.890000 14.780000 255 0 0
-0.540000 -15.740000 12.870000 255 0 0
-0.008300 -14.213300 -4.606700 0 255 255
-0.580000 -15.830000 14.490000 255 0 0
0.230000 -15.730000 12.080000 0 255 0
0.080000 -15.080000 7.880000 0 255 0
0.180900 -16.218201 9.568200 0 255 0
0.190000 -15.211300 9.648800 0 255 0
0.193300 -15.216700 9.500000 0 255 0
0.198000 -15.274000 12.656000 0 255 0
0.339500 -15.723600 7.165000 0 255 0
0.330000 -15.730000 7.910000 0 255 0
-1.700000 -15.180000 -4.660000 0 255 255
-0.763800 -14.829800 -3.789000 255 0 0
0.320000 -15.500000 6.040000 0 255 0
-0.950000 -14.770700 -5.541400 0 255 0
-1.020000 -16.309999 17.070000 0 255 0
-1.010000 -16.120001 4.400000 0 255 0
-1.047500 -13.775000 -4.327500 0 255 255
-1.016700 -16.320000 16.920000 0 255 0
-0.250000 -16.120001 12.495000 0 255 0
-0.270000 -15.456700 5.406700 0 255 0
-1.550000 -15.270000 -4.510000 0 255 255
-1.206700 -16.803301 15.453300 0 255 0
-1.810000 -14.840000 -4.850000 0 255 255
-0.708800 -14.517300 -3.842400 0 255 0
0.060000 -15.330000 3.880000 0 255 0
0.026700 -16.666700 17.250000 0 255 0
0.040000 -15.160900 0.705700 0 255 0
-1.120000 -16.910000 16.180000 0 255 0
0.180000 -16.170000 12.520000 0 255 0
-0.195000 -16.215000 6.100000 0 255 0
-0.680000 -16.290001 16.010000 0 255 0
-0.614000 -15.074000 2.968000 255 0 0
-0.610000 -15.000000 -0.190000 255 0 0
-1.366700 -15.883300 9.153300 0 255 0
0.033300 -15.870000 5.673300 0 255 0
-1.150000 -16.280001 15.910000 0 255 0
-0.260000 -15.423300 5.120000 0 255 0
-1.090000 -15.000000 9.480000 0 255 0
-1.354000 -14.011000 -3.703000 0 255 255
-1.350000 -14.000000 -3.655000 0 255 255
0.043000 -15.916000 7.361000 0 255 0
-1.630000 -16.004999 14.050000 0 255 0
-0.017500 -14.825000 9.770000 0 255 0
-1.513300 -15.523300 7.056700 0 255 0
-0.170000 -14.650000 -4.200000 0 255 255
-0.955000 -15.810000 9.370000 0 255 0
-1.150000 -13.990000 -3.850000 0 255 255
-1.110000 -16.040001 16.760000 0 255 0
-0.290000 -15.660000 -5.350000 0 255 255
0.345000 -15.420000 5.820000 0 255 0
0.336400 -15.421800 7.921800 0 255 0
0.350000 -15.775000 11.895000 0 255 0
0.348900 -15.227400 -4.740200 0 255 255
0.160000 -15.540000 15.720000 0 255 0
0.140000 -15.570000 12.500000 0 255 0
0.198300 -15.573300 5.104200 0 255 0
0.198300 -15.720000 14.605000 0 255 0
-0.962200 -14.856700 -4.443300 255 0 0
-0.166700 -15.213300 -4.844400 0 255 255
-1.265000 -16.825001 15.890000 0 255 0
0.150000 -16.190001 13.350000 0 255 0
0.148700 -14.278800 -4.627500 0 255 255
0.190000 -16.320000 11.580000 0 255 0
-1.358800 -15.116300 -4.637500 0 255 255
-1.403900 -13.970000 -3.985000 0 255 255
-0.718000 -14.916000 -2.196000 255 0 0
-1.250300 -14.321700 -3.742400 0 255 255
0.178900 -15.531100 3.852200 0 255 0
0.193000 -15.561000 7.357000 0 255 0
-0.795000 -15.975000 17.910000 0 255 0
-0.365000 -15.970000 8.065000 0 255 0
-0.680000 -14.690000 -3.350000 0 255 0
-0.805800 -15.965000 9.016700 0 255 0
-0.820000 -16.056700 15.496700 0 255 0
-0.800000 -15.980000 15.475000 0 255 0
-0.690000 -14.610000 -4.900000 0 255 0
-0.306700 -16.078300 7.756700 0 255 0
-0.316700 -16.208300 4.508300 0 255 0
-0.315000 -16.129999 11.007500 0 255 0
-0.290000 -16.084999 7.620000 0 255 0
0.346300 -14.556300 -4.493800 0 255 255
0.230000 -15.180000 9.840000 0 255 0
0.260000 -14.920000 0.360000 0 255 0
-0.595000 -15.560000 -5.600000 0 255 255
-0.665000 -14.475000 -3.550000 0 255 255
-1.109700 -14.869400 9.114500 0 255 0
0.270000 -15.910000 10.190000 0 255 0
-0.980000 -15.875000 6.855000 0 255 0
-1.264300 -15.275700 -4.978600 0 255 255
-1.121400 -14.415700 -4.882900 0 255 255
-0.810000 -15.062000 -4.648000 255 0 0
-0.810000 -15.050000 -4.870000 0 255 0
-0.600000 -14.772500 -4.927500 0 255 0
-0.645000 -16.480000 13.065000 0 255 0
-0.620000 -14.836000 -1.938000 255 0 0
-0.630000 -14.830000 -2.300000 255 0 0
-0.655000 -16.512501 10.347500 0 255 0
-0.256700 -16.230000 7.903300 0 255 0
-0.270000 -15.470000 3.720000 0 255 0
-0.890000 -14.870000 9.470000 0 255 0
0.345000 -15.785000 7.925000 0 255 0
-0.306000 -15.014000 13.260000 0 255 0
-0.070000 -15.520000 -5.391700 0 255 255
-0.040000 -15.775000 4.405000 0 255 0
-0.607500 -14.176200 -3.653700 0 255 255
0.060000 -15.660000 5.530000 0 255 0
0.188100 -14.922200 8.009700 0 255 0
0.192500 -15.022500 7.920000 0 255 0
-0.100000 -16.639999 11.590000 0 255 0
-0.125000 -16.520000 17.920000 0 255 0
-0.160000 -16.113300 11.703300 0 255 0
-0.960000 -14.775000 -4.690000 0 255 0
-0.808100 -15.013800 -2.386900 255 0 0
-0.825000 -15.075000 0.955000 255 0 0
-0.795700 -15.130000 4.114300 255 0 0
0.138900 -15.663200 7.257900 0 255 0
-0.857500 -15.057500 -4.342500 255 0 0
-0.866200 -15.017500 -1.090000 255 0 0
0.197200 -15.010000 5.263900 0 255 0
-1.762000 -14.862000 -4.892000 0 255 255
-1.205000 -16.635000 13.355000 0 255 0
-0.812500 -16.023701 12.316300 0 255 0
-0.808600 -15.970700 9.062100 0 255 0
-0.105000 -14.470000 -4.181700 0 255 255
-0.950000 -15.930000 17.010000 0 255 0
-0.960000 -15.875000 7.690000 0 255 0
0.391200 -15.774100 11.760600 0 255 0
-0.620000 -14.410000 7.670000 0 255 0
-0.623300 -14.221700 -4.988300 0 255 255
-0.425000 -16.785000 13.865000 0 255 0
-1.046700 -14.266700 -4.390000 0 255 255
-1.073800 -14.106900 -4.139200 0 255 255
-0.850900 -14.919500 -2.491800 255 0 0
-0.645600 -14.971100 -2.440000 255 0 0
-0.414500 -14.813600 -4.695500 0 255 255
-0.403300 -16.530001 12.450000 0 255 0
-0.230000 -14.530000 -4.130000 0 255 255
-1.773300 -14.973300 5.796700 0 255 0
-1.800000 -14.340000 -4.340000 0 255 255
-0.690000 -16.209999 11.650000 0 255 0
-1.267500 -15.172500 -4.390000 0 255 255
-0.905000 -14.875000 9.110000 0 255 0
-0.920000 -14.660000 -3.950000 0 255 0
-1.600000 -16.110001 16.600000 0 255 0
-0.290000 -14.380000 -4.920000 0 255 255
-0.720000 -15.060000 0.440000 255 0 0
-0.711000 -15.113100 3.610500 255 0 0
-0.720000 -16.709999 11.810000 0 255 0
-0.930000 -16.040001 16.940001 0 255 0
-0.917300 -15.866700 7.048700 0 255 0
-0.512900 -15.514300 -4.631400 0 255 255
-0.510700 -15.471400 5.107900 0 255 0
-1.443300 -15.026700 -5.493300 0 255 255
-0.380000 -15.400000 -4.420000 0 255 255
-0.910000 -13.766200 -4.486300 0 255 255
0.170000 -16.139999 12.580000 0 255 0
-0.005000 -15.820000 11.620000 0 255 0
-1.650000 -15.170000 -4.670000 0 255 255
-0.363300 -15.176700 13.268300 0 255 0
-0.502500 -13.820000 -4.725000 0 255 255
-1.367500 -15.117500 -4.685000 0 255 255
-0.373300 -16.030001 8.063300 0 255 0
-1.323300 -15.160000 -4.546700 0 255 255
-1.310000 -14.580000 -4.470000 0 255 255
-1.208000 -15.160000 -4.442000 0 255 255
-0.715600 -15.088900 3.704400 255 0 0
-0.695000 -15.030000 13.270000 0 255 0
-1.147500 -16.322500 6.895000 0 255 0
0.000000 -15.166700 7.870000 0 255 0
-0.356700 -15.140000 -4.583300 0 255 255
-0.350000 -15.725000 8.877500 0 255 0
-0.790000 -15.290000 12.400000 0 255 0
-0.810000 -15.225900 9.266800 0 255 0
-0.820000 -16.070000 18.520000 0 255 0
-0.730000 -15.290000 -4.660000 0 255 255
-0.700000 -15.177500 1.860000 255 0 0
-0.720000 -15.202500 5.121200 255 0 0
-0.816700 -14.573300 -3.646700 0 255 255
-0.470000 -15.780000 16.830000 0 255 0
-0.462500 -15.482500 10.250000 0 255 0
-0.452900 -15.510000 7.005700 0 255 0
-0.300000 -15.190000 9.810000 0 255 0
-0.330000 -14.710000 -5.145000 0 255 255
-0.710000 -16.253300 13.106700 0 255 0
-0.730000 -16.340000 14.430000 0 255 0
-1.718000 -14.224000 -4.100000 0 255 255
0.145000 -14.160000 -4.740000 0 255 255
-1.530000 -14.650000 -4.130000 0 255 255
-0.150000 -16.590000 17.240000 0 255 0
-0.166700 -16.436701 14.063300 0 255 0
-0.160000 -16.325001 7.775000 0 255 0
-0.157700 -15.418200 3.821400 0 255 0
-1.030000 -14.210000 -4.740000 0 255 255
-0.705000 -15.150000 -5.235000 0 255 0
-0.709300 -15.130700 4.764700 255 0 0
-0.699000 -15.055000 1.511000 0 255 0
-1.180000 -16.559999 16.049999 0 255 0
0.136100 -15.524500 3.761400 0 255 0
-0.602500 -15.870000 8.095000 0 255 0
-0.662700 -15.616000 11.359300 255 0 0
-0.430000 -15.520000 14.740000 0 255 0
-1.304000 -14.936000 -5.286000 0 255 255
-0.028000 -16.068001 8.060000 0 255 0
-1.540000 -16.240000 17.190001 0 255 0
-1.270000 -15.730000 -5.200000 0 255 255
-0.630000 -15.550000 13.210000 0 255 0
-0.615000 -15.525000 9.965000 255 0 0
-0.607800 -15.456700 6.907800 0 255 0
-0.820000 -15.080000 0.665000 255 0 0
-0.810600 -15.022400 -2.491800 255 0 0
-0.801900 -15.126100 3.808700 0 255 0
-0.020000 -15.740000 14.400000 0 255 0
-0.013300 -15.633300 7.920000 0 255 0
-1.390000 -14.430000 -5.020000 0 255 255
-0.020000 -15.580000 7.030000 0 255 0
-0.010000 -15.712500 16.555000 0 255 0
-0.759600 -14.932100 0.059300 255 0 0
-0.325000 -14.880000 -4.675000 0 255 255
-0.370000 -14.815000 13.405000 0 255 0
-0.319100 -14.516400 -4.797300 0 255 255
-0.520000 -14.168800 -3.700600 0 255 255
-0.412100 -14.513600 9.765700 0 255 0
-1.180000 -15.010000 -4.580000 0 255 255
-1.280000 -14.280000 -4.320000 0 255 255
-0.230000 -14.320000 -4.243300 0 255 255
-1.259300 -14.067900 -4.535700 0 255 255
-1.080000 -16.950001 16.350000 0 255 0
0.148200 -15.277300 8.052700 0 255 0
-0.750000 -15.923300 16.663300 0 255 0
-0.130000 -15.890000 8.290000 0 255 0
-0.110000 -15.725000 11.670000 0 255 0
0.235000 -14.375000 -4.980000 0 255 255
-0.850000 -14.970000 13.330000 0 255 0
0.035700 -14.681400 5.495700 0 255 0
0.040900 -14.612800 -4.233500 0 255 255
0.090600 -15.069700 7.204900 0 255 0
-1.200000 -14.000000 -3.150000 0 255 255
0.037000 -14.858000 -4.485000 0 255 255
-0.560000 -16.480000 14.500000 0 255 0
-0.917500 -14.867500 -4.782500 0 255 0
-0.758200 -15.223200 5.710600 255 0 0
-0.780000 -15.420000 -5.470000 0 255 255
-0.760000 -15.310000 13.270000 0 255 0
-0.760000 -15.240000 6.750000 255 0 0
-0.212000 -15.212000 5.348000 0 255 0
-0.195700 -15.280000 7.151400 0 255 0
-0.208600 -15.157100 0.861400 0 255 0
-0.914500 -15.370000 9.203500 0 255 0
0.190000 -14.685000 -5.185000 0 255 255
-0.010000 -15.369000 3.811700 0 255 0
-0.110000 -14.373300 -4.223300 0 255 255
-0.870000 -16.070000 16.815001 0 255 0
-0.866700 -15.826700 7.020000 0 255 0
-0.195000 -15.075000 9.695000 0 255 0
-0.307500 -15.428300 -5.292500 0 255 255
-0.796700 -15.036700 -4.350000 255 0 0
-0.814000 -15.072000 -1.086000 255 0 0
-0.817600 -15.120600 2.155900 255 0 0
-0.555000 -15.630000 -5.440000 0 255 255
-0.560000 -15.920000 15.380000 0 255 0
-0.550000 -15.990000 12.230000 0 255 0
-0.016700 -14.566700 -4.783300 0 255 255
0.210000 -15.690000 7.130000 0 255 0
0.180000 -15.770000 13.400000 0 255 0
0.202500 -15.617500 3.852500 0 255 0
-0.390000 -16.450001 17.000000 0 255 0
-1.290000 -16.650000 13.330000 0 255 0
-0.013300 -14.465200 -4.934800 0 255 255
0.178300 -14.665800 -4.887900 0 255 255
-1.020000 -13.910000 -3.110000 0 255 255
-0.975000 -16.510000 13.200000 0 255 0
-0.953300 -15.680000 -5.280000 0 255 255
-0.962500 -14.868100 9.210600 0 255 0
0.350000 -15.920000 10.130000 0 255 0
0.340000 -15.870000 13.250000 0 255 0
-0.397500 -14.915000 -4.137500 0 255 255
-0.766700 -14.166700 -4.986700 0 255 255
-0.758100 -14.320500 -3.637600 0 255 255
-1.065000 -15.707500 7.797500 0 255 0
0.138600 -15.960000 4.301400 0 255 0
-0.222500 -14.302500 -4.790000 0 255 255
-0.105300 -15.320000 3.765000 0 255 0
-0.707500 -16.132500 12.320000 0 255 0
-0.700000 -15.950000 15.370000 255 0 0
-0.700000 -15.965000 15.715000 255 0 0
-0.705000 -16.120001 12.372500 0 255 0
-1.762500 -15.577500 9.556200 0 255 0
-1.220000 -16.309999 15.950000 0 255 0
-0.600000 -15.710000 12.760000 255 0 0
-0.640000 -15.480000 5.140000 0 255 0
-0.665000 -15.416700 8.400000 255 0 0
-0.670000 -15.450000 5.230000 0 255 0
-0.650000 -15.412500 8.355000 255 0 0
-0.630000 -16.100000 8.360000 0 255 0
-0.669800 -14.920200 -1.488600 255 0 0
-1.030000 -16.190001 15.600000 0 255 0
-0.870000 -16.275000 6.965000 0 255 0
-0.716300 -14.407800 -3.339400 0 255 255
-0.130000 -16.230000 14.250000 0 255 0
-0.103300 -15.913300 7.713300 0 255 0
-1.616700 -16.129999 14.006700 0 255 0
-0.460800 -15.925000 5.705800 0 255 0
-0.463300 -15.872200 8.954400 0 255 0
0.100000 -14.910000 -4.640000 0 255 255
-0.800000 -14.120000 -3.750000 0 255 255
-0.700000 -16.780001 13.340000 0 255 0
-0.262500 -15.082500 15.752500 0 255 0
0.210000 -16.330000 14.140000 0 255 0
0.148000 -14.324000 -4.796000 0 255 255
-0.065000 -14.575000 9.855000 0 255 0
-0.900000 -15.830000 17.940001 0 255 0
-0.006700 -15.776700 11.721100 0 255 0
-0.158900 -15.165600 -5.300000 0 255 255
-0.130000 -16.000000 5.770000 0 255 0
-0.850000 -15.060000 -4.540000 255 0 0
-0.857000 -15.016000 -1.289000 255 0 0
-1.490000 -14.550000 -4.210000 0 255 255
-0.013300 -15.873300 7.803300 0 255 0
-0.030000 -15.890000 7.960000 0 255 0
-0.661000 -14.372100 -4.240700 0 255 255
-1.075000 -15.010000 -4.255000 0 255 0
-0.860000 -14.360000 -3.800000 0 255 255
-0.860000 -14.465000 -3.785000 0 255 255
-1.575000 -16.280001 15.965000 0 255 0
-1.402500 -14.575000 -4.337500 0 255 255
-0.090000 -16.010000 7.930000 0 255 0
-0.716700 -16.176701 13.106700 0 255 0
0.140000 -15.960000 11.680000 0 255 0
-0.105000 -16.215000 14.070000 0 255 0
-0.110000 -15.905000 7.910000 0 255 0
-0.270000 -13.970000 -3.870000 0 255 255
-0.345000 -14.530000 -4.385000 0 255 255
-0.810000 -15.163300 1.016700 255 0 0
-0.803000 -15.222000 4.154000 255 0 0
-0.910000 -15.370000 9.116700 0 255 0
-0.366700 -16.660000 11.806700 0 255 0
-1.613300 -14.583300 -4.490000 0 255 255
0.210000 -14.580000 5.500000 0 255 0
-0.840000 -15.320000 -4.850000 0 255 255
-0.920000 -16.870001 15.070000 0 255 0
-0.960000 -14.020000 -4.536700 0 255 255
-0.025000 -16.139999 12.525000 0 255 0
-1.570000 -16.379999 16.170000 0 255 0
-1.580000 -16.379999 17.120001 0 255 0
-1.060000 -14.816700 -5.300000 0 255 0
-0.810000 -15.610000 -5.300000 0 255 255
-0.795000 -15.415000 7.750000 255 0 0
-1.462900 -15.961400 12.810000 0 255 0
-1.450000 -15.922200 9.313300 0 255 0
-1.540000 -14.210000 -4.170000 0 255 255
-1.065000 -14.615000 -4.555000 0 255 0
-0.105000 -13.925000 -4.635000 0 255 255
-0.220000 -15.540000 5.210000 0 255 0
-0.460000 -15.920000 16.920000 0 255 0
-1.200000 -16.155001 6.900000 0 255 0
-0.845300 -15.112700 2.911300 255 0 0
-0.680000 -14.830000 -5.470000 0 255 0
-0.100000 -14.840000 9.810000 0 255 0
0.200000 -15.820000 8.150000 0 255 0
0.206700 -15.673300 5.060000 0 255 0
-0.455000 -15.972500 5.712500 0 255 0
-0.150000 -15.020000 -4.537500 0 255 255
0.090000 -15.616000 3.658000 0 255 0
-1.200000 -14.360000 -4.440000 0 255 255
-0.900000 -15.480000 -4.890000 0 255 255
-0.820000 -14.300000 -3.400000 0 255 255
-0.110300 -14.067400 -3.803500 0 255 255
0.296700 -15.277800 -4.544400 0 255 255
-0.700000 -14.964000 -1.143000 255 0 0
-0.714700 -15.029200 2.009700 255 0 0
-0.693300 -14.955600 -1.500000 255 0 0
-0.712100 -15.026600 1.763600 255 0 0
0.140000 -15.030000 -5.170000 0 255 255
0.142200 -14.823300 7.863300 0 255 0
-0.908100 -16.215000 4.412500 0 255 0
0.155000 -15.815000 7.325000 0 255 0
0.140000 -14.420000 -4.150000 0 255 255
-1.509500 -15.664100 9.458600 0 255 0
-1.518600 -15.827100 9.317100 0 255 0
-0.150000 -16.200001 7.950000 0 255 0
-0.153300 -16.116699 7.956700 0 255 0
-0.660000 -15.510000 8.570000 0 255 0
-0.605000 -16.122499 15.062500 0 255 0
-1.561300 -14.916700 9.357300 0 255 0
-0.360000 -14.226000 -4.695000 0 255 255
-0.062500 -14.775000 9.566300 0 255 0
-1.460800 -15.422500 7.003300 0 255 0
-0.760000 -15.110000 -1.205000 255 0 0
-0.760000 -15.055500 2.061000 255 0 0
0.185700 -15.422900 5.161400 0 255 0
-1.090000 -15.170000 -4.510000 0 255 255
0.100000 -14.320000 -4.310000 0 255 255
-1.475000 -15.705000 9.320000 0 255 0
-0.200000 -15.625000 10.407500 0 255 0
-0.220000 -15.513300 3.893300 0 255 0
-0.270000 -14.980000 -4.530000 0 255 255
-0.164200 -14.512500 9.815000 0 255 0
-1.053300 -14.436700 -5.300000 0 255 255
-1.016700 -15.253300 -4.393300 0 255 255
0.240000 -14.415000 -4.830000 0 255 255
-1.550000 -15.170000 -4.710000 0 255 255
-1.873300 -15.233300 -4.673300 0 255 255
-1.580000 -15.175000 -4.535000 0 255 255
-1.575000 -14.305000 -4.210000 0 255 255
-1.570000 -14.100000 -4.580000 0 255 255
-1.553500 -15.520400 6.853000 0 255 0
-1.558800 -14.660000 -4.483700 0 255 255
-1.463300 -14.433300 -4.296700 0 255 255
-1.550000 -15.260000 9.280000 0 255 0
-0.170000 -16.389999 13.540000 0 255 0
-0.150000 -15.220000 -5.370000 0 255 255
-1.273300 -14.976700 -5.103300 0 255 255
-1.320000 -16.340000 18.040001 0 255 0
-1.330000 -15.880000 16.620001 0 255 0
-1.309100 -15.915500 6.956400 0 255 0
-0.420000 -16.270000 11.795000 0 255 0
-0.757400 -14.856000 -2.990700 0 255 0
-1.320000 -16.026699 13.263300 0 255 0
-1.312300 -16.122000 6.756300 0 255 0
-0.755000 -14.685000 -4.935000 0 255 0
-0.280000 -16.469999 12.340000 0 255 0
-0.156700 -15.577200 -5.385600 0 255 255
-0.162300 -15.767700 7.655400 0 255 0
-1.317500 -15.407500 9.302500 0 255 0
-0.680000 -15.340000 12.640000 0 255 0
-0.620000 -16.275000 15.915000 0 255 0
-0.356700 -15.115000 9.646700 0 255 0
-1.470000 -15.910000 7.140000 0 255 0
0.132000 -14.068000 -4.636000 0 255 255
-0.980000 -14.840000 9.020000 0 255 0
-0.870000 -16.700001 11.970000 0 255 0
-0.170000 -15.230000 0.300000 0 255 0
0.170000 -15.160000 -4.590000 0 255 255
-0.550000 -13.757500 -4.595000 0 255 255
0.180000 -14.768300 5.505000 0 255 0
0.260000 -14.900000 0.590000 0 255 0
-0.020000 -15.585000 4.000000 0 255 0
0.250000 -15.540000 5.960000 0 255 0
-0.200000 -13.871700 -5.095000 0 255 255
0.120000 -14.810000 -5.500000 0 255 255
-1.920000 -14.550000 -4.420000 0 255 255
0.102500 -15.662500 7.260000 0 255 0
-1.210000 -15.880000 17.155001 0 255 0
0.010000 -15.220000 14.970000 0 255 0
0.337800 -15.477800 5.954400 0 255 0
0.360000 -15.460000 5.995000 0 255 0
-1.105000 -14.218300 -4.245000 0 255 255
-1.105000 -14.808300 9.201700 0 255 0
0.200000 -15.630000 8.096700 0 255 0
-1.020000 -16.040001 16.750000 0 255 0
0.126700 -14.160000 -4.680000 0 255 255
-0.120000 -16.160000 7.910000 0 255 0
0.385000 -15.555000 4.345000 0 255 0
0.120000 -14.616700 -4.600000 0 255 255
-0.152000 -16.466000 15.964000 0 255 0
-0.170000 -15.420000 5.340000 0 255 0
-0.150000 -13.960000 -5.132500 0 255 255
-1.550000 -16.400000 17.940001 0 255 0
-0.270000 -15.270000 -5.332500 0 255 255
-0.270000 -15.070000 7.300000 0 255 0
-0.258300 -15.169700 1.009400 0 255 0
-0.710000 -14.565000 -4.642500 0 255 0
-0.703000 -14.520000 -4.588000 0 255 0
-0.716300 -14.512500 -4.296300 0 255 0
-0.930000 -15.050000 -1.340000 255 0 0
-0.910000 -15.006700 -4.486700 255 0 0
-0.550000 -15.910000 15.000000 0 255 0
-1.107800 -15.116700 9.557800 0 255 0
-0.230000 -16.750000 14.220000 0 255 0
-1.480000 -15.460000 -4.750000 0 255 255
-1.510000 -16.059999 13.320000 0 255 0
-1.520000 -16.139999 16.540001 0 255 0
-0.560000 -16.059999 12.440000 0 255 0
-0.247100 -14.167900 -4.025700 0 255 255
-0.823300 -15.003300 -0.340000 255 0 0
-0.802400 -15.077100 2.905900 255 0 0
-0.816700 -15.036700 -0.286700 255 0 0
-0.800700 -15.079000 2.856200 255 0 0
-1.514500 -15.881800 6.817300 0 255 0
-1.370000 -14.450000 -4.120000 0 255 255
-0.960000 -16.866699 15.146700 0 255 0
-1.655000 -16.030001 9.160000 0 255 0
-0.266700 -14.973300 -4.470000 0 255 255
0.160000 -15.690000 11.970000 0 255 0
-0.360000 -14.340000 -4.550000 0 255 255
-1.200000 -15.090000 -4.550000 0 255 255
-0.656700 -14.468300 9.523300 0 255 0
0.300000 -15.610000 15.570000 0 255 0
0.288100 -15.471200 5.752500 0 255 0
-1.614000 -14.716000 -4.539000 0 255 255
-1.680000 -15.490000 12.570000 0 255 0
0.291700 -15.722900 7.160400 0 255 0
-1.605000 -15.472000 12.613000 0 255 0
-0.260000 -15.680000 13.410000 0 255 0
-0.260000 -15.770000 7.120000 0 255 0
-0.240000 -15.620000 16.930000 0 255 0
-1.350000 -15.960000 12.810000 0 255 0
-1.000000 -16.440001 13.440000 0 255 0
-1.010900 -16.320900 6.954500 0 255 0
-0.073300 -15.913300 8.160000 0 255 0
-0.004700 -15.777900 4.311600 0 255 0
-0.260000 -15.772900 11.612900 0 255 0
-0.890000 -15.020000 1.165000 255 0 0
0.120000 -15.250000 8.150000 0 255 0
0.130000 -15.320000 4.910000 0 255 0
-0.860000 -15.990000 16.750000 0 255 0
-0.860000 -14.620000 -4.020000 0 255 0
0.190000 -16.120001 13.320000 0 255 0
-1.000000 -14.316700 -4.390000 0 255 255
-1.322500 -13.920000 -4.135000 0 255 255
0.341700 -15.416700 12.465000 0 255 0
0.341100 -15.508900 5.950000 0 255 0
-0.755000 -14.077100 -4.492900 0 255 255
-0.680000 -15.830000 18.139999 0 255 0
-0.640000 -15.890000 14.810000 255 0 0
-0.640000 -15.910000 11.640000 0 255 0
-0.622500 -15.517500 5.097500 0 255 0
-0.618000 -15.626000 11.663000 255 0 0
-1.515000 -16.115000 16.820000 0 255 0
-1.650000 -14.910000 -3.880000 0 255 255
-1.505000 -16.475000 16.309999 0 255 0
-0.890000 -14.870000 -1.420000 255 0 0
-0.902500 -14.822500 -4.685000 0 255 0
-1.200000 -16.385000 14.100000 0 255 0
-0.715000 -14.220000 -4.840000 0 255 255
-0.267800 -16.316700 10.261100 0 255 0
0.390000 -15.983300 12.370000 0 255 0
-1.568000 -16.004000 14.112000 0 255 0
-0.710000 -14.733300 -3.886700 0 255 0
-0.090000 -15.870000 14.430000 0 255 0
-1.358000 -15.474000 7.044000 0 255 0
-0.490000 -13.840000 -5.060000 0 255 255
-0.940000 -16.360001 11.990000 0 255 0
0.340000 -15.362500 7.861300 0 255 0
-1.002000 -16.162001 7.004000 0 255 0
0.192800 -14.872800 5.356300 0 255 0
0.151100 -15.064400 0.562800 0 255 0
0.393500 -15.514700 5.058200 0 255 0
-0.916900 -16.373699 6.956300 0 255 0
-0.465000 -13.925000 -4.480000 0 255 255
0.070000 -16.610001 12.280000 0 255 0
-1.580000 -14.510000 -4.380000 0 255 255
0.340000 -15.720000 13.375000 0 255 0
0.320000 -15.510000 0.540000 0 255 0
0.346200 -15.422300 7.067700 0 255 0
-0.100000 -14.900000 -4.620000 0 255 255
-0.060000 -16.469999 11.766700 0 255 0
-0.470000 -15.970000 8.150000 0 255 0
-0.805700 -15.318600 5.310000 255 0 0
-0.812200 -14.852200 -3.930000 255 0 0
-0.810900 -14.913900 -0.688800 255 0 0
-0.667800 -14.326700 -4.287800 0 255 255
-0.670000 -14.340000 -4.050000 0 255 255
-0.645000 -14.270000 -4.530000 0 255 255
-0.970000 -16.020000 6.956000 0 255 0
0.005000 -15.705000 16.629999 0 255 0
0.000000 -15.210000 16.379999 0 255 0
-0.004400 -15.427800 3.710600 0 255 0
-0.960000 -16.075001 16.860001 0 255 0
