6.685200 -6.366000 14.755600 0 255 0
5.620000 -7.370000 20.379999 0 255 0
5.630000 -7.415000 17.107500 0 255 0
6.280000 -6.560000 11.810000 255 0 0
6.288300 -7.663300 16.950001 0 255 0
5.850000 -6.260000 3.475000 255 0 0
6.200000 -5.600000 20.430000 0 255 0
6.210000 -5.730000 13.870000 0 255 0
5.560000 -6.040000 17.360001 0 255 0
6.270000 -6.750000 12.470000 0 255 0
5.485000 -6.450000 17.410000 0 255 0
5.482000 -6.322000 20.770000 0 255 0
5.535000 -6.178300 -3.650000 0 255 0
5.840000 -7.268300 16.965000 0 255 0
5.970000 -5.670000 16.590000 0 255 0
6.036500 -6.670000 7.561200 255 0 0
6.020000 -7.290000 19.799999 0 255 0
6.410000 -6.990000 -3.160000 0 255 255
5.380000 -6.715000 -3.595000 0 255 255
6.320000 -7.410000 16.090000 0 255 0
6.190000 -6.450000 5.700000 255 0 0
6.185400 -6.519200 9.006900 255 0 0
6.186700 -6.676700 18.780001 255 0 0
6.200000 -6.580000 12.260000 255 0 0
6.090000 -6.708900 11.411100 255 0 0
6.087900 -6.673200 8.256800 255 0 0
5.340000 -6.870000 20.764400 0 255 0
6.595000 -7.485000 17.209999 0 255 0
7.370000 -7.280000 20.969999 0 255 0
7.390000 -7.236700 21.006701 0 255 0
5.533400 -5.720800 0.661200 0 255 0
5.428200 -5.971400 0.700500 0 255 0
5.334300 -6.672900 -3.338600 0 255 255
6.195000 -5.775000 19.980000 0 255 0
5.770000 -6.760000 -3.500000 0 255 0
5.493300 -6.623300 -3.688300 0 255 0
5.490000 -6.768600 18.597099 0 255 0
6.000000 -6.658800 12.110000 255 0 0
5.405000 -5.875000 -3.630000 0 255 255
6.089200 -6.572300 14.666200 255 0 0
6.093300 -6.566700 8.460000 255 0 0
5.680000 -6.860000 15.540000 0 255 0
5.680000 -7.190000 -3.430000 0 255 255
5.260000 -6.690000 -3.310000 0 255 255
4.894000 -6.770000 -3.398000 0 255 255
5.650000 -6.190000 19.520000 0 255 0
5.647100 -6.722900 -3.447100 0 255 0
5.530000 -7.270000 -3.830000 0 255 255
6.288000 -7.726000 18.011999 0 255 0
6.288000 -7.760000 18.007999 0 255 0
5.436000 -5.576000 -3.298000 0 255 255
5.390000 -6.850000 20.580000 0 255 0
5.497500 -7.372500 20.402500 0 255 0
5.505000 -7.315000 17.160000 0 255 0
5.490000 -7.390000 17.170000 0 255 0
5.380000 -6.763300 -3.300000 0 255 255
6.230000 -6.670000 19.510000 255 0 0
6.253300 -6.560000 13.006700 255 0 0
6.235000 -6.511700 16.257500 255 0 0
5.730000 -7.280000 21.969999 0 255 0
6.970000 -6.835000 16.514999 0 255 0
6.985600 -6.521100 -3.027800 0 255 255
6.180000 -7.175000 -3.255000 0 255 255
5.960000 -7.620000 16.556700 0 255 0
5.535000 -7.310000 17.945000 0 255 0
6.150000 -5.650000 13.620000 0 255 0
5.736700 -7.520000 17.760000 0 255 0
5.140000 -6.910000 17.500000 0 255 0
6.420000 -6.080000 13.370000 0 255 0
6.390000 -5.710000 13.440000 0 255 0
6.484300 -7.122900 16.610001 0 255 0
6.960000 -7.380000 19.379999 0 255 0
6.934000 -7.418000 16.101999 0 255 0
6.482500 -6.625000 20.862499 255 0 0
5.460000 -6.930000 20.730000 0 255 0
6.760000 -6.510000 19.750000 0 255 0
6.493300 -6.763300 14.696700 0 255 0
6.485000 -6.665000 21.061300 255 0 0
6.110000 -6.470000 21.400000 0 255 0
6.090000 -6.568500 14.901500 255 0 0
6.655000 -7.225000 12.350000 0 255 0
6.530000 -5.662500 -3.080000 0 255 255
5.985000 -6.715000 10.670000 255 0 0
5.987600 -6.671000 7.411900 255 0 0
5.360000 -7.290000 16.940001 0 255 0
7.186700 -6.623300 23.426701 0 255 0
7.194000 -6.930000 17.261999 0 255 0
5.170000 -7.230000 -3.240000 0 255 255
5.195600 -6.012200 13.206700 0 255 0
4.993300 -6.416700 -3.520000 0 255 255
5.650000 -6.840000 17.110001 0 255 0
4.760000 -6.170000 -3.290000 0 255 255
6.850000 -5.670000 20.665001 0 255 0
7.140000 -6.720000 19.059999 0 255 0
7.080000 -6.200000 19.760000 0 255 0
7.092200 -6.267800 23.456699 0 255 0
6.745000 -5.926700 20.445000 0 255 0
5.991000 -5.520000 13.357000 0 255 0
5.545000 -5.826700 15.306700 0 255 0
6.880000 -5.635000 12.605000 0 255 0
6.510000 -5.730000 23.059999 0 255 0
6.490000 -5.770000 13.651300 0 255 0
5.939100 -5.725000 13.359500 0 255 0
6.142000 -6.616000 9.710000 255 0 0
6.145700 -6.518600 16.209999 255 0 0
6.095000 -6.615000 16.059999 255 0 0
5.486000 -7.074000 20.358000 0 255 0
5.489100 -7.024500 17.204500 0 255 0
6.240000 -6.410000 15.880000 255 0 0
6.246400 -6.570900 18.866400 255 0 0
6.242200 -6.468300 12.711100 255 0 0
5.994300 -7.622100 16.604300 0 255 0
6.220000 -6.390000 12.210000 255 0 0
6.230000 -6.800000 -3.460000 0 255 0
6.260000 -6.310000 15.340000 0 255 0
6.280000 -7.060000 16.549999 0 255 0
7.090000 -7.120000 19.299999 0 255 0
7.100000 -7.225000 12.351300 0 255 0
6.520000 -5.600000 -3.070000 0 255 255
6.280000 -6.530000 19.410000 255 0 0
6.290000 -6.616000 13.120000 255 0 0
5.650000 -6.530000 2.560000 255 0 0
5.655600 -6.381100 -0.484400 255 0 0
5.760000 -7.230000 18.629999 0 255 0
6.150000 -6.580000 9.620000 255 0 0
6.130000 -6.608000 6.364000 255 0 0
6.122500 -6.505000 12.660000 255 0 0
5.260000 -6.660000 19.549999 0 255 0
6.140000 -7.810000 16.600000 0 255 0
5.625000 -6.870000 -3.935000 0 255 0
5.634700 -6.373200 15.053200 0 255 0
5.035000 -6.810000 -3.635000 0 255 255
4.943300 -6.060000 -3.406700 0 255 255
6.691100 -7.215600 12.347800 0 255 0
6.300000 -7.120000 19.980000 0 255 0
6.293300 -5.500000 -2.993300 0 255 255
6.286700 -5.773300 13.206700 0 255 0
5.400000 -7.440000 -3.480000 0 255 255
5.520000 -7.270000 17.900000 0 255 0
5.630000 -7.470000 20.476700 0 255 0
5.750000 -6.875000 15.465000 0 255 0
5.900000 -6.630000 -1.682500 255 0 0
5.910000 -6.830000 10.950000 0 255 0
5.890000 -6.674700 1.461300 255 0 0
6.090000 -6.215000 23.815001 0 255 0
6.060000 -6.510000 16.980000 255 0 0
5.793300 -6.906700 -3.990000 0 255 0
5.825000 -6.640000 2.460000 255 0 0
5.839500 -6.656900 -0.690100 255 0 0
5.738200 -5.770900 -3.490000 0 255 255
5.733300 -5.476700 15.511700 0 255 0
5.280000 -5.965000 -3.675000 0 255 255
5.310000 -5.660000 15.263300 0 255 0
6.150000 -7.580000 -3.540000 0 255 255
6.653300 -6.233300 -3.180000 0 255 255
7.110000 -7.030000 19.190001 0 255 0
5.430000 -7.270000 18.010000 0 255 0
5.340000 -5.940000 -3.720000 0 255 255
5.700000 -7.063300 20.523300 0 255 0
6.920000 -7.630000 18.799999 0 255 0
6.835000 -5.920000 12.860000 0 255 0
5.340000 -6.920000 18.629999 0 255 0
6.505000 -7.320000 22.209999 0 255 0
6.800000 -6.110000 -3.110000 0 255 255
6.810000 -6.980000 -3.680000 0 255 255
6.040000 -6.390000 -2.240000 255 0 0
6.050000 -6.785000 23.855000 0 255 0
6.045000 -6.715000 14.310000 255 0 0
6.100000 -6.300000 6.270000 255 0 0
6.090000 -6.870000 15.260000 0 255 0
6.110000 -6.750000 16.320000 255 0 0
6.076700 -6.823300 19.556700 0 255 0
6.920000 -5.690000 20.840000 0 255 0
7.190000 -6.710000 23.270000 0 255 0
7.120000 -6.270000 23.549999 0 255 0
6.190000 -6.383300 11.273300 255 0 0
6.190000 -6.440000 14.390000 255 0 0
6.205000 -6.510000 21.160000 0 255 0
6.940000 -6.940000 -3.400000 0 255 255
6.888600 -5.814300 16.465700 0 255 0
5.595700 -5.924300 -3.484300 0 255 255
5.439000 -5.817500 15.262500 0 255 0
5.920000 -6.020000 21.600000 0 255 0
5.938600 -6.122900 15.302900 0 255 0
6.238600 -6.167100 13.807100 0 255 0
6.632500 -6.222500 13.005000 0 255 0
5.823300 -7.163300 16.963301 0 255 0
5.737100 -7.419000 16.963301 0 255 0
5.643800 -7.619200 16.858500 0 255 0
5.737000 -6.259000 -3.432000 0 255 0
5.676700 -6.720000 19.356701 0 255 0
5.580000 -7.073300 -3.736700 0 255 255
5.387800 -7.023300 18.708900 0 255 0
6.020000 -6.310000 0.140000 255 0 0
6.053300 -6.406700 6.660000 255 0 0
6.034200 -6.380800 9.810000 0 255 0
5.585000 -6.860000 20.610001 0 255 0
6.690000 -6.312500 -3.147500 0 255 255
6.555000 -6.720000 14.555000 0 255 0
6.540000 -6.633300 21.063299 255 0 0
5.900000 -6.770000 0.870000 0 255 0
5.870000 -6.700000 -2.290000 255 0 0
5.910000 -6.630000 4.000000 255 0 0
5.898000 -6.657000 7.163000 0 255 0
5.790000 -5.970000 -3.430000 0 255 0
5.880000 -6.815000 17.065001 0 255 0
5.486700 -6.816700 -3.583300 0 255 255
5.080000 -6.440000 0.420000 0 255 0
5.340000 -6.805000 18.670000 0 255 0
5.360000 -6.750000 21.910000 0 255 0
5.585000 -5.860000 0.560000 0 255 0
5.610000 -5.650000 12.830000 0 255 0
5.753300 -7.560000 17.010000 0 255 0
5.405000 -6.565000 20.125000 0 255 0
5.650000 -7.475000 20.514999 0 255 0
5.350000 -7.285000 17.309999 0 255 0
5.345700 -7.264300 17.362900 0 255 0
5.390000 -6.790000 20.430000 0 255 0
5.748000 -6.574000 20.752001 0 255 0
6.081700 -6.666700 14.208300 255 0 0
6.088300 -6.685000 10.818300 255 0 0
6.090000 -6.730000 14.065000 255 0 0
5.746700 -5.920000 17.763300 0 255 0
6.638300 -6.663300 20.013300 0 255 0
6.440000 -6.390000 14.080000 0 255 0
6.437500 -6.530000 17.312500 255 0 0
7.247500 -6.030000 14.660000 0 255 0
7.493300 -6.300000 23.360001 0 255 0
5.850000 -6.470000 20.645000 0 255 0
6.690000 -6.210000 23.920000 0 255 0
5.822500 -6.625000 1.952500 255 0 0
5.842800 -6.656200 -1.188600 255 0 0
5.825000 -6.820000 15.025000 0 255 0
6.245000 -6.065000 20.910000 0 255 0
5.890000 -5.460000 13.020000 0 255 0
6.937100 -6.622900 14.962900 0 255 0
6.645000 -6.465000 -3.430000 0 255 255
7.181700 -7.221700 23.153299 0 255 0
6.225000 -5.365000 -3.145000 0 255 255
6.337100 -6.262900 16.208599 0 255 0
6.580000 -7.090000 16.540001 0 255 0
6.586700 -7.116700 19.610001 0 255 0
6.220000 -6.820000 15.080000 0 255 0
6.230000 -6.990000 18.639999 0 255 0
6.600000 -7.055000 12.165000 0 255 0
6.050000 -6.630000 7.276700 255 0 0
6.045700 -6.465700 4.211400 255 0 0
6.028800 -6.517800 0.961000 0 255 0
6.595000 -5.911200 23.058701 0 255 0
6.596700 -5.786700 13.146700 0 255 0
6.370000 -6.460000 16.420000 0 255 0
6.700000 -6.226000 23.559999 0 255 0
6.360000 -6.680000 13.530000 0 255 0
6.340000 -6.580000 19.825001 255 0 0
6.343300 -6.613300 16.773300 255 0 0
6.170000 -6.080000 21.280001 0 255 0
6.540000 -7.190000 -3.190000 0 255 255
6.890000 -7.578000 16.202000 0 255 0
5.802000 -6.531000 6.760000 255 0 0
5.646700 -7.023300 -3.310000 0 255 255
5.650000 -6.600000 23.600000 0 255 0
7.285000 -6.127500 12.416200 0 255 0
6.055000 -6.135000 17.320000 0 255 0
6.040900 -5.572300 13.309500 0 255 0
6.783300 -6.126700 12.606700 0 255 0
6.605000 -7.060000 19.559999 0 255 0
6.600000 -7.032500 16.325001 0 255 0
7.090400 -7.371200 16.065201 0 255 0
7.436300 -6.926300 22.071301 0 255 0
6.140000 -5.605000 -3.350000 0 255 255
6.560000 -6.370000 14.840000 0 255 0
5.500000 -7.040000 -3.830000 0 255 255
6.030000 -6.678700 -3.890000 0 255 0
5.260000 -6.810000 17.440001 0 255 0
6.330000 -6.730000 16.340000 255 0 0
5.787500 -6.057500 21.625000 0 255 0
7.090000 -6.070000 17.680000 0 255 0
7.091300 -5.925000 19.959999 0 255 0
5.590000 -6.420000 -3.620000 0 255 0
5.610000 -6.490000 -0.300000 255 0 0
5.620000 -7.460000 20.610001 0 255 0
5.620000 -7.460000 20.559999 0 255 0
5.520000 -6.900000 20.920000 0 255 0
5.895000 -7.625000 17.055000 0 255 0
6.520000 -6.610000 20.219999 255 0 0
6.540000 -6.573300 23.363300 0 255 0
6.041400 -6.677100 7.708600 255 0 0
7.142500 -6.270000 19.447500 0 255 0
7.144400 -5.823100 20.100599 0 255 0
6.930500 -5.867400 23.210501 0 255 0
6.690000 -7.010000 20.299999 0 255 0
6.675000 -7.185000 17.059999 0 255 0
6.700000 -7.060000 23.559999 0 255 0
6.170000 -6.440000 14.860000 255 0 0
6.180000 -6.385000 11.590000 255 0 0
6.190000 -6.510000 21.400000 0 255 0
7.380000 -6.810000 22.840000 0 255 0
7.395000 -6.755000 19.665001 0 255 0
6.992100 -6.464200 14.666800 0 255 0
7.005000 -5.775000 20.389999 0 255 0
6.910000 -7.020000 20.400000 0 255 0
6.235000 -7.370000 16.075001 0 255 0
4.952500 -6.360000 -3.582500 0 255 255
6.940000 -6.260000 -3.610000 0 255 255
6.840000 -5.730000 20.750000 0 255 0
6.943300 -6.280000 23.466700 0 255 0
7.320000 -6.390000 17.620001 0 255 0
5.582000 -5.766000 -3.408000 0 255 255
5.570000 -5.660000 15.180000 0 255 0
5.489700 -6.072100 -3.390300 0 255 255
7.245000 -6.125000 12.565000 0 255 0
6.585000 -5.777500 13.910000 0 255 0
5.782500 -5.770000 15.252500 0 255 0
5.776700 -5.876700 21.803301 0 255 0
6.446000 -5.920000 13.854000 0 255 0
6.940000 -6.327500 12.361300 0 255 0
5.436000 -6.171300 0.799300 0 255 0
5.938300 -6.065800 15.210000 0 255 0
5.843000 -6.172000 15.304000 0 255 0
6.182700 -7.070900 16.361799 0 255 0
7.282500 -6.310000 23.455000 0 255 0
6.040000 -6.320000 -0.130000 255 0 0
6.040000 -6.860000 15.240000 0 255 0
6.055000 -6.415000 6.165000 255 0 0
6.038800 -6.377300 9.309600 0 255 0
6.328700 -5.771200 13.606300 0 255 0
5.594500 -6.566400 19.464500 0 255 0
5.640000 -7.260000 -3.710000 0 255 255
5.130000 -5.940000 -3.310000 0 255 255
6.045000 -6.707500 11.472500 255 0 0
6.045000 -6.670000 14.625000 255 0 0
7.240000 -7.530000 23.350000 0 255 0
5.725000 -7.380000 20.452499 0 255 0
6.300000 -7.166700 23.956699 0 255 0
6.546200 -6.167500 12.461200 0 255 0
6.143300 -6.710000 11.053300 255 0 0
6.136700 -6.683300 14.213300 255 0 0
6.410000 -7.260000 17.139999 0 255 0
7.255000 -6.575000 14.670000 0 255 0
6.283300 -6.023300 13.873300 0 255 0
6.480000 -6.114000 23.610001 0 255 0
6.544300 -7.720000 16.117100 0 255 0
7.427500 -7.227500 23.160000 0 255 0
6.420000 -7.690000 18.010000 0 255 0
6.755000 -7.080000 23.610001 0 255 0
7.330000 -6.630000 23.610001 0 255 0
6.880000 -6.590000 17.309999 0 255 0
7.200000 -6.815000 19.267500 0 255 0
7.190000 -6.835000 21.514999 0 255 0
7.193300 -6.663300 12.626700 0 255 0
7.260000 -6.115000 12.305000 0 255 0
6.192500 -6.480000 16.299999 255 0 0
6.186700 -6.433300 13.058300 255 0 0
5.710000 -6.650000 -2.450000 255 0 0
5.642500 -7.277500 21.652500 0 255 0
5.791400 -7.180000 16.807100 0 255 0
5.780600 -6.867500 -3.943700 0 255 0
6.741200 -5.626300 16.402500 0 255 0
6.943300 -6.273300 23.513300 0 255 0
6.689500 -5.723600 20.303600 0 255 0
6.990700 -5.928000 13.302700 0 255 0
6.790000 -6.360000 23.410000 0 255 0
6.840000 -5.850000 -2.970000 0 255 255
6.841700 -5.826700 12.705600 0 255 0
6.560000 -6.670000 17.330000 0 255 0
6.536700 -6.573300 23.613300 0 255 0
6.281300 -6.021300 13.607500 0 255 0
6.280000 -5.923700 19.927500 0 255 0
6.700000 -6.260000 22.709999 0 255 0
6.688300 -6.320000 13.060000 0 255 0
6.690000 -6.365000 16.202999 0 255 0
6.490000 -5.774000 13.805000 0 255 0
5.926700 -5.876700 15.256700 0 255 0
5.936700 -6.166700 21.413300 0 255 0
6.630000 -6.132000 13.158000 0 255 0
6.300000 -6.830000 21.030001 0 255 0
5.903300 -5.536700 16.953300 0 255 0
5.352500 -6.525000 19.467501 0 255 0
5.338400 -6.077400 -3.491100 0 255 255
6.750600 -6.322500 12.306900 0 255 0
6.245400 -5.771500 13.360800 0 255 0
5.880000 -5.690000 -3.070000 0 255 255
5.902900 -6.017100 19.067101 0 255 0
6.990000 -6.590000 -3.650000 0 255 255
6.994100 -6.822900 12.352900 0 255 0
6.181400 -5.868600 13.562900 0 255 0
6.745000 -7.265000 16.600000 0 255 0
5.845000 -6.705000 -0.025000 255 0 0
5.860000 -6.780000 -3.210000 0 255 0
5.750000 -5.600000 -3.190000 0 255 255
6.542400 -6.564700 12.562400 0 255 0
6.588000 -5.626000 23.261999 0 255 0
6.645000 -6.875000 -3.645000 0 255 255
6.639200 -7.025600 12.255200 0 255 0
5.643300 -7.513300 20.463301 0 255 0
5.645000 -7.375000 17.115000 0 255 0
6.455000 -7.260000 22.545000 0 255 0
6.285000 -6.215000 17.665001 0 255 0
6.290000 -6.123300 23.963301 0 255 0
6.290000 -6.260000 20.799999 0 255 0
6.180000 -6.120000 13.880000 0 255 0
6.020000 -7.600000 16.990000 0 255 0
6.545000 -6.217500 12.505000 0 255 0
6.280000 -5.910000 13.890000 0 255 0
6.278300 -6.276700 23.510000 0 255 0
6.290000 -5.910000 13.795000 0 255 0
6.287500 -6.072500 13.677500 0 255 0
6.335000 -6.265000 18.795000 0 255 0
6.438000 -6.262000 15.324000 0 255 0
6.860000 -6.820000 16.340000 0 255 0
6.734000 -5.626000 23.250000 0 255 0
7.020000 -7.130000 23.260000 0 255 0
6.688000 -6.478000 14.749000 0 255 0
6.635000 -5.770000 13.600000 0 255 0
6.480000 -5.960000 23.680000 0 255 0
6.710000 -6.470000 17.754999 0 255 0
6.660000 -6.963300 23.573299 0 255 0
7.020000 -6.770000 17.450001 0 255 0
6.810000 -7.020000 20.280001 0 255 0
7.044000 -6.706000 17.459999 0 255 0
7.270000 -6.410000 12.050000 0 255 0
7.260000 -6.970000 19.420000 0 255 0
6.920000 -6.810000 19.030001 0 255 0
6.930000 -6.780000 22.155001 0 255 0
7.093500 -6.417800 14.603900 0 255 0
7.083300 -6.260000 14.900000 0 255 0
7.234000 -7.116000 17.260000 0 255 0
7.256700 -6.830000 23.820000 0 255 0
7.010000 -7.060000 20.790001 0 255 0
6.600000 -6.700000 14.710000 0 255 0
7.391200 -6.811200 19.215000 0 255 0
5.545000 -7.430000 18.700001 0 255 0
6.550000 -6.360000 -3.010000 0 255 0
6.593300 -5.500000 -2.846700 0 255 255
6.703300 -6.416700 14.803300 0 255 0
5.940000 -7.521700 16.959999 0 255 0
5.787000 -7.612000 16.962999 0 255 0
6.170000 -6.360000 11.850000 255 0 0
6.305000 -6.040000 20.775000 0 255 0
6.550000 -6.275000 12.745000 0 255 0
6.300000 -5.930000 23.360001 0 255 0
6.443300 -7.423300 17.076700 0 255 0
6.670000 -7.630000 19.940001 0 255 0
6.840000 -6.770000 16.420000 0 255 0
6.843300 -6.530000 19.313299 0 255 0
6.460000 -7.540000 17.219999 0 255 0
6.840000 -6.777100 16.260000 0 255 0
6.840000 -6.522500 19.457500 0 255 0
6.860000 -6.760000 19.495001 0 255 0
6.841800 -6.819100 16.260000 0 255 0
7.020000 -7.080000 16.270000 0 255 0
7.040000 -7.040000 19.530001 0 255 0
6.770000 -6.840000 20.980000 0 255 0
7.035000 -7.275000 19.405001 0 255 0
6.420000 -7.260000 23.750000 0 255 0
6.810000 -6.580000 23.719999 0 255 0
6.810000 -6.480000 17.389999 0 255 0
6.890000 -6.750000 17.396700 0 255 0
6.470000 -6.320000 13.300000 0 255 0
7.320000 -6.630000 23.740000 0 255 0
7.356700 -6.710000 17.246700 0 255 0
6.840000 -6.490000 19.280001 0 255 0
6.835800 -6.525000 16.014999 0 255 0
6.790000 -6.580000 24.059999 0 255 0
6.794000 -6.472000 17.561001 0 255 0
7.240900 -6.923000 12.161600 0 255 0
7.260000 -6.560000 22.139999 0 255 0
7.250000 -6.610000 18.920000 0 255 0
7.246200 -6.921200 12.111900 0 255 0
6.541400 -7.524300 17.851400 0 255 0
6.100000 -7.500000 -3.400000 0 255 255
6.782900 -5.920600 12.758800 0 255 0
7.205000 -6.330000 23.600000 0 255 0
6.895000 -6.575000 17.344999 0 255 0
6.900000 -6.490000 23.879999 0 255 0
6.580000 -6.290000 19.620001 0 255 0
6.588800 -6.168800 13.463800 0 255 0
6.300000 -5.720000 20.879999 0 255 0
6.710000 -7.020000 19.879999 0 255 0
6.680000 -7.190000 16.719999 0 255 0
6.335000 -6.416700 13.860800 0 255 0
5.782600 -5.723700 15.162100 0 255 0
5.896700 -7.536700 16.926701 0 255 0
6.360000 -6.240000 18.889999 0 255 0
6.250000 -6.080000 18.799999 0 255 0
6.530000 -6.200000 12.570000 0 255 0
6.540000 -6.280000 15.930000 0 255 0
6.542900 -6.322900 12.665700 0 255 0
6.384400 -6.322200 13.901100 0 255 0
7.032500 -6.915000 23.212500 0 255 0
6.490000 -7.480000 17.240000 0 255 0
6.442500 -6.317500 15.312500 0 255 0
6.534000 -6.260000 15.250000 0 255 0
6.950000 -6.766700 16.103300 0 255 0
6.941400 -6.720000 19.368601 0 255 0
6.460000 -6.310000 15.250000 0 255 0
6.460000 -6.290000 15.040000 0 255 0
6.890000 -6.713300 23.910000 0 255 0
7.246700 -7.066700 19.403299 0 255 0
6.980000 -6.905000 17.260000 0 255 0
6.585000 -5.980000 -3.145000 0 255 255
6.583300 -6.210000 12.420000 0 255 0
6.570000 -6.260000 15.650000 0 255 0
6.260000 -6.800000 15.230000 0 255 0
6.285000 -6.773800 12.268700 0 255 0
5.900000 -6.390000 9.025000 255 0 0
5.894000 -6.336000 5.760000 255 0 0
5.889000 -6.262000 15.311700 0 255 0
5.486700 -6.030000 16.563299 0 255 0
5.485700 -5.765700 13.169300 0 255 0
5.232700 -6.323300 17.572001 0 255 0
5.184200 -5.868300 -3.531700 0 255 255
6.250000 -6.175000 19.105000 0 255 0
6.290000 -5.920000 17.389999 0 255 0
6.275000 -6.235000 23.940001 0 255 0
6.310000 -6.110000 20.730000 0 255 0
6.285000 -6.158300 23.965000 0 255 0
6.350000 -6.290000 12.720000 0 255 0
6.595000 -6.277500 13.705000 0 255 0
6.825000 -6.840000 16.415001 0 255 0
6.826700 -6.770000 19.540001 0 255 0
6.539200 -6.218500 15.356900 0 255 0
6.480000 -6.210000 13.830000 0 255 0
6.470000 -5.980000 23.590000 0 255 0
6.936700 -7.516700 23.463301 0 255 0
7.091300 -7.220000 17.103800 0 255 0
7.290000 -6.715000 19.145000 0 255 0
6.885700 -5.915700 20.505699 0 255 0
6.850000 -7.270000 17.180000 0 255 0
6.840000 -7.363300 23.660000 0 255 0
6.640000 -6.475000 23.660000 0 255 0
6.390000 -6.310000 17.360001 0 255 0
6.370000 -5.990000 20.775000 0 255 0
6.590000 -6.300000 13.610000 0 255 0
6.970000 -5.880000 13.210000 0 255 0
6.980000 -5.950000 19.980000 0 255 0
6.920000 -6.260000 13.180000 0 255 0
6.790000 -7.420000 19.230000 0 255 0
6.800000 -7.375000 16.075001 0 255 0
7.035000 -6.050000 17.719999 0 255 0
6.737500 -7.568800 16.861300 0 255 0
6.843300 -7.510000 16.913300 0 255 0
7.446700 -6.378300 22.418301 0 255 0
6.720000 -6.290000 -3.530000 0 255 255
7.010000 -7.390000 23.610001 0 255 0
6.370000 -7.370000 20.030001 0 255 0
6.380000 -6.830000 19.379999 0 255 0
6.528000 -7.082000 23.914000 0 255 0
7.020000 -6.090000 16.080000 0 255 0
6.855000 -7.575000 17.254999 0 255 0
6.920000 -7.540000 17.209999 0 255 0
6.940000 -7.415000 23.764999 0 255 0
6.580000 -6.320000 23.674999 0 255 0
7.100000 -6.380000 20.250000 0 255 0
7.100000 -6.370000 20.195000 0 255 0
7.085000 -6.315000 17.520000 0 255 0
7.086700 -6.480000 14.463300 0 255 0
7.476700 -6.963300 23.013300 0 255 0
6.720000 -6.230000 -3.420000 0 255 255
6.686700 -6.076700 -3.536700 0 255 255
6.510000 -7.520000 16.860001 0 255 0
5.490000 -6.970000 -3.700000 0 255 255
7.120000 -6.700000 12.260000 0 255 0
6.435000 -6.870000 23.924999 0 255 0
6.580000 -6.200000 23.139999 0 255 0
6.580000 -6.120000 16.400000 0 255 0
6.596700 -6.066700 13.256700 0 255 0
6.800900 -7.475500 16.059999 0 255 0
6.801400 -7.470000 16.151400 0 255 0
7.038800 -5.920400 12.607700 0 255 0
7.030000 -6.080000 15.940000 0 255 0
7.033300 -5.922400 12.657600 0 255 0
6.873300 -7.566700 16.376699 0 255 0
6.885000 -7.615000 19.590000 0 255 0
5.978000 -7.430000 -3.800000 0 255 255
6.400000 -5.800000 -3.210000 0 255 255
6.478600 -6.968600 17.364300 0 255 0
6.490000 -6.875000 23.510000 0 255 0
6.390000 -6.630000 12.865000 0 255 0
6.390000 -6.700000 19.139999 255 0 0
5.641700 -5.478300 -3.385000 0 255 255
6.290000 -6.750000 16.100000 255 0 0
6.270000 -6.700000 12.850000 255 0 0
6.342500 -7.330000 16.065001 0 255 0
5.750000 -6.560000 19.910000 0 255 0
7.140000 -7.120000 22.165001 0 255 0
7.140000 -7.280000 19.469999 0 255 0
6.120000 -6.570000 23.850000 0 255 0
6.120000 -6.240000 13.540000 0 255 0
6.310000 -5.580000 13.670000 0 255 0
6.648600 -6.918600 16.407101 0 255 0
6.630000 -7.080000 19.510000 0 255 0
6.570000 -7.360000 22.270000 0 255 0
6.792900 -7.472900 16.211399 0 255 0
6.580000 -7.360000 22.299999 0 255 0
6.800000 -6.200000 24.020000 0 255 0
6.770000 -7.540000 19.059999 0 255 0
6.790000 -7.130000 23.730000 0 255 0
6.796700 -6.620000 17.360001 0 255 0
6.894000 -7.074000 -3.438000 0 255 255
6.140000 -6.673300 11.661700 255 0 0
7.080000 -5.820000 12.255000 0 255 0
7.090000 -5.840000 12.770000 0 255 0
7.088600 -5.824300 12.505700 0 255 0
6.070000 -6.570000 12.870000 255 0 0
6.100000 -6.626700 16.110001 255 0 0
6.140000 -6.600000 20.650000 0 255 0
6.130000 -6.560000 23.900000 0 255 0
6.691300 -7.317500 16.406200 0 255 0
6.040000 -6.614000 20.511999 0 255 0
6.050000 -6.516000 14.218000 255 0 0
6.760000 -6.640000 17.280001 0 255 0
6.440000 -7.010000 23.610001 0 255 0
7.090000 -6.223300 14.864300 0 255 0
6.700000 -6.840000 20.490000 0 255 0
6.690000 -7.360000 18.690001 0 255 0
7.430000 -6.916700 17.260000 0 255 0
7.490000 -6.910000 23.480000 0 255 0
6.945000 -6.925000 21.780001 0 255 0
4.992500 -6.715000 -3.440000 0 255 255
5.587500 -6.712500 23.165001 0 255 0
5.680000 -5.555000 -3.560000 0 255 255
5.500000 -7.070000 20.559999 0 255 0
5.437100 -6.518200 19.453501 0 255 0
6.196700 -6.710000 12.850000 255 0 0
6.205000 -6.770000 16.115000 255 0 0
5.922500 -6.270000 17.400000 0 255 0
6.540000 -6.800000 16.395000 0 255 0
6.520000 -6.700000 22.570000 255 0 0
6.750000 -6.820000 16.514999 0 255 0
6.580000 -7.330000 22.250000 0 255 0
6.970000 -6.520000 -2.850000 0 255 255
6.685000 -7.130000 23.825001 0 255 0
6.900000 -6.490000 22.059999 0 255 0
6.980000 -7.660000 19.639999 0 255 0
6.535000 -6.905000 23.620001 0 255 0
7.050000 -5.973300 20.071699 0 255 0
7.040000 -5.900000 23.230000 0 255 0
7.290000 -7.360000 20.660000 0 255 0
7.185200 -5.867800 20.057800 0 255 0
6.796700 -6.213300 14.753300 0 255 0
6.788600 -6.572900 17.357100 0 255 0
6.894300 -6.222900 14.762900 0 255 0
7.140000 -6.070000 23.690001 0 255 0
7.345000 -6.275000 14.630000 0 255 0
6.250000 -6.860000 -3.705000 0 255 255
7.305000 -7.217500 18.522499 0 255 0
6.540000 -5.680000 16.500000 0 255 0
4.845300 -5.767300 -3.536700 0 255 255
6.945000 -6.526700 14.615800 0 255 0
6.290000 -5.740000 -3.110000 0 255 255
6.390000 -6.785000 23.709999 0 255 0
5.370000 -7.250000 -3.400000 0 255 255
5.695000 -5.772500 17.465000 0 255 0
5.598300 -6.216700 -3.205000 0 255 0
5.705000 -5.765000 17.309999 0 255 0
5.980000 -6.160000 16.693300 0 255 0
6.070000 -6.190000 13.660000 0 255 0
5.975000 -6.175000 16.575001 0 255 0
6.435000 -7.740000 19.705000 0 255 0
6.480000 -5.940000 13.640000 0 255 0
6.496700 -5.676700 23.146700 0 255 0
6.970000 -6.320000 12.970000 0 255 0
6.987100 -6.370000 16.113600 0 255 0
6.580000 -7.240000 16.770000 0 255 0
6.500000 -5.830000 13.000000 0 255 0
6.470000 -5.970000 -3.280000 0 255 255
6.397100 -5.580000 -2.942900 0 255 255
6.331700 -5.368300 -2.741700 0 255 255
6.710000 -6.560000 14.650000 0 255 0
6.589000 -5.568000 -2.901000 0 255 255
6.536000 -5.464000 -2.837000 0 255 255
6.790000 -6.505000 -3.100000 0 255 255
6.890000 -6.410000 20.100000 0 255 0
6.903300 -5.866700 -2.953300 0 255 255
6.890000 -7.600000 23.410000 0 255 0
6.996700 -5.854400 12.421100 0 255 0
6.986700 -6.428300 -3.098300 0 255 255
6.840000 -6.090000 23.350000 0 255 0
6.600000 -6.720000 21.160000 255 0 0
6.600000 -6.670000 17.990000 0 255 0
6.810000 -7.150000 23.469999 0 255 0
6.810000 -7.075000 23.504999 0 255 0
6.786700 -6.566700 17.556700 0 255 0
7.320000 -6.360000 23.200001 0 255 0
6.300000 -6.900000 17.600000 0 255 0
6.135000 -6.818800 15.016300 0 255 0
6.810000 -6.870000 23.670000 0 255 0
7.060000 -6.830000 21.370001 0 255 0
4.743300 -6.666700 -3.480000 0 255 255
6.537800 -5.813300 13.701100 0 255 0
6.337300 -5.465500 13.321800 0 255 0
6.580000 -6.840000 16.980000 0 255 0
6.600000 -6.862500 20.222500 0 255 0
6.336700 -6.068900 17.303301 0 255 0
6.040000 -6.470000 20.655001 0 255 0
6.043300 -6.610000 24.016701 0 255 0
5.890000 -6.071300 21.958700 0 255 0
6.950000 -7.266700 17.006701 0 255 0
7.420000 -6.790000 21.799999 0 255 0
6.136700 -5.328300 -2.731700 0 255 255
6.326700 -6.568300 16.020000 255 0 0
6.320000 -6.500000 19.250000 255 0 0
6.140000 -5.970000 -3.540000 0 255 0
6.240000 -6.715000 12.710000 255 0 0
6.180000 -5.650000 13.870000 0 255 0
6.490000 -7.050000 16.799999 0 255 0
6.470000 -7.140000 19.950001 0 255 0
6.405000 -5.925000 -3.035000 0 255 255
5.830000 -5.590000 17.910000 0 255 0
6.683300 -7.266700 16.513300 0 255 0
5.890000 -6.629200 -2.390800 255 0 0
5.890000 -6.662100 0.763300 255 0 0
5.395500 -7.123600 18.664499 0 255 0
7.141700 -7.021700 12.160000 0 255 0
5.770000 -7.540000 20.540001 0 255 0
5.732000 -7.472000 20.472000 0 255 0
5.576700 -6.053300 13.096700 0 255 0
5.900000 -5.890000 13.490000 0 255 0
6.180000 -6.600000 7.240000 255 0 0
6.192500 -6.660000 10.409400 255 0 0
5.648000 -6.722000 19.266001 0 255 0
6.132500 -7.267500 16.565001 0 255 0
6.222500 -6.602500 9.525000 255 0 0
6.260000 -6.400000 -3.550000 0 255 0
5.650000 -6.760000 15.470000 0 255 0
6.391700 -5.925000 16.258301 0 255 0
6.390000 -6.031400 -3.298600 0 255 255
6.094000 -5.404000 -2.788000 0 255 255
6.455000 -7.120000 12.355000 0 255 0
6.460000 -6.780000 22.160000 255 0 0
6.322500 -5.757500 -3.095000 0 255 255
6.000000 -6.660000 13.210000 255 0 0
5.980000 -6.410000 -3.130000 255 0 0
6.930000 -7.520000 16.930000 0 255 0
6.956700 -7.413300 23.256701 0 255 0
6.050000 -6.660000 -3.140000 255 0 0
6.586000 -7.322000 -3.648000 0 255 255
6.500000 -6.590000 21.879999 255 0 0
6.470000 -6.720000 18.620001 255 0 0
6.489100 -6.975500 -3.433600 0 255 255
6.592500 -7.322500 16.870001 0 255 0
6.493300 -5.666700 -2.885000 0 255 255
6.386700 -7.326700 -3.345000 0 255 255
6.437900 -5.924300 -2.793600 0 255 255
6.350000 -6.126000 -2.796000 0 255 255
6.846000 -7.714000 18.756001 0 255 0
6.852500 -7.265000 -3.390000 0 255 255
6.780000 -7.030000 19.090000 0 255 0
6.750000 -5.790000 21.290001 0 255 0
6.790000 -7.067500 -3.190000 0 255 255
6.927500 -6.262500 -2.927500 0 255 255
5.985000 -6.770000 20.424999 0 255 0
5.995400 -6.416200 -2.444600 255 0 0
6.940000 -7.170000 16.740000 0 255 0
6.953300 -7.063300 23.250000 0 255 0
6.940000 -6.670000 -2.850000 0 255 255
6.794000 -5.828000 23.115999 0 255 0
6.693300 -7.170000 17.020000 0 255 0
6.700000 -7.020000 20.340000 0 255 0
6.705000 -7.070000 23.510000 0 255 0
6.780000 -6.980000 19.209999 0 255 0
6.787500 -6.920000 16.166201 0 255 0
6.790000 -6.610000 -3.650000 0 255 255
6.333300 -7.773300 22.156700 0 255 0
6.250000 -6.600000 14.690000 255 0 0
6.232000 -6.672000 11.558000 255 0 0
6.930000 -7.056700 16.401699 0 255 0
6.960000 -6.550000 -2.525000 0 255 255
6.920000 -5.930000 20.410000 0 255 0
6.987500 -6.600000 -2.470000 0 255 255
6.120000 -5.540000 20.270000 0 255 0
6.791300 -7.413800 16.311199 0 255 0
6.432000 -6.140000 13.316000 0 255 0
6.752000 -5.624000 12.616000 0 255 0
6.940800 -6.163800 14.818500 0 255 0
5.944000 -7.021000 17.024000 0 255 0
7.350000 -7.170000 19.490000 0 255 0
6.400000 -6.627500 21.257500 255 0 0
6.380000 -6.571700 18.101700 255 0 0
5.587300 -5.865300 15.309300 0 255 0
5.996000 -6.070000 21.426001 0 255 0
6.897000 -6.369500 14.762500 0 255 0
5.940000 -6.330000 17.445000 0 255 0
5.841300 -6.664100 -1.790300 255 0 0
5.386000 -7.326000 16.974001 0 255 0
5.689600 -5.714300 -3.346100 0 255 255
6.580000 -6.970000 16.650000 0 255 0
6.282700 -6.519100 16.509100 255 0 0
6.302200 -6.563300 19.755600 255 0 0
6.150000 -6.520000 16.940001 255 0 0
6.160000 -6.620000 10.475000 255 0 0
7.240000 -6.280000 23.590000 0 255 0
5.830000 -5.550000 16.840000 0 255 0
5.836700 -5.270000 -3.280000 0 255 255
5.380000 -6.650000 -3.260000 0 255 0
5.000000 -6.400000 14.760000 0 255 0
5.531400 -5.774300 17.661400 0 255 0
6.745000 -6.670000 14.965000 0 255 0
5.542000 -5.534000 -3.436000 0 255 255
5.160000 -6.070000 13.170000 0 255 0
5.610000 -6.440000 -2.160000 255 0 0
5.935000 -6.270000 17.445000 0 255 0
5.640000 -6.520000 23.090000 0 255 0
5.880000 -6.900000 15.190000 0 255 0
5.896000 -6.616000 9.061300 255 0 0
6.180000 -7.675000 18.170000 0 255 0
4.898100 -6.622200 -3.438400 0 255 255
5.743300 -6.210000 -3.500000 0 255 0
5.850000 -5.870000 22.280001 0 255 0
5.850000 -5.620000 13.240000 0 255 0
5.846900 -5.468500 -3.038500 0 255 255
6.032500 -5.627500 -3.135000 0 255 255
6.520000 -5.670000 -3.310000 0 255 255
5.980000 -6.230000 19.120001 0 255 0
5.993300 -5.463300 -2.900000 0 255 255
6.110000 -5.280000 -2.830000 0 255 255
6.055000 -6.485000 19.025000 0 255 0
5.945700 -5.904300 -3.092900 0 255 0
6.510000 -5.800000 12.950000 0 255 0
6.470000 -5.970000 -3.220000 0 255 255
6.480000 -6.890000 20.090000 0 255 0
6.395000 -5.762500 -3.036200 0 255 255
6.305000 -5.375000 -2.790000 0 255 255
5.386700 -7.372500 -3.430800 0 255 255
6.000000 -5.320000 -2.660000 0 255 255
6.491500 -5.434600 -2.846900 0 255 255
6.110000 -6.900000 16.450001 0 255 0
6.090000 -6.340000 3.430000 255 0 0
6.086700 -6.760000 19.860001 0 255 0
6.097100 -6.425700 -3.085700 0 255 0
6.397800 -6.068900 16.362200 0 255 0
6.385000 -6.006700 13.208300 0 255 0
6.390000 -6.180000 -3.010000 0 255 255
5.942500 -5.965000 17.270000 0 255 0
5.948000 -5.614000 13.366000 0 255 0
5.933000 -5.465500 -2.537000 0 255 255
6.336700 -6.480000 19.723301 255 0 0
6.230000 -5.830000 -3.570000 0 255 255
6.360000 -6.810000 -3.240000 0 255 255
6.150000 -6.715000 -3.095000 0 255 0
6.386700 -6.883300 -3.246700 0 255 255
6.400000 -6.410000 16.430000 0 255 0
6.383300 -6.476700 19.763300 255 0 0
6.390000 -6.360000 13.252500 0 255 0
6.405000 -6.915000 -3.210000 0 255 255
6.440000 -6.090000 16.100000 0 255 0
6.460000 -6.140000 12.980000 0 255 0
6.420000 -6.190000 -2.860000 0 255 255
6.740000 -7.055000 19.850000 0 255 0
6.755000 -6.635000 -3.105000 0 255 255
6.790000 -7.465000 16.809999 0 255 0
6.443300 -6.261700 -2.820000 0 255 0
6.730000 -6.010000 -2.810000 0 255 255
6.790000 -5.980000 16.389999 0 255 0
6.770000 -5.900000 13.070000 0 255 0
6.846700 -6.916700 -3.143300 0 255 255
6.795000 -7.500000 19.725000 0 255 0
6.793300 -7.461700 16.459999 0 255 0
5.578600 -6.760000 -3.834300 0 255 0
6.585000 -7.505000 -3.205000 0 255 255
5.290000 -6.355000 -3.540000 0 255 0
6.890000 -7.013300 -3.103300 0 255 255
6.880000 -6.680000 16.190001 0 255 0
6.890000 -6.710000 19.350000 0 255 0
6.592500 -5.630000 12.652500 0 255 0
6.633300 -6.913300 -2.896700 0 255 255
5.338300 -6.425000 -3.485800 0 255 0
6.383300 -7.423300 -2.983300 0 255 255
5.332500 -6.375000 -3.437500 0 255 0
5.350000 -6.820000 19.530001 0 255 0
5.629500 -6.574300 -3.535200 0 255 0
6.550000 -7.270000 22.370001 0 255 0
6.960000 -7.140000 19.160000 0 255 0
6.920000 -7.160000 16.110001 0 255 0
7.246700 -6.363300 17.646700 0 255 0
7.245000 -6.415000 14.508700 0 255 0
6.643300 -6.126700 -2.336700 0 255 255
6.600000 -6.675000 -3.345000 0 255 255
6.593300 -6.971700 15.610000 0 255 0
6.592000 -6.912000 12.354000 0 255 0
6.292500 -6.437500 21.417500 0 255 0
6.593300 -7.213300 16.450001 0 255 0
6.580000 -7.263300 19.708300 0 255 0
7.530000 -7.180000 23.100000 0 255 0
7.390000 -7.275000 21.014999 0 255 0
6.400000 -6.290000 19.820000 0 255 0
6.398600 -6.161400 13.307100 0 255 0
7.536400 -6.217300 23.260901 0 255 0
7.035000 -7.380000 19.455000 0 255 0
6.140000 -6.835000 15.210000 0 255 0
6.210000 -6.530000 5.880000 255 0 0
6.180000 -6.578300 9.011700 255 0 0
6.195000 -6.685000 15.505000 255 0 0
5.690000 -6.850000 20.379999 0 255 0
5.601100 -5.617800 12.910000 0 255 0
5.580000 -6.980000 19.379999 0 255 0
5.610000 -7.420000 -3.600000 0 255 255
6.180000 -6.760000 15.380000 255 0 0
6.196700 -6.703300 12.220000 255 0 0
7.290000 -6.930000 19.450001 0 255 0
6.020000 -6.730000 15.660000 0 255 0
6.020000 -6.386000 -0.790000 255 0 0
5.775000 -6.210000 0.610000 0 255 0
5.795000 -6.520000 19.555000 0 255 0
6.095000 -6.570000 7.320000 255 0 0
5.980000 -5.857800 -2.940000 0 255 0
6.091800 -6.480000 13.807600 255 0 0
6.675000 -6.725000 21.030001 0 255 0
6.580000 -5.530000 -2.990000 0 255 255
6.686000 -6.412000 14.674000 0 255 0
6.770000 -6.820000 23.190001 0 255 0
6.790000 -6.736700 16.709999 0 255 0
5.942700 -5.726700 13.405300 0 255 0
5.889400 -5.522800 13.414400 0 255 0
5.970000 -6.560000 10.540000 255 0 0
6.010000 -6.640000 13.810000 255 0 0
6.000000 -6.260000 16.709999 0 255 0
5.945900 -5.916800 13.408600 0 255 0
5.936700 -5.875000 16.656700 0 255 0
5.285000 -6.125000 0.620000 0 255 0
5.281800 -6.614700 20.214100 0 255 0
5.780000 -5.670000 9.910000 0 255 0
5.791000 -5.870000 22.152000 0 255 0
5.800000 -5.968600 17.354300 0 255 0
6.290000 -7.760000 19.980000 0 255 0
7.085900 -6.667100 -3.135900 0 255 255
7.096700 -6.876700 12.163300 0 255 0
6.310000 -6.850000 17.590000 0 255 0
6.280000 -6.730000 20.660000 255 0 0
5.747800 -6.283300 -0.845900 0 255 0
6.696700 -7.370000 17.096701 0 255 0
7.535000 -6.412500 20.315001 0 255 0
6.460000 -6.750000 12.750000 0 255 0
6.450000 -7.030000 -3.130000 0 255 255
6.030000 -6.674000 15.164000 255 0 0
6.040000 -6.700000 11.930000 255 0 0
5.005000 -7.020000 -3.495000 0 255 255
6.510000 -6.370000 22.530001 0 255 0
6.510000 -6.600000 13.120000 0 255 0
6.384400 -6.527800 -3.835600 0 255 0
7.280000 -6.160000 12.840000 0 255 0
6.770000 -6.990000 -3.200000 0 255 255
5.193300 -6.178900 17.522200 0 255 0
7.140000 -7.578000 23.260000 0 255 0
6.342500 -6.727500 14.660000 0 255 0
6.570000 -6.660000 23.490000 0 255 0
5.420000 -6.560000 21.000000 0 255 0
6.840300 -7.471300 16.014000 0 255 0
6.785000 -7.085000 12.305000 0 255 0
6.400000 -7.720000 19.570000 0 255 0
5.580000 -7.030000 -3.110000 0 255 255
5.746700 -7.221700 16.865000 0 255 0
5.590000 -6.970000 21.540001 0 255 0
5.583300 -7.353300 -3.740000 0 255 255
6.060000 -7.260000 16.530001 0 255 0
6.030000 -6.660000 4.263300 255 0 0
5.686700 -5.756700 15.600000 0 255 0
5.680000 -6.066700 -3.530000 0 255 0
6.091700 -5.264200 -3.089200 0 255 255
5.850000 -5.633300 13.200000 0 255 0
5.835300 -5.470300 -2.993400 0 255 255
6.188300 -5.565000 -3.145000 0 255 255
6.037300 -5.771300 -3.190700 0 255 255
6.190000 -5.572500 -3.085000 0 255 255
6.301200 -5.372500 -3.001300 0 255 255
6.339100 -5.470000 -3.036400 0 255 255
5.790000 -5.876700 17.763300 0 255 0
5.992500 -5.405000 -2.887500 0 255 255
6.490000 -7.010000 17.366699 0 255 0
6.400000 -5.780000 -3.170000 0 255 255
6.031700 -5.565000 -2.898300 0 255 255
6.350000 -6.790000 21.490000 255 0 0
6.238700 -5.676300 -2.992500 0 255 255
6.341100 -5.477800 -2.928900 0 255 255
6.070000 -5.470000 13.120000 0 255 0
6.100000 -6.185000 19.059999 0 255 0
6.093300 -5.821700 -3.001700 0 255 255
6.340700 -5.504300 -2.890000 0 255 255
6.180000 -6.223300 -3.180000 0 255 0
6.140000 -5.336700 -2.700000 0 255 255
6.332000 -5.470000 -2.804000 0 255 255
6.286700 -6.266700 13.253300 0 255 0
6.292500 -6.005000 -3.032500 0 255 255
6.094400 -5.821900 -2.887500 0 255 255
6.600000 -6.140000 23.139999 0 255 0
6.605000 -5.972500 13.367500 0 255 0
6.579500 -5.716000 -2.929500 0 255 255
6.800000 -5.925000 16.389999 0 255 0
6.844300 -7.181400 -3.392900 0 255 255
6.350000 -6.180000 13.640000 0 255 0
6.345000 -5.665000 20.219999 0 255 0
6.337300 -6.013600 -2.740900 0 255 255
7.075500 -6.623000 -3.132000 0 255 255
5.146700 -5.910000 15.266700 0 255 0
6.775000 -6.920000 -3.150000 0 255 255
6.843300 -7.076700 -3.190000 0 255 255
6.783300 -7.023300 -3.153300 0 255 255
6.438300 -7.263300 -3.093300 0 255 255
6.795400 -5.770000 -2.493800 0 255 255
6.787900 -5.767900 12.562600 0 255 0
6.698900 -6.070600 -2.547800 0 255 255
5.810000 -6.890000 -3.760000 0 255 0
5.780000 -6.825000 -3.680000 0 255 0
6.803300 -6.376700 12.803300 0 255 0
6.796000 -6.416000 15.978000 0 255 0
7.230000 -6.510000 12.080000 0 255 0
6.770000 -6.990000 -3.660000 0 255 255
7.289000 -6.228000 12.653000 0 255 0
5.590000 -6.170000 0.620000 0 255 0
5.610000 -6.507500 -2.292500 255 0 0
6.710000 -6.060000 -2.310000 0 255 255
7.080000 -6.740000 16.820000 0 255 0
7.037000 -6.165000 23.562000 0 255 0
7.070000 -6.770000 17.410000 0 255 0
6.770000 -6.850000 -3.360000 0 255 255
7.420000 -7.130000 19.190001 0 255 0
5.860000 -5.800000 -3.110000 0 255 255
5.046000 -6.822000 -3.490000 0 255 255
5.847800 -7.577800 16.910000 0 255 0
7.000000 -7.420000 19.520000 0 255 0
7.000000 -7.355000 16.145000 0 255 0
6.991000 -7.370000 16.004999 0 255 0
5.930000 -6.540000 -2.680000 255 0 0
5.940000 -6.710000 9.560000 255 0 0
5.940000 -6.650000 12.930000 255 0 0
6.000000 -7.770000 17.010000 0 255 0
6.042500 -5.670000 -3.400000 0 255 255
5.935000 -6.655000 -1.840000 255 0 0
5.952900 -6.628600 1.405700 255 0 0
6.000000 -6.700000 13.120000 255 0 0
5.990000 -6.673100 9.957700 255 0 0
6.130000 -6.517600 6.111800 255 0 0
6.160000 -6.320000 18.780001 0 255 0
6.141700 -6.427800 12.461700 255 0 0
6.036000 -5.974000 -3.388000 0 255 0
6.141200 -6.462900 9.257100 255 0 0
6.170000 -6.420000 3.140000 255 0 0
6.177700 -6.478500 6.408500 255 0 0
6.170000 -6.610000 16.200001 255 0 0
6.190000 -6.340000 -3.160000 0 255 0
6.184200 -6.516300 9.910000 255 0 0
6.030000 -5.880000 17.080000 0 255 0
6.130000 -6.615000 24.045000 0 255 0
6.205000 -6.980000 16.809999 0 255 0
5.950000 -7.700000 17.110001 0 255 0
6.342300 -6.268500 13.912300 0 255 0
6.950000 -6.172900 14.900000 0 255 0
7.340000 -6.960000 21.650000 0 255 0
7.340000 -7.018000 18.408001 0 255 0
5.192500 -6.516900 17.556200 0 255 0
5.197800 -5.963300 15.271100 0 255 0
5.800000 -5.780000 17.475000 0 255 0
5.970000 -6.630000 8.310000 255 0 0
6.003300 -6.533300 2.008300 255 0 0
6.006800 -6.470600 -1.244500 255 0 0
6.828600 -6.468600 17.660000 0 255 0
6.835000 -6.585000 23.950001 0 255 0
6.780000 -6.330000 23.625000 0 255 0
5.906700 -6.290000 23.876699 0 255 0
5.500000 -6.670000 23.080000 0 255 0
6.270000 -7.370000 -3.720000 0 255 255
6.894400 -5.774400 12.663900 0 255 0
5.410000 -6.580000 -3.630000 0 255 0
5.360000 -5.630000 -3.510000 0 255 255
5.730000 -7.060000 18.700001 0 255 0
7.096200 -6.368700 12.558800 0 255 0
7.092700 -6.372700 12.608700 0 255 0
6.530000 -7.710000 17.090000 0 255 0
6.590000 -7.030000 16.559999 0 255 0
6.584300 -7.064300 19.708599 0 255 0
6.936000 -7.120000 17.120001 0 255 0
6.740000 -6.660000 -3.200000 0 255 255
6.730000 -6.824700 12.308700 0 255 0
6.710000 -6.750000 21.459999 0 255 0
6.685000 -6.735000 18.225000 0 255 0
6.375000 -7.367500 16.272499 0 255 0
6.450000 -7.250000 16.510000 0 255 0
6.045700 -5.271400 -3.187100 0 255 255
5.190700 -5.828600 -3.335700 0 255 255
5.210000 -7.290000 -3.270000 0 255 255
5.452500 -6.160000 -3.207500 0 255 255
5.030000 -6.840000 15.130000 0 255 0
7.000000 -6.970000 16.365000 0 255 0
5.837900 -6.713600 -3.895000 0 255 0
5.884000 -5.926000 15.362000 0 255 0
5.710000 -5.830000 17.940001 0 255 0
6.290000 -7.107500 -4.035000 0 255 255
5.539000 -6.825000 18.598000 0 255 0
6.095500 -5.271400 -3.032700 0 255 255
5.700000 -5.510000 -3.070000 0 255 255
5.660000 -6.640000 19.190001 0 255 0
6.086200 -5.821300 -3.290000 0 255 255
6.130000 -5.956700 19.120001 0 255 0
6.138900 -5.523700 -3.041600 0 255 255
5.730000 -6.980000 -3.670000 0 255 0
5.760000 -6.580000 20.809999 0 255 0
5.522500 -6.865000 18.620001 0 255 0
5.445000 -6.575000 21.745001 0 255 0
5.990000 -5.930000 19.012501 0 255 0
5.996700 -5.570000 -2.950000 0 255 255
6.270000 -5.990000 -3.170000 0 255 255
5.641600 -6.323600 -3.290000 0 255 0
5.925000 -5.975000 -3.035000 0 255 0
6.108000 -5.334000 -2.746000 0 255 255
6.440000 -6.770000 -3.397500 0 255 255
6.050000 -6.755000 -3.340000 0 255 0
6.050000 -6.750000 -3.230000 0 255 0
6.455000 -6.775000 -3.285000 0 255 255
5.981000 -5.421500 -2.544100 0 255 255
6.510000 -6.640000 16.660000 0 255 0
6.490000 -6.940000 -3.270000 0 255 255
6.490000 -6.730000 16.420000 0 255 0
6.470000 -6.590000 19.670000 255 0 0
6.505000 -7.000000 -3.195000 0 255 255
5.220000 -6.690000 18.920000 0 255 0
5.495000 -7.080000 -3.120000 0 255 255
6.600000 -7.475700 -3.195700 0 255 255
5.990000 -6.630000 6.960000 255 0 0
6.003000 -6.522200 0.454800 255 0 0
5.998900 -6.471100 -2.696700 255 0 0
5.301700 -6.125000 -3.675800 0 255 255
6.002500 -6.670000 13.102500 255 0 0
5.991100 -6.432200 -2.640000 255 0 0
6.360000 -7.310000 -2.986700 0 255 255
6.991100 -6.370000 12.071100 0 255 0
6.004100 -6.521800 0.562700 255 0 0
5.996700 -6.470000 -2.585000 255 0 0
5.270000 -6.430000 -3.620000 0 255 0
5.570000 -6.490000 -3.750000 0 255 0
5.610000 -6.840000 -3.760000 0 255 0
6.435000 -6.512500 -3.697500 0 255 0
5.970000 -6.780000 20.450001 0 255 0
5.990000 -6.650000 14.160000 255 0 0
5.991800 -6.417100 -2.494100 255 0 0
5.294600 -6.324600 -3.493100 0 255 0
5.980000 -6.250000 7.450000 255 0 0
5.998600 -6.619300 3.858600 255 0 0
5.997000 -6.570000 0.705200 255 0 0
5.999100 -6.515500 -2.443600 255 0 0
5.370000 -5.880000 17.629999 0 255 0
5.300000 -6.528000 -3.444000 0 255 0
5.630000 -6.512000 19.412001 0 255 0
5.655000 -6.600000 0.065000 255 0 0
5.636700 -6.850000 -3.543300 0 255 0
6.800000 -6.890000 16.080000 0 255 0
6.795000 -6.925000 19.190001 0 255 0
6.810000 -6.580000 -3.540000 0 255 255
7.281700 -6.973300 23.758301 0 255 0
6.292900 -5.461400 -2.895700 0 255 255
6.935700 -6.567100 -3.384300 0 255 255
6.936000 -7.106000 12.402000 0 255 0
6.035000 -6.535000 14.760000 255 0 0
5.950000 -6.040000 16.860001 0 255 0
7.220000 -6.870000 21.920000 0 255 0
7.230000 -6.830000 12.170000 0 255 0
7.293300 -6.953300 22.803301 0 255 0
6.010000 -6.150000 16.740000 0 255 0
6.620000 -7.390000 17.860001 0 255 0
6.050000 -6.030000 18.870001 0 255 0
7.584300 -6.664300 23.311399 0 255 0
5.040400 -6.172500 0.569600 0 255 0
5.488600 -5.771400 0.660600 0 255 0
7.140000 -6.405000 23.155001 0 255 0
5.810000 -6.540000 -1.160000 255 0 0
5.780000 -6.580000 2.020000 255 0 0
5.800000 -6.620000 4.993300 255 0 0
5.295000 -7.015000 18.790001 0 255 0
7.190700 -6.125300 23.455299 0 255 0
5.297500 -7.127500 -3.442500 0 255 255
5.786800 -6.516800 20.756800 0 255 0
6.080000 -6.330000 -0.430000 255 0 0
6.090000 -6.820000 18.580000 0 255 0
6.130000 -6.655000 18.950001 0 255 0
6.130000 -6.700000 15.730000 255 0 0
5.998000 -7.560000 16.524000 0 255 0
5.990000 -6.656000 12.414000 255 0 0
5.493300 -5.973300 15.213300 0 255 0
6.090000 -6.790000 23.760000 0 255 0
6.350000 -7.300000 12.200000 0 255 0
6.337900 -7.163300 -3.587700 0 255 255
6.289200 -5.326200 -2.885400 0 255 255
6.070000 -6.600000 3.130000 255 0 0
6.070000 -6.400000 16.180000 0 255 0
6.098300 -6.460000 6.360000 255 0 0
5.675000 -7.208300 -3.686700 0 255 255
5.410000 -6.510000 20.690001 0 255 0
5.370000 -7.270000 16.889999 0 255 0
6.110000 -6.760000 22.340000 0 255 0
6.096700 -6.376700 -3.740000 0 255 0
6.050000 -5.755000 17.070000 0 255 0
6.846700 -6.172200 12.157200 0 255 0
6.790000 -6.768000 16.708000 0 255 0
5.520000 -5.810000 15.160000 0 255 0
6.885000 -7.460000 16.850000 0 255 0
6.790900 -5.630900 16.414499 0 255 0
5.740000 -7.210000 -3.830000 0 255 255
5.750000 -6.800000 20.670000 0 255 0
4.890000 -6.680000 -3.480000 0 255 255
6.634300 -6.332900 -2.990000 0 255 255
5.820000 -7.510000 21.660000 0 255 0
6.785000 -7.420000 16.850000 0 255 0
5.335000 -6.715000 20.160000 0 255 0
5.332900 -6.207100 0.797100 0 255 0
6.490000 -7.065000 -3.450000 0 255 255
6.496000 -6.672000 21.875999 255 0 0
7.225000 -6.925000 19.395000 0 255 0
7.240000 -6.863800 19.203699 0 255 0
7.291700 -7.118300 19.401699 0 255 0
5.134400 -5.963300 -3.483300 0 255 255
6.990000 -6.120000 23.340000 0 255 0
7.042200 -6.719300 12.357400 0 255 0
6.441000 -6.777000 14.700000 0 255 0
6.440000 -6.500000 21.370001 0 255 0
6.870000 -5.810000 -2.640000 0 255 255
6.135000 -5.965000 -2.995000 0 255 0
6.246700 -6.356700 23.510000 0 255 0
5.260000 -6.750000 19.450001 0 255 0
6.050000 -6.880000 -3.560000 0 255 0
6.030000 -6.705000 6.365000 255 0 0
6.036700 -6.680000 9.507800 255 0 0
6.570000 -7.060000 19.790001 0 255 0
6.590000 -7.075000 19.750000 0 255 0
6.586700 -7.023300 16.500000 0 255 0
6.610000 -6.740000 16.480000 0 255 0
6.590000 -6.820000 22.990000 0 255 0
6.597500 -6.422500 -3.085000 0 255 0
5.580000 -7.120000 21.525000 0 255 0
6.597500 -6.425000 13.250000 0 255 0
6.595000 -6.460000 15.315000 0 255 0
6.550000 -7.260000 12.450000 0 255 0
5.560000 -7.480000 17.820000 0 255 0
6.210000 -7.110000 16.330000 0 255 0
5.155000 -6.030000 13.265000 0 255 0
6.688000 -6.672000 -3.696000 0 255 255
6.695000 -7.015000 19.250000 0 255 0
6.200000 -7.370000 16.162001 0 255 0
5.950000 -6.540000 -2.960000 255 0 0
5.935000 -6.480000 0.110000 255 0 0
5.930000 -6.705000 10.130000 255 0 0
7.043300 -6.430000 19.209999 0 255 0
7.038200 -6.322100 12.706200 0 255 0
7.040000 -6.455000 16.065001 0 255 0
7.037800 -6.165600 -3.087800 0 255 255
4.985000 -6.325000 -3.590000 0 255 255
6.877500 -6.227500 -3.437500 0 255 255
5.005000 -6.310000 -3.540000 0 255 255
7.045000 -6.018300 23.600000 0 255 0
6.410000 -6.340000 12.670000 0 255 0
6.230000 -6.290000 21.270000 0 255 0
6.020000 -5.670000 17.889999 0 255 0
6.635000 -7.155000 17.799999 0 255 0
5.795000 -7.020000 17.014999 0 255 0
5.350000 -6.673300 17.426701 0 255 0
5.340000 -6.612500 20.900000 0 255 0
5.342000 -6.618000 20.862000 0 255 0
5.350000 -6.671400 17.459999 0 255 0
5.700000 -5.820000 15.155000 0 255 0
5.594500 -6.073600 15.252700 0 255 0
5.584400 -6.526900 -3.637500 0 255 0
5.275000 -6.615000 20.715000 0 255 0
5.283700 -6.566300 17.555000 0 255 0
5.610000 -6.480000 -1.620000 255 0 0
5.350000 -6.700000 20.940001 0 255 0
5.500000 -7.100000 17.299999 0 255 0
5.710000 -6.810000 17.070000 0 255 0
5.692500 -6.722500 23.410000 0 255 0
5.760000 -6.660000 19.129999 0 255 0
5.750000 -7.010000 16.840000 0 255 0
5.480000 -6.870000 20.719999 0 255 0
5.475000 -6.710000 20.855000 0 255 0
5.700000 -6.280000 -0.995000 255 0 0
5.393300 -6.270000 -3.723300 0 255 0
5.410000 -6.710000 -3.850000 0 255 0
5.390000 -6.180000 -3.450000 0 255 255
5.703300 -6.370000 2.756700 255 0 0
5.676200 -6.518900 -0.289600 255 0 0
5.689300 -7.472900 16.965700 0 255 0
6.020000 -6.050000 13.350000 0 255 0
6.055000 -6.220000 16.700001 0 255 0
6.331100 -5.987800 -2.995600 0 255 255
5.139200 -6.006900 0.459200 0 255 0
5.290000 -6.630000 20.500000 0 255 0
5.292200 -6.132700 0.700200 0 255 0
5.449200 -5.478500 0.704300 0 255 0
6.420000 -6.760000 21.690001 255 0 0
5.935000 -6.165000 16.754999 0 255 0
