13.680000 10.070000 21.440001 0 255 0
13.689400 10.031200 11.654400 0 255 0
14.290300 10.484600 7.907600 0 255 0
14.780000 11.035000 18.245001 0 255 0
14.670000 9.860000 22.610001 0 255 0
14.380000 9.560000 2.310000 0 255 255
14.380000 9.710000 18.719999 0 255 0
14.370000 9.675000 21.870001 0 255 0
14.710000 11.230000 14.240000 0 255 0
14.686700 11.340000 20.546700 0 255 0
14.180000 11.025000 17.905001 0 255 0
15.540000 10.930000 18.480000 0 255 0
15.088100 9.680600 15.308800 0 255 0
15.390000 9.928800 14.968800 0 255 0
14.435600 11.372200 15.104400 0 255 0
14.190000 10.690000 26.540001 0 255 0
14.673300 10.773300 14.160000 255 0 0
13.910000 10.500000 14.210000 0 255 0
13.890000 10.771000 8.060000 0 255 0
14.520000 10.260000 23.490000 0 255 0
14.530000 10.340000 26.750000 0 255 0
14.960000 10.790000 19.740000 0 255 0
14.191400 9.581400 18.155701 0 255 0
14.120000 10.580000 17.790001 0 255 0
15.270000 10.120000 1.820000 0 255 255
15.290000 10.300000 17.725000 0 255 0
15.220000 10.240000 18.730000 0 255 0
15.240000 10.180000 15.550000 0 255 0
15.086700 9.883300 10.230000 0 255 0
14.740000 10.782200 5.767800 255 0 0
14.730000 10.250000 21.430000 0 255 0
14.740000 10.460000 12.310000 255 0 0
14.736700 10.443300 9.153300 255 0 0
14.945000 9.625000 3.060000 0 255 255
14.730000 9.942500 19.867500 0 255 0
14.684000 11.681600 2.910400 0 255 255
14.633300 10.734400 9.514400 255 0 0
14.590000 10.350000 24.719999 0 255 0
14.586700 10.380000 21.469999 0 255 0
14.583300 10.525800 12.465800 255 0 0
14.576200 10.571300 9.202500 255 0 0
14.574600 10.632900 5.712900 0 255 0
14.581100 10.484400 15.507800 255 0 0
14.583900 10.685300 2.459500 0 255 0
13.645000 10.265000 23.270000 0 255 0
15.292200 10.434400 17.615601 0 255 0
14.500000 10.270000 1.770000 0 255 0
14.486700 10.621700 17.261700 255 0 0
14.510000 10.476700 14.000000 255 0 0
15.640000 10.280000 14.680000 0 255 0
13.838300 9.876700 11.661700 0 255 0
13.830000 9.815000 8.420000 0 255 0
13.840000 9.860000 10.300000 0 255 0
13.741200 10.334400 10.569100 0 255 0
14.000000 9.873300 22.263300 0 255 0
13.993300 10.476700 10.413300 0 255 0
14.800000 11.040000 19.815001 0 255 0
14.790000 11.000000 23.040001 0 255 0
14.530000 10.790000 7.660000 0 255 0
14.550000 10.720000 4.515000 255 0 0
14.390000 9.750000 18.660000 0 255 0
14.370000 9.660000 21.920000 0 255 0
14.310000 10.420000 26.740000 0 255 0
14.300000 10.350000 20.260000 0 255 0
13.745000 9.660000 18.340000 0 255 0
14.188600 9.777100 18.061399 0 255 0
14.355000 10.775000 17.795000 0 255 0
14.430000 9.610000 19.879999 0 255 0
14.440000 9.560000 16.590000 0 255 0
14.730000 9.774000 19.813999 0 255 0
14.745000 9.721700 16.660000 0 255 0
14.480000 10.490000 25.219999 255 0 0
14.470000 10.510000 21.940001 255 0 0
14.500000 10.445000 16.209999 255 0 0
14.340700 9.777100 13.803600 0 255 0
14.833300 10.543300 9.893300 255 0 0
14.835000 10.485000 6.675000 255 0 0
14.050000 10.410000 16.110001 0 255 0
14.050000 9.860000 18.309999 0 255 0
13.970000 10.430000 26.820000 0 255 0
14.160000 10.570000 22.549999 0 255 0
14.040000 10.720000 26.090000 0 255 0
15.660000 10.320000 14.950000 0 255 0
15.390000 11.010000 18.379999 0 255 0
14.820000 10.900000 14.180000 0 255 0
14.600000 9.385000 16.355000 0 255 0
15.490000 10.750000 18.790001 0 255 0
13.480000 10.520000 10.600000 0 255 0
13.820000 9.810000 11.470000 0 255 0
14.260000 9.700000 26.799999 0 255 0
14.560000 9.420000 23.655001 0 255 0
14.553300 10.720000 4.313300 255 0 0
14.096700 11.026000 13.510000 0 255 0
13.620000 10.690000 23.820000 0 255 0
14.250000 10.980000 15.340000 0 255 0
13.594000 10.032000 13.806000 0 255 0
14.900000 10.580000 18.760000 0 255 0
14.910000 10.390000 5.700000 0 255 0
13.440000 10.483300 15.356700 0 255 0
15.480000 10.410000 16.610001 0 255 0
13.650000 10.500000 14.210000 0 255 0
14.260000 10.500000 14.990000 0 255 0
14.590000 9.335000 16.350000 0 255 0
14.880000 9.970000 15.290000 0 255 0
14.875000 10.565000 2.680000 255 0 0
14.640000 9.970000 21.530001 0 255 0
14.630000 9.950000 18.260000 0 255 0
14.350000 10.450000 22.760000 255 0 0
14.630000 10.010000 19.350000 0 255 0
15.195000 10.690000 15.150000 0 255 0
15.320000 10.320000 17.850000 0 255 0
14.360000 9.820000 17.889999 0 255 0
14.400000 11.090000 13.500000 0 255 0
14.945000 11.340000 19.905001 0 255 0
15.225000 10.765000 17.770000 0 255 0
13.536700 10.878300 15.848300 0 255 0
14.870000 10.580000 5.970000 255 0 0
14.940000 9.510000 21.950001 0 255 0
14.940000 9.423300 15.450000 0 255 0
15.245000 10.630000 14.950000 0 255 0
15.386700 10.066700 15.046700 0 255 0
14.270000 9.960000 26.930000 0 255 0
15.253300 10.326700 15.060000 0 255 0
15.440000 10.680000 17.709999 0 255 0
15.246700 10.730000 18.760000 0 255 0
15.389400 11.025600 14.416300 0 255 0
14.830000 10.610000 7.975000 255 0 0
14.846000 10.598000 4.706000 255 0 0
14.850000 10.050000 21.000000 0 255 0
15.040000 10.540000 14.130000 0 255 0
14.090000 11.160000 18.260000 0 255 0
14.410000 9.860000 18.100000 0 255 0
15.178600 11.032900 14.205700 0 255 0
15.300000 10.180000 15.915000 0 255 0
15.280000 10.000000 15.860000 0 255 0
14.930000 9.960000 16.549999 0 255 0
14.642500 9.425000 15.765000 0 255 0
14.490000 10.450000 14.150000 255 0 0
14.486700 10.536700 20.906700 255 0 0
14.110000 10.815000 22.045000 0 255 0
14.090000 10.745000 15.700000 0 255 0
14.148800 11.131200 13.410000 0 255 0
13.586200 10.382500 14.196300 0 255 0
13.595000 10.085000 18.895000 0 255 0
14.440000 10.425000 1.700000 0 255 0
14.460000 10.630000 13.950000 255 0 0
14.446700 10.526700 20.443300 255 0 0
14.450000 10.482000 17.312000 255 0 0
14.543300 11.120000 14.076700 0 255 0
14.546700 11.226700 20.340000 0 255 0
14.635600 10.778400 6.460000 255 0 0
14.620000 10.520000 16.379999 0 255 0
14.628600 10.735700 3.314800 255 0 0
14.620000 10.615000 9.810000 255 0 0
14.410000 10.330000 16.320000 0 255 0
14.397500 10.430000 10.002500 0 255 0
13.685000 10.385000 10.740000 0 255 0
13.670000 10.600000 23.420000 0 255 0
14.230000 9.980000 13.845000 0 255 0
13.541400 10.432900 10.665700 0 255 0
14.341300 11.031900 13.451900 0 255 0
13.747500 10.565000 15.895000 0 255 0
13.552500 10.232500 14.167500 0 255 0
14.986700 10.273300 15.146700 0 255 0
14.480000 9.625000 16.610001 0 255 0
14.510000 10.500000 26.299999 0 255 0
14.480000 10.420000 16.700001 255 0 0
14.490000 10.387500 19.959999 255 0 0
15.270000 9.736700 20.273300 0 255 0
14.830000 9.580000 10.470000 0 255 0
14.460000 10.260000 26.709999 0 255 0
14.430000 10.370000 20.410000 255 0 0
14.380000 11.500000 2.270000 0 255 255
14.880000 9.930000 15.100000 0 255 0
14.650000 10.620000 22.049999 0 255 0
14.630000 10.710000 15.740000 255 0 0
14.840000 9.824400 15.508900 0 255 0
14.880000 10.560000 3.670000 255 0 0
14.790000 9.770000 16.709999 0 255 0
14.380000 10.610000 12.260000 0 255 0
14.383300 10.836700 24.896700 0 255 0
14.385000 10.525000 18.549999 255 0 0
14.450000 9.460000 18.180000 0 255 0
14.030000 10.170000 24.860001 0 255 0
14.037000 10.277000 18.354000 0 255 0
15.353300 10.036700 20.116699 0 255 0
13.830000 10.066700 19.606701 0 255 0
14.370000 10.530000 17.790001 255 0 0
14.395000 10.495000 20.955000 255 0 0
13.640000 10.015000 19.610001 0 255 0
13.640000 9.870000 22.850000 0 255 0
15.100000 11.200000 24.459999 0 255 0
15.253300 11.176700 1.956700 0 255 255
14.186700 9.883300 10.461700 0 255 0
14.805000 10.095000 21.275000 0 255 0
14.800000 10.560000 14.130000 255 0 0
15.248900 9.924400 15.013300 0 255 0
14.550000 11.540000 18.306700 0 255 0
14.540000 11.490000 15.163300 0 255 0
14.331700 11.330000 15.155000 0 255 0
14.440000 10.800000 19.680000 0 255 0
14.460000 10.570000 7.000000 255 0 0
14.453300 10.525000 16.661699 255 0 0
14.440000 10.670000 26.719999 0 255 0
14.436000 10.526000 16.903999 255 0 0
14.430000 10.460000 20.950001 255 0 0
14.420000 10.570000 14.640000 255 0 0
14.440000 10.634000 17.902000 255 0 0
14.930000 11.070000 21.820000 0 255 0
14.940000 11.040000 18.764999 0 255 0
14.775000 10.920000 18.815001 0 255 0
14.205000 10.525000 18.660000 0 255 0
14.990000 10.470000 18.360001 0 255 0
14.320000 9.690000 21.959999 0 255 0
15.240000 11.280000 2.100000 0 255 255
15.487500 9.727000 10.354000 0 255 0
15.291400 10.334300 15.064300 0 255 0
14.894000 10.082000 15.071000 0 255 0
14.440000 9.770000 17.700001 0 255 0
14.450000 10.250000 17.480000 0 255 0
14.785000 10.545000 18.115000 0 255 0
14.735000 9.680000 16.530001 0 255 0
14.740000 9.736700 19.863300 0 255 0
14.300000 10.840000 13.360000 0 255 0
14.293300 10.550000 19.719999 0 255 0
14.630000 11.130000 21.815001 0 255 0
14.525000 11.235000 22.660000 0 255 0
14.150000 9.580000 2.360000 0 255 255
15.135000 10.420000 15.760000 0 255 0
14.870000 10.720000 3.580000 255 0 0
14.900000 10.130000 15.805000 0 255 0
14.680000 9.810000 22.620001 0 255 0
14.640000 11.280000 20.963301 0 255 0
14.400000 9.380000 15.656700 0 255 0
14.350000 10.190000 1.860000 0 255 0
13.720000 10.940000 8.130000 0 255 0
13.580000 10.000000 25.260000 0 255 0
14.148000 9.530000 10.612000 0 255 0
14.540000 10.310000 26.000000 0 255 0
14.537100 10.184300 16.507099 0 255 0
14.046000 11.120000 25.752001 0 255 0
14.460000 10.610000 8.020000 0 255 0
14.430000 10.776700 17.793301 0 255 0
15.042500 9.522500 2.807500 0 255 255
13.890000 10.830000 22.280001 0 255 0
15.170000 10.000000 26.290001 0 255 0
14.100000 10.470000 7.870000 0 255 0
14.090000 9.920000 18.440001 0 255 0
13.645000 10.290000 17.967501 0 255 0
13.630000 10.330000 21.219999 0 255 0
13.620000 10.590000 24.120001 0 255 0
14.670000 9.800000 19.770000 0 255 0
14.490000 10.710000 6.640000 0 255 0
14.497500 10.677500 9.820000 255 0 0
14.928300 10.180000 10.345000 0 255 0
14.786900 9.473800 15.319200 0 255 0
14.480000 10.015000 25.500000 0 255 0
15.338300 10.625000 18.750000 0 255 0
14.010000 11.210000 25.770000 0 255 0
14.745000 10.520000 8.815000 255 0 0
14.730000 10.450000 2.290000 0 255 0
14.739200 10.476000 5.562000 255 0 0
14.605000 10.037500 1.942500 0 255 0
14.292100 11.682100 15.250700 0 255 0
15.490000 10.370000 15.200000 0 255 0
15.280000 10.690000 18.469999 0 255 0
14.260000 11.010000 19.780001 0 255 0
14.260000 11.150000 13.600000 0 255 0
14.240000 9.730000 2.030000 0 255 255
14.670000 9.950000 22.530001 0 255 0
13.593200 10.427000 8.065100 0 255 0
13.580000 10.283300 17.799999 0 255 0
14.140000 10.328000 19.756001 0 255 0
14.135000 10.235000 13.445000 0 255 0
14.331400 9.985700 18.758600 0 255 0
14.090000 9.825700 18.208599 0 255 0
13.390600 10.434100 18.008801 0 255 0
15.230000 10.275000 15.060000 0 255 0
14.560000 10.770000 13.490000 0 255 0
14.560000 10.620000 3.720000 255 0 0
14.545000 10.722500 10.252500 255 0 0
14.549600 10.674200 7.008800 255 0 0
14.750000 10.850000 14.420000 0 255 0
14.725000 11.010000 1.760000 0 255 0
14.743300 10.933300 20.906700 0 255 0
14.260000 10.640000 18.719999 0 255 0
14.730000 11.090000 21.959999 0 255 0
14.735000 11.035000 18.809999 0 255 0
15.320000 10.370000 17.790001 0 255 0
15.210000 10.420000 15.250000 0 255 0
14.780000 10.750000 3.370000 255 0 0
14.310000 10.740000 16.665001 0 255 0
14.293300 10.783300 13.523300 0 255 0
13.700000 10.435000 10.605000 0 255 0
13.645000 11.165000 8.120000 0 255 0
14.848700 10.536300 5.453800 255 0 0
14.795000 9.870000 26.745001 0 255 0
14.330000 10.800000 15.690000 0 255 0
14.360000 10.820000 18.760000 0 255 0
14.336700 9.530000 19.966700 0 255 0
14.342500 10.580000 11.360000 0 255 0
14.340000 10.688900 17.665600 0 255 0
15.090000 9.990000 15.320000 0 255 0
15.390000 10.180000 15.203300 0 255 0
14.738000 9.434000 10.416000 0 255 0
14.040000 10.590000 16.450001 0 255 0
14.036800 10.680300 10.165500 0 255 0
14.560000 10.750000 15.200000 0 255 0
14.543500 10.630400 9.061300 255 0 0
14.543200 10.677600 12.063600 255 0 0
14.555800 10.581200 5.908800 255 0 0
14.546900 10.674600 12.163800 0 255 0
14.545700 10.630400 8.962200 255 0 0
14.555200 10.586000 5.808400 255 0 0
14.780000 10.370000 9.660000 0 255 0
14.781700 10.443300 6.506700 255 0 0
14.786700 10.483300 3.357800 255 0 0
15.133300 9.773300 15.313300 0 255 0
14.045000 10.735000 17.950001 0 255 0
14.460000 10.410000 23.120001 255 0 0
14.440000 10.400000 19.969999 255 0 0
15.276700 9.790000 20.296700 0 255 0
13.486700 10.370000 21.603300 0 255 0
13.475000 10.515000 11.795000 0 255 0
13.500000 10.620000 18.100000 0 255 0
14.090000 9.840000 2.230000 0 255 255
14.110000 9.970000 18.400000 0 255 0
15.370000 10.730000 18.850000 0 255 0
15.410000 10.700000 15.150000 0 255 0
15.380000 10.640000 18.309999 0 255 0
15.110000 11.450000 18.959999 0 255 0
15.196700 9.886700 2.013300 0 255 255
15.195000 10.430000 17.575001 0 255 0
13.588400 10.231600 15.907900 0 255 0
15.042000 11.024000 14.258000 0 255 0
15.237000 10.078000 15.208000 0 255 0
15.488000 10.194000 15.210000 0 255 0
15.040000 10.820000 18.410000 0 255 0
15.260000 9.950000 14.330000 0 255 0
14.490900 11.230000 13.365500 0 255 0
15.290000 10.880000 18.405001 0 255 0
14.570000 10.565000 12.370000 255 0 0
14.575000 10.470000 18.870001 255 0 0
14.572500 10.627500 8.965000 255 0 0
14.598600 10.731000 2.458100 0 255 0
14.570000 10.440000 21.990000 255 0 0
14.576700 10.685200 5.811100 255 0 0
13.785000 10.279300 2.308300 0 255 0
13.642500 9.782500 19.615000 0 255 0
13.643300 9.830000 22.866699 0 255 0
14.845000 9.885000 26.895000 0 255 0
14.660000 10.940000 14.420000 0 255 0
14.645000 10.835000 20.924999 0 255 0
14.410000 10.510000 23.400000 255 0 0
14.380000 10.610000 17.120001 0 255 0
14.387500 10.330000 9.962500 0 255 0
14.405000 10.560000 20.245001 255 0 0
14.390000 10.390000 19.620001 0 255 0
15.430000 10.000000 20.700001 0 255 0
15.580000 9.870000 9.980000 0 255 0
15.020000 10.550000 19.250000 0 255 0
14.540000 11.000000 14.840000 0 255 0
14.540000 11.030000 18.094999 0 255 0
14.490000 10.210000 19.230000 0 255 0
14.650000 10.870000 20.320000 0 255 0
14.643300 10.833300 17.160000 0 255 0
14.140000 9.423300 16.309999 0 255 0
14.220000 9.610000 10.470000 0 255 0
14.220000 9.540000 16.950001 0 255 0
14.240000 9.680000 13.720000 0 255 0
15.192500 11.235000 14.310000 0 255 0
14.297500 11.067500 13.455000 0 255 0
15.390000 9.920000 26.120001 0 255 0
14.560000 10.820000 6.600000 0 255 0
14.540000 9.410000 18.080000 0 255 0
14.795000 11.667500 3.162500 0 255 255
13.460000 10.640000 18.040001 0 255 0
14.030000 11.050000 25.950001 0 255 0
13.505000 10.540000 15.710000 0 255 0
13.637200 10.283300 11.667200 0 255 0
15.183800 10.221300 1.763700 0 255 255
14.495000 9.635000 19.965000 0 255 0
15.430000 9.780000 10.470000 0 255 0
14.760000 10.690000 24.049999 0 255 0
14.310000 10.830000 17.480000 0 255 0
14.090000 10.687100 17.808599 0 255 0
14.090000 10.597100 11.324300 0 255 0
14.850000 9.973300 24.916700 0 255 0
15.033300 9.695000 2.546700 0 255 255
14.740000 11.230000 20.260000 0 255 0
14.760000 11.300000 23.420000 0 255 0
14.580000 10.090000 20.299999 0 255 0
14.460000 10.760000 14.200000 0 255 0
14.680000 10.925000 14.410000 0 255 0
15.493300 9.926700 20.063299 0 255 0
14.740000 11.510000 18.420000 0 255 0
14.940000 10.060000 1.930000 0 255 0
15.395000 10.570000 14.995000 0 255 0
14.890000 11.300000 21.840000 0 255 0
15.290000 10.440000 16.360001 0 255 0
15.025000 9.787500 26.709999 0 255 0
14.590000 10.430000 1.740000 0 255 0
14.810000 9.840000 24.280001 0 255 0
14.770000 9.900000 20.900000 0 255 0
14.026700 11.126700 25.806700 0 255 0
14.890000 11.133300 21.706699 0 255 0
14.370000 9.680000 25.700001 0 255 0
14.340000 10.750000 13.290000 0 255 0
14.350000 10.771400 16.474300 0 255 0
15.698300 10.371700 15.006700 0 255 0
15.190000 10.350000 23.240000 0 255 0
14.110000 9.790000 19.020000 0 255 0
15.610000 10.720000 16.830000 0 255 0
15.180000 11.250000 19.420000 0 255 0
14.333300 9.533300 2.656700 0 255 255
15.320000 11.020000 18.379999 0 255 0
15.536700 10.340000 15.116700 0 255 0
15.550000 10.170000 14.920000 0 255 0
15.180000 10.550000 15.120000 0 255 0
15.380000 10.880000 18.309999 0 255 0
14.940000 9.960000 2.110000 0 255 0
14.900000 10.450000 8.320000 255 0 0
15.045000 11.310000 24.855000 0 255 0
14.780000 10.750000 7.820000 255 0 0
14.780000 10.610000 14.130000 255 0 0
14.780000 10.230000 17.660000 0 255 0
14.810000 10.260000 14.530000 0 255 0
14.790000 10.886000 2.312000 0 255 0
14.780000 11.080000 14.965000 0 255 0
14.475000 9.615000 23.405001 0 255 0
14.628300 9.518300 15.658300 0 255 0
14.794500 10.131800 15.716400 0 255 0
14.100000 11.410000 18.110001 0 255 0
15.470000 11.050000 18.320000 0 255 0
14.145000 11.360000 18.215000 0 255 0
13.500000 10.875000 17.250000 0 255 0
14.020000 10.820000 22.200001 0 255 0
14.820000 10.950000 21.740000 0 255 0
13.945000 11.050000 25.865000 0 255 0
14.950000 9.480000 21.940001 0 255 0
13.730000 10.170000 19.680000 0 255 0
13.730000 10.250000 22.809999 0 255 0
13.610000 9.920000 22.980000 0 255 0
14.185000 10.530000 16.299999 0 255 0
14.390000 11.282600 13.404200 0 255 0
14.196800 11.035000 13.408600 0 255 0
14.690000 11.000000 18.780001 0 255 0
14.405000 10.710000 18.625000 0 255 0
14.120000 10.400000 18.450001 0 255 0
14.380000 10.480000 1.730000 0 255 0
14.388000 9.432000 18.058001 0 255 0
14.649100 10.870000 2.210000 0 255 0
14.535000 9.825000 21.750000 0 255 0
14.540000 9.533300 2.420000 0 255 255
14.550000 10.717500 7.767500 255 0 0
14.555000 10.671100 4.512200 255 0 0
14.490000 10.576700 19.350000 255 0 0
14.498300 10.621700 16.211700 255 0 0
14.485000 10.735000 22.540001 0 255 0
14.498500 10.526200 9.908800 0 255 0
14.160000 11.210000 25.770000 0 255 0
15.325000 10.075000 15.210000 0 255 0
14.441700 10.173300 16.361700 0 255 0
14.900000 11.190000 19.990000 0 255 0
14.620000 10.840000 20.340000 0 255 0
14.850000 9.640000 2.170000 0 255 255
14.441100 10.480500 7.903200 0 255 0
14.450000 10.280000 18.120001 0 255 0
15.590000 10.332900 15.164300 0 255 0
14.391200 11.523800 15.103800 0 255 0
14.200000 9.610000 26.719999 0 255 0
14.700000 10.472500 17.420000 255 0 0
14.480000 10.410000 23.700001 255 0 0
14.490000 10.320000 17.420000 0 255 0
13.523300 10.880000 16.150000 0 255 0
15.070000 11.240000 19.889999 0 255 0
13.580000 10.660000 18.340000 0 255 0
14.370000 10.030000 18.840000 0 255 0
14.383300 9.483300 2.415600 0 255 255
14.632500 10.290000 2.650000 0 255 0
14.183300 10.136700 18.363300 0 255 0
14.730000 10.600000 2.680000 255 0 0
13.560000 10.260000 19.780001 0 255 0
14.730000 10.810000 6.510000 255 0 0
14.905000 11.290000 21.775000 0 255 0
14.820000 10.780000 3.905000 255 0 0
14.838000 11.032000 19.712000 0 255 0
14.150000 11.200000 18.309999 0 255 0
14.138900 11.131700 15.207200 0 255 0
13.440000 10.750000 17.209999 0 255 0
14.098000 10.230000 18.205999 0 255 0
14.250000 10.440000 10.205000 0 255 0
14.230000 10.367500 19.674999 0 255 0
13.590000 10.266700 8.413300 0 255 0
14.632500 11.540000 18.459999 0 255 0
14.440000 11.035000 20.559999 0 255 0
14.630000 10.860000 20.889999 0 255 0
14.631400 10.978600 14.420000 0 255 0
14.770000 10.440000 17.389999 0 255 0
14.780000 10.530000 10.900000 255 0 0
14.800000 9.460000 2.600000 0 255 255
14.893800 10.130000 10.260600 0 255 0
14.886700 10.586700 17.473301 0 255 0
14.887800 10.637800 14.210000 0 255 0
14.544300 9.390000 13.777100 0 255 0
15.355000 10.028300 14.960000 0 255 0
15.000000 10.710000 19.360001 0 255 0
14.370000 10.890000 18.120001 0 255 0
14.105000 9.680000 18.108299 0 255 0
14.240000 9.838000 18.812000 0 255 0
14.435000 10.871700 13.503300 0 255 0
14.440000 11.180000 19.855000 0 255 0
15.730000 10.510000 14.770000 0 255 0
14.510000 10.790000 4.930000 255 0 0
14.480000 10.823300 1.770000 0 255 0
14.810000 9.530000 22.770000 0 255 0
14.850000 11.480000 1.990000 0 255 255
14.840000 10.825000 24.190001 0 255 0
14.860000 11.010000 21.700001 0 255 0
15.284000 9.730000 15.050000 0 255 0
14.640000 10.740000 16.405001 255 0 0
14.242200 9.484400 16.020000 0 255 0
14.145000 10.685000 17.094999 0 255 0
14.238300 10.035000 18.318300 0 255 0
15.246000 9.876000 20.160000 0 255 0
15.390000 10.120000 14.180000 0 255 0
15.380000 10.045000 20.645000 0 255 0
14.620000 10.823300 20.846701 0 255 0
14.580000 9.565000 18.190001 0 255 0
14.590000 9.480000 24.730000 0 255 0
14.040000 10.350000 13.950000 0 255 0
14.827500 10.490000 6.360000 255 0 0
14.835000 10.525000 9.590000 255 0 0
14.760000 9.940000 1.780000 0 255 0
14.735000 9.480000 23.822500 0 255 0
14.790000 9.660000 2.155000 0 255 255
13.940000 10.178000 18.445999 0 255 0
13.930000 10.060000 11.690000 0 255 0
14.145000 10.615000 22.455000 0 255 0
14.044400 10.583300 16.209999 0 255 0
15.160000 10.190000 20.520000 0 255 0
14.340000 11.000000 17.980000 0 255 0
14.200000 11.080000 17.809999 0 255 0
14.390000 9.750000 26.650000 0 255 0
15.310000 10.590000 17.830000 0 255 0
13.520000 10.390000 23.420000 0 255 0
14.880000 11.120000 21.830000 0 255 0
14.090000 9.635000 20.056700 0 255 0
14.770000 11.320000 14.260000 0 255 0
14.770000 10.330000 20.760000 0 255 0
14.103300 10.510000 7.956700 0 255 0
14.575000 11.085000 19.760000 0 255 0
14.600000 11.120000 16.730000 0 255 0
14.580000 11.160000 13.450000 0 255 0
13.542000 10.726000 15.664000 0 255 0
14.990000 11.210000 18.780001 0 255 0
14.980000 11.160000 21.799999 0 255 0
14.810000 9.650000 19.959999 0 255 0
14.320000 10.800000 16.330000 0 255 0
15.220000 10.170000 20.620001 0 255 0
15.050000 11.090000 19.680000 0 255 0
15.260000 10.370000 20.010000 0 255 0
14.406000 9.888000 17.709999 0 255 0
15.330000 10.665000 18.805000 0 255 0
15.050000 11.120000 19.340000 0 255 0
14.805000 10.265000 21.230000 0 255 0
14.430000 10.660000 20.160000 0 255 0
15.310000 11.050000 14.120000 0 255 0
14.483300 10.433300 18.316700 255 0 0
15.037500 9.982500 21.070000 0 255 0
14.420000 11.220000 23.620001 0 255 0
14.420000 10.890000 13.810000 0 255 0
15.580000 10.550000 16.610001 0 255 0
15.200000 9.717500 10.407500 0 255 0
15.190000 9.930000 22.250000 0 255 0
15.306700 11.376700 2.216700 0 255 255
14.850000 9.520000 21.879999 0 255 0
14.826700 9.836700 2.263300 0 255 0
13.580000 10.460000 23.340000 0 255 0
13.588300 10.278300 10.718300 0 255 0
14.756700 10.070000 10.153300 0 255 0
14.746700 10.190000 16.469999 0 255 0
14.730000 10.380000 3.400000 255 0 0
14.270000 10.940000 18.139999 0 255 0
15.600000 10.380000 15.125000 0 255 0
13.950000 10.880000 22.110001 0 255 0
15.240000 10.690000 16.600000 0 255 0
14.200000 10.050000 18.270000 0 255 0
15.388000 9.728000 14.968000 0 255 0
15.120000 10.550000 15.240000 0 255 0
15.170000 10.580000 18.370001 0 255 0
15.183300 10.640000 15.123300 0 255 0
14.730000 10.775000 7.265000 255 0 0
14.720000 10.740000 4.130000 255 0 0
14.720000 10.430000 10.840000 255 0 0
14.740000 10.470000 13.990000 255 0 0
14.460000 9.970000 21.650000 0 255 0
14.230000 9.960000 27.080000 0 255 0
14.440000 9.764000 2.454000 0 255 255
14.240000 9.930000 18.400000 0 255 0
14.560000 11.410000 18.440001 0 255 0
15.383300 10.663300 18.766701 0 255 0
14.090000 10.333300 20.320000 0 255 0
14.960000 10.190000 15.400000 0 255 0
14.730000 10.570000 2.630000 255 0 0
14.570000 10.070000 18.709999 0 255 0
14.600000 10.335000 2.795000 0 255 0
13.636500 10.174700 8.261800 0 255 0
15.080000 9.580000 22.150000 0 255 0
15.086700 9.533300 25.309999 0 255 0
14.500000 10.430000 26.290001 0 255 0
14.470000 10.330000 20.030001 255 0 0
14.080000 10.010000 18.440001 0 255 0
14.100000 11.145000 18.410000 0 255 0
14.510000 10.400000 23.290001 255 0 0
14.477500 10.431300 20.157499 255 0 0
14.510000 10.300000 16.990000 0 255 0
15.340000 9.823300 15.180000 0 255 0
13.650000 10.913300 16.116699 0 255 0
14.139400 9.930600 13.763100 0 255 0
14.487700 11.183800 13.364600 0 255 0
14.270000 10.030000 13.840000 0 255 0
13.500000 10.500000 18.250000 0 255 0
13.494000 10.386000 11.760000 0 255 0
14.480000 9.370000 23.610001 0 255 0
14.480000 9.530000 26.530001 0 255 0
13.482700 10.484500 15.306400 0 255 0
13.645000 10.035000 21.575001 0 255 0
13.640000 9.960000 18.420000 0 255 0
15.100000 11.260000 2.360000 0 255 255
14.450000 11.115000 16.575001 0 255 0
14.450000 10.340000 21.230000 255 0 0
14.230000 10.260000 18.260000 0 255 0
14.440000 10.370000 20.600000 255 0 0
14.457500 10.270000 15.672500 0 255 0
13.694000 10.325000 15.963000 0 255 0
14.710000 10.160000 19.600000 0 255 0
14.675000 10.385000 6.570000 0 255 0
14.680000 10.025000 16.549999 0 255 0
15.540000 10.377500 15.112500 0 255 0
14.670000 10.360000 14.940000 0 255 0
14.685000 10.530000 5.965000 255 0 0
14.440000 10.375000 18.094999 255 0 0
14.445000 10.440000 21.350000 255 0 0
14.420000 10.280000 24.629999 255 0 0
14.183300 11.080000 25.746700 0 255 0
14.485000 10.875000 23.514999 0 255 0
14.677500 10.815000 3.605000 255 0 0
14.820000 10.920000 19.830000 0 255 0
14.490000 9.420000 18.190001 0 255 0
14.930000 10.100000 15.890000 0 255 0
15.426700 10.233300 15.113300 0 255 0
14.535000 10.480000 16.357500 255 0 0
14.530000 10.450000 13.870000 255 0 0
14.793000 9.833000 10.308300 0 255 0
15.097800 9.986700 10.163300 0 255 0
14.485000 10.880000 13.475000 0 255 0
14.230000 10.280000 18.207500 0 255 0
14.980000 9.500000 24.309999 0 255 0
14.370000 10.310000 24.270000 0 255 0
14.942500 9.535000 17.452499 0 255 0
15.030000 11.280000 1.980000 0 255 255
14.710000 11.125000 18.445000 0 255 0
15.198000 10.640000 14.266000 0 255 0
14.680000 11.000000 20.660000 0 255 0
14.720000 9.900000 16.400000 0 255 0
13.994000 10.218000 10.072000 0 255 0
14.680000 10.720000 13.890000 255 0 0
14.700000 10.770000 10.670000 255 0 0
14.690000 10.420000 20.260000 0 255 0
14.245000 9.730000 18.895000 0 255 0
14.710000 9.830000 21.299999 0 255 0
15.040000 9.682500 17.372499 0 255 0
14.320000 10.040000 26.639999 0 255 0
13.880000 10.390000 22.650000 0 255 0
13.870000 10.430000 8.410000 0 255 0
14.737100 9.582900 20.994301 0 255 0
14.690000 10.775000 10.695000 255 0 0
14.680000 10.430000 20.219999 255 0 0
15.230000 10.640000 18.440001 0 255 0
15.240000 10.600000 15.190000 0 255 0
15.445000 10.735000 15.120000 0 255 0
15.450000 10.780000 18.360001 0 255 0
15.340000 11.040000 19.170000 0 255 0
15.060000 9.920000 15.330000 0 255 0
15.020000 10.660000 24.920000 0 255 0
14.935000 11.475000 22.020000 0 255 0
14.250000 10.770000 17.510000 0 255 0
14.850000 11.250000 17.290001 0 255 0
14.370000 9.510000 17.920000 0 255 0
14.310000 10.520000 14.190000 0 255 0
14.440000 10.860000 14.970000 0 255 0
15.296300 10.726300 14.218800 0 255 0
14.670000 10.850000 20.719999 0 255 0
14.690000 10.890000 17.570000 0 255 0
14.784400 10.482200 5.063300 255 0 0
15.520000 10.530000 14.920000 0 255 0
13.890000 11.320000 22.730000 0 255 0
13.880000 11.080000 25.990000 0 255 0
14.740000 10.870000 2.360000 0 255 0
14.400000 9.800000 21.750000 0 255 0
14.630000 10.770000 14.770000 255 0 0
14.625000 10.736300 11.606300 255 0 0
14.750000 11.350000 26.450001 0 255 0
14.320000 9.920000 19.110001 0 255 0
14.330000 9.495000 16.295000 0 255 0
15.600000 10.660000 17.750000 0 255 0
15.590000 10.725000 14.595000 0 255 0
14.940000 10.270000 20.330000 0 255 0
15.350000 10.370000 24.680000 0 255 0
14.380000 10.390000 24.355000 255 0 0
15.540000 10.573300 17.750000 0 255 0
14.635000 10.772200 7.106100 255 0 0
14.628800 10.735300 3.861800 255 0 0
14.620000 10.680000 13.630000 255 0 0
14.640000 10.430000 22.990000 0 255 0
14.625000 10.625000 10.355000 255 0 0
14.790000 10.400000 5.020000 255 0 0
14.840000 10.470000 17.559999 0 255 0
14.700000 10.930000 19.610001 0 255 0
15.385000 10.550000 17.700001 0 255 0
14.410000 10.210000 21.980000 0 255 0
14.340000 11.424300 15.208600 0 255 0
14.705000 10.010000 19.850000 0 255 0
13.970000 10.590000 10.290000 0 255 0
14.220000 11.270000 18.320000 0 255 0
14.247800 11.223300 15.062200 0 255 0
14.441300 10.588800 17.860001 255 0 0
14.187500 9.980000 18.907499 0 255 0
14.683300 11.123300 21.856701 0 255 0
14.396700 10.450000 18.323299 255 0 0
14.535000 10.760000 14.080000 0 255 0
14.560000 10.750000 10.900000 255 0 0
14.556100 10.629700 4.561000 255 0 0
14.547800 10.672600 7.753500 255 0 0
14.336000 10.472000 7.958000 0 255 0
14.485000 9.835000 26.490000 0 255 0
14.487500 9.730000 20.002501 0 255 0
14.485000 9.635000 13.845000 0 255 0
15.190800 9.983800 15.212300 0 255 0
15.434300 10.734300 18.757099 0 255 0
14.137500 9.627500 18.049999 0 255 0
14.640000 10.980000 20.889999 0 255 0
13.795000 11.170000 26.014999 0 255 0
14.980000 10.265000 20.945000 0 255 0
14.985000 9.790000 1.940000 0 255 255
14.535000 11.340000 18.299999 0 255 0
14.542000 11.286000 15.056000 0 255 0
14.525000 11.085000 2.010000 0 255 0
14.610000 11.660000 18.370001 0 255 0
14.696000 10.392000 2.750000 255 0 0
14.910000 10.550000 3.050000 255 0 0
14.834000 10.520000 7.202000 0 255 0
14.830000 10.477900 3.965000 255 0 0
13.994300 10.571400 10.258600 0 255 0
13.986400 9.638200 10.219100 0 255 0
13.640000 10.160000 14.065000 0 255 0
14.200000 10.360000 22.959999 0 255 0
14.175000 10.435000 19.719999 0 255 0
14.170000 10.495000 16.465000 0 255 0
14.232500 9.465000 16.102501 0 255 0
14.590000 10.835000 17.160000 0 255 0
15.140000 9.725000 10.455000 0 255 0
15.135000 9.880000 20.004999 0 255 0
15.378300 10.173300 14.308300 0 255 0
15.393300 10.086700 20.600000 0 255 0
14.085500 10.284500 19.768200 0 255 0
13.590000 10.510000 23.440001 0 255 0
13.680000 10.640000 23.500000 0 255 0
14.091800 9.484500 18.203600 0 255 0
14.440000 9.625000 15.760000 0 255 0
14.910000 10.560000 16.370001 0 255 0
14.890000 10.740000 19.600000 0 255 0
14.303300 10.763300 16.466700 0 255 0
14.295000 10.280000 10.510000 0 255 0
14.791500 9.973800 16.453100 0 255 0
14.510000 10.350000 22.070000 255 0 0
14.493300 10.213300 15.690000 0 255 0
13.436000 10.692000 15.651000 0 255 0
13.650000 10.440000 11.475000 0 255 0
13.645000 10.331700 17.953300 0 255 0
14.582500 11.187500 20.605000 0 255 0
14.889600 9.735000 10.308600 0 255 0
14.830000 9.560000 15.300000 0 255 0
14.630000 9.990000 26.450001 0 255 0
14.240000 9.640000 18.299999 0 255 0
14.830000 10.040000 26.440001 0 255 0
14.880000 9.460000 24.350000 0 255 0
14.885000 9.585000 2.555000 0 255 255
14.760000 10.510000 7.950000 255 0 0
14.726700 10.430000 1.663300 0 255 0
14.734600 10.478300 4.812500 255 0 0
14.843300 11.290000 20.451700 0 255 0
15.138300 9.725600 10.312800 0 255 0
14.170000 10.830000 10.170000 0 255 0
14.390000 10.590000 16.670000 255 0 0
14.410000 10.480000 22.940001 255 0 0
14.390000 10.540000 19.799999 255 0 0
14.410000 10.620000 13.520000 255 0 0
14.220000 11.220000 18.969999 0 255 0
14.890000 9.535000 17.450001 0 255 0
13.996200 10.178800 18.408800 0 255 0
14.050000 10.250000 18.719999 0 255 0
14.332900 10.875700 13.500000 0 255 0
14.347500 10.590000 19.660000 255 0 0
14.625000 10.925000 20.975000 0 255 0
15.085000 10.780000 14.360000 0 255 0
14.400000 10.510000 1.770000 0 255 0
14.390000 10.687500 17.645000 0 255 0
15.650000 10.210000 14.680000 0 255 0
14.150000 9.530000 19.875000 0 255 0
15.050000 9.840000 21.260000 0 255 0
14.383300 11.635000 15.166700 0 255 0
15.330000 10.675000 14.410000 0 255 0
15.284400 9.682200 17.450001 0 255 0
15.170000 10.710000 14.410000 0 255 0
15.186700 10.670000 17.559999 0 255 0
14.450000 10.130000 2.200000 0 255 0
14.444300 10.578600 18.565701 255 0 0
14.143300 10.426700 18.466700 0 255 0
14.810000 11.020000 1.780000 0 255 0
14.280000 10.190000 18.590000 0 255 0
14.260000 10.760000 26.549999 0 255 0
13.980000 10.670000 11.280000 0 255 0
13.982900 10.728600 8.109300 0 255 0
14.150000 9.780000 26.700001 0 255 0
14.120000 10.360000 14.070000 0 255 0
15.280000 9.950000 22.920000 0 255 0
14.670000 10.810000 6.600000 255 0 0
15.330000 10.890000 18.870001 0 255 0
14.340000 10.071700 18.361700 0 255 0
14.450000 10.390000 24.709999 255 0 0
14.430000 10.083300 18.563299 0 255 0
14.855000 9.595000 19.500000 0 255 0
14.820000 9.750000 20.059999 0 255 0
14.570000 10.850000 14.950000 0 255 0
14.330000 9.930000 20.209999 0 255 0
14.330000 10.020000 26.700001 0 255 0
14.410000 10.340000 14.030000 0 255 0
14.100000 10.670000 15.703300 0 255 0
15.060000 11.060000 19.150000 0 255 0
15.260000 10.400000 20.309999 0 255 0
14.230000 10.470000 16.313299 0 255 0
14.160000 10.590000 22.410000 0 255 0
14.990000 9.920000 26.590000 0 255 0
15.010000 10.040000 20.110001 0 255 0
15.282000 11.082000 1.966000 0 255 255
14.985000 10.675000 18.715000 0 255 0
14.145000 9.715000 18.209999 0 255 0
14.540000 10.150000 26.650000 0 255 0
14.560000 10.100000 23.500000 0 255 0
14.070000 10.780000 16.540001 0 255 0
14.500000 10.785000 13.565000 0 255 0
14.510000 10.690000 7.080000 255 0 0
14.743300 11.276700 20.549999 0 255 0
14.455000 10.425000 16.355000 255 0 0
14.840000 10.450000 6.010000 255 0 0
14.330000 10.090000 2.290000 0 255 0
15.270000 10.370000 1.860000 0 255 255
15.380000 10.730000 16.809999 0 255 0
13.850000 9.977800 2.346700 0 255 255
13.587500 10.825000 17.209999 0 255 0
14.230000 11.650000 15.580000 0 255 0
15.295000 9.745000 10.260000 0 255 0
14.880000 10.270000 26.760000 0 255 0
14.900000 10.190000 20.240000 0 255 0
14.170000 10.385000 19.740000 0 255 0
14.544300 11.118600 14.157100 0 255 0
14.637500 11.332500 18.302500 0 255 0
15.180000 11.310000 19.830000 0 255 0
15.385000 10.360000 17.820000 0 255 0
15.390000 10.420000 14.330000 0 255 0
14.488300 9.883300 17.808300 0 255 0
14.980000 10.140000 14.340000 0 255 0
14.675000 9.935000 21.570000 0 255 0
15.330000 10.145000 15.757500 0 255 0
14.295000 9.365000 19.830000 0 255 0
14.400000 9.630000 13.908000 0 255 0
14.910000 10.280000 21.309999 0 255 0
15.445000 11.125000 18.389999 0 255 0
15.190000 10.610000 18.480000 0 255 0
15.185000 10.282500 15.075000 0 255 0
15.460000 10.810000 16.600000 0 255 0
14.232500 9.630000 19.965000 0 255 0
13.660000 10.320000 10.800000 0 255 0
14.138100 11.433100 13.555600 0 255 0
14.830000 10.570000 11.520000 255 0 0
14.820000 10.640000 14.760000 0 255 0
14.390000 10.520000 23.889999 255 0 0
14.410000 10.620000 17.400000 255 0 0
14.695000 9.930000 22.580000 0 255 0
14.946700 11.243300 19.959999 0 255 0
13.660000 9.760000 19.840000 0 255 0
15.426700 10.030000 20.653299 0 255 0
14.140000 10.285000 19.820000 0 255 0
15.450000 10.090000 20.450001 0 255 0
15.427500 10.020000 17.302500 0 255 0
13.580000 10.375000 17.990000 0 255 0
14.383200 11.482600 15.107900 0 255 0
14.798000 10.882000 14.242000 0 255 0
14.100000 10.730000 10.620000 0 255 0
13.736700 11.024400 8.215600 0 255 0
13.785000 9.565000 22.465000 0 255 0
14.142000 9.976000 18.402000 0 255 0
15.293300 10.080000 15.760000 0 255 0
14.550000 10.430000 20.459999 255 0 0
14.540000 10.270000 10.700000 0 255 0
14.520000 10.400000 17.209999 255 0 0
14.495000 10.385000 16.955000 255 0 0
14.500000 9.845000 23.280001 0 255 0
14.480000 9.760000 26.504999 0 255 0
14.480000 9.685700 20.001400 0 255 0
14.480000 9.580000 13.855700 0 255 0
14.690000 10.510000 11.920000 255 0 0
14.688900 10.488400 2.461600 0 255 0
14.696700 10.442200 5.613300 255 0 0
13.690000 11.040000 8.106700 0 255 0
14.880000 11.110000 18.680000 0 255 0
14.855000 9.445000 15.255000 0 255 0
14.080000 10.060000 26.940001 0 255 0
14.320000 10.730000 23.480000 0 255 0
14.640000 10.330000 1.700000 0 255 0
14.270000 10.770000 24.480000 0 255 0
14.495000 10.126700 16.508301 0 255 0
14.490000 10.230000 23.010000 0 255 0
15.155000 10.645000 18.405001 0 255 0
15.484000 9.830000 14.960000 0 255 0
14.380000 10.030000 13.790000 0 255 0
13.445600 10.284400 12.804400 0 255 0
14.530000 11.610000 15.200000 0 255 0
14.590000 10.000000 18.830000 0 255 0
14.755000 11.335000 14.390000 0 255 0
14.296300 9.527500 19.966299 0 255 0
14.370000 9.760000 23.309999 0 255 0
14.410000 9.830000 20.059999 0 255 0
15.045000 11.235000 24.775000 0 255 0
14.645000 10.810000 6.960000 255 0 0
14.440000 10.860000 26.049999 0 255 0
14.450000 10.985700 19.757099 0 255 0
14.700000 10.475000 23.475000 0 255 0
14.693300 10.790000 17.110001 0 255 0
14.141400 11.185700 15.311400 0 255 0
14.523300 10.216700 2.280000 0 255 0
14.520000 10.530000 21.280001 255 0 0
14.540000 10.483300 18.106701 255 0 0
14.533300 10.434400 15.310000 255 0 0
15.293300 9.883300 15.203300 0 255 0
15.296700 10.826700 14.310000 0 255 0
13.986700 10.536700 11.400000 0 255 0
14.342500 10.672500 10.600000 0 255 0
14.800000 10.390000 3.410000 255 0 0
14.790000 10.585000 16.465000 0 255 0
14.610000 10.490000 3.400000 255 0 0
14.593300 10.236700 19.316700 0 255 0
14.595000 10.437500 6.655000 255 0 0
14.690000 10.510000 11.800000 255 0 0
14.693300 10.483300 2.151100 0 255 0
14.693700 10.432500 5.307500 255 0 0
15.030000 11.370000 21.900000 0 255 0
13.983300 10.520000 8.096700 0 255 0
14.740000 9.987500 17.852501 0 255 0
14.040000 11.260000 13.760000 0 255 0
13.940000 10.630000 7.990000 0 255 0
13.950000 10.530000 26.959999 0 255 0
13.640000 11.280000 17.903999 0 255 0
14.720000 9.820000 22.549999 0 255 0
15.129100 9.874500 10.311800 0 255 0
15.320000 10.940000 25.230000 0 255 0
15.550000 10.590000 18.860001 0 255 0
14.646700 10.763300 9.766700 255 0 0
14.626700 10.746700 6.603300 255 0 0
15.320000 10.240000 14.420000 0 255 0
15.335000 10.290000 17.809999 0 255 0
15.453300 9.833300 15.070000 0 255 0
14.510000 10.690000 2.970000 255 0 0
13.547500 10.280000 15.120000 0 255 0
14.470000 9.980000 20.190001 0 255 0
13.545000 10.345000 10.465000 0 255 0
14.180000 10.410000 20.299999 0 255 0
14.040000 10.850000 17.629999 0 255 0
15.293600 10.281800 14.151800 0 255 0
14.240000 10.320000 20.275000 0 255 0
13.640000 9.940000 21.559999 0 255 0
14.736700 9.666700 18.006701 0 255 0
14.680000 9.930000 24.150000 0 255 0
14.500000 11.115000 13.500000 0 255 0
15.000000 10.070000 15.290000 0 255 0
14.245000 10.475000 7.872500 0 255 0
15.020000 11.000000 19.680000 0 255 0
13.929600 10.330800 10.553800 0 255 0
14.285800 11.123300 13.409200 0 255 0
15.090000 10.260000 25.600000 0 255 0
15.095800 9.533300 10.405800 0 255 0
14.441100 11.077400 13.412100 0 255 0
14.150000 10.930000 26.469999 0 255 0
14.700000 10.810000 1.920000 0 255 0
14.620000 9.810000 10.130000 0 255 0
14.130000 9.610000 26.719999 0 255 0
14.990000 10.772500 18.317499 0 255 0
15.440000 10.720000 15.140000 0 255 0
14.680000 9.990000 16.260000 0 255 0
14.245000 9.680000 13.895000 0 255 0
14.135000 11.140000 25.760000 0 255 0
15.330000 9.980000 17.500000 0 255 0
15.330000 9.950000 14.360000 0 255 0
14.710000 11.120000 17.639999 0 255 0
13.900000 11.450000 19.030001 0 255 0
15.370000 10.030000 20.049999 0 255 0
15.170000 10.400000 16.459999 0 255 0
14.890000 9.500000 15.450000 0 255 0
15.360000 10.550000 2.190000 0 255 255
15.320000 10.380000 19.889999 0 255 0
15.340000 10.310000 16.545000 0 255 0
14.330000 9.380000 23.365000 0 255 0
15.360000 10.980000 18.730000 0 255 0
14.145000 11.337500 18.112499 0 255 0
15.300000 9.910000 15.610000 0 255 0
14.880000 11.050000 26.620001 0 255 0
15.480000 10.560000 14.810000 0 255 0
14.740000 10.980000 26.520000 0 255 0
14.780000 10.740000 26.700001 0 255 0
15.210000 10.030000 20.299999 0 255 0
15.220000 9.980000 20.330000 0 255 0
15.243700 9.730000 17.312500 0 255 0
13.970000 10.425000 13.980000 0 255 0
14.433300 9.724400 13.864400 0 255 0
15.730000 10.300000 2.290000 0 255 255
15.250000 9.845000 17.205000 0 255 0
13.546700 10.073300 21.500000 0 255 0
14.305000 11.175000 19.920000 0 255 0
15.000000 10.650000 16.020000 0 255 0
14.970000 10.590000 19.260000 0 255 0
13.582900 10.881400 15.815700 0 255 0
14.745000 10.750000 8.420000 255 0 0
14.430000 10.410000 26.110001 255 0 0
14.420000 10.070000 16.430000 0 255 0
14.973300 11.363300 2.460000 0 255 255
15.005000 11.135000 18.754999 0 255 0
14.380000 9.510000 16.170000 0 255 0
14.700000 9.537500 10.312500 0 255 0
14.250000 11.285000 13.590000 0 255 0
13.881100 10.641100 8.063700 0 255 0
13.740000 10.000000 10.650000 0 255 0
13.740000 10.050000 13.890000 0 255 0
14.691000 11.182000 14.965000 0 255 0
14.683300 11.130000 18.206699 0 255 0
14.700000 10.860000 18.745001 0 255 0
13.992500 10.040000 18.367500 0 255 0
14.580000 10.290000 16.510000 0 255 0
14.600000 10.420000 6.230000 255 0 0
14.595000 10.230000 19.660000 0 255 0
14.910000 11.320000 22.010000 0 255 0
14.940000 9.490000 22.020000 0 255 0
14.240000 10.500000 16.400000 0 255 0
14.194000 11.032700 13.460000 0 255 0
15.281200 10.785000 14.261300 0 255 0
14.945000 10.125000 15.155000 0 255 0
14.510000 10.400000 19.730000 255 0 0
14.502500 10.435000 16.557501 255 0 0
14.540000 10.480000 25.969999 0 255 0
14.540000 10.388000 20.202000 255 0 0
14.540000 10.346700 16.966700 0 255 0
14.840000 9.525000 16.625000 0 255 0
14.470000 11.500000 2.060000 0 255 255
14.530000 10.177100 17.558599 0 255 0
14.540000 10.860000 20.049999 0 255 0
14.880000 10.990000 20.959999 0 255 0
15.346700 10.033300 20.856701 0 255 0
14.720000 9.870000 21.440001 0 255 0
14.826000 9.532000 2.218000 0 255 255
13.450000 10.340000 18.049999 0 255 0
14.735000 11.335000 20.775000 0 255 0
14.740000 11.210000 14.460000 0 255 0
13.980000 10.790000 15.820000 0 255 0
15.040000 10.382200 14.252200 0 255 0
15.253300 10.373300 15.220000 0 255 0
15.060000 10.480000 17.629999 0 255 0
13.510000 10.040000 18.930000 0 255 0
13.441700 10.531700 18.253300 0 255 0
14.750000 9.835000 22.615000 0 255 0
14.480000 9.650000 23.260000 0 255 0
13.760000 11.370000 17.990000 0 255 0
14.440000 10.970000 17.879999 0 255 0
14.450000 9.825000 21.805000 0 255 0
14.995000 9.850000 1.960000 0 255 255
14.145000 10.120000 18.504999 0 255 0
14.387800 10.993300 17.654400 0 255 0
14.735000 9.936700 10.205000 0 255 0
14.687500 11.728700 3.126300 0 255 255
14.582200 10.530600 1.765000 0 255 0
14.600000 10.500000 5.000000 255 0 0
14.590000 10.270000 17.680000 0 255 0
14.593300 10.450000 8.266700 0 255 0
14.692700 10.478000 6.308700 255 0 0
14.670000 10.740000 3.020000 255 0 0
14.688000 10.282000 19.354000 0 255 0
14.691000 10.438000 9.557000 255 0 0
14.744400 10.785600 6.461100 255 0 0
14.750000 10.520000 16.350000 255 0 0
14.740000 10.480000 13.220000 255 0 0
14.720000 10.410000 10.040000 255 0 0
14.394000 10.876000 15.002000 0 255 0
15.287500 10.342500 17.670000 0 255 0
14.410000 10.620000 1.770000 0 255 0
14.392500 10.777500 17.652500 0 255 0
14.685000 10.880000 20.855000 0 255 0
14.880000 10.930000 17.070000 0 255 0
14.680000 10.450000 2.450000 0 255 0
14.610000 10.060000 22.070000 0 255 0
14.601300 10.385000 2.708800 0 255 0
14.690000 10.523300 9.611700 255 0 0
14.696000 10.444000 3.106000 255 0 0
14.930000 10.236700 16.410000 0 255 0
15.085000 11.070000 21.705000 0 255 0
14.670000 10.775000 11.005000 255 0 0
14.705000 10.745000 14.160000 0 255 0
14.770000 11.120000 21.030001 0 255 0
14.790000 10.830000 14.455000 0 255 0
13.785000 10.075000 14.105000 0 255 0
14.481400 11.724300 15.212900 0 255 0
14.840000 9.942500 16.463800 0 255 0
14.145000 10.525000 16.427500 0 255 0
14.300000 9.850000 25.570000 0 255 0
14.293300 9.733300 19.053301 0 255 0
15.110000 10.520000 23.549999 0 255 0
15.055000 9.780000 1.955000 0 255 255
14.795000 10.380000 1.950000 0 255 0
14.745000 10.525000 9.880000 255 0 0
14.741700 10.467500 6.506700 255 0 0
14.741100 10.444400 3.366700 255 0 0
14.737300 10.476400 6.760900 255 0 0
14.746700 10.235000 15.750000 0 255 0
14.730000 10.540000 10.023300 255 0 0
14.735000 10.440000 3.500000 255 0 0
14.700000 10.520000 11.000000 255 0 0
14.685000 10.432500 4.512500 255 0 0
14.036700 9.775000 2.376700 0 255 255
14.040000 10.010000 18.270000 0 255 0
14.689400 10.782400 2.410600 0 255 0
14.670000 10.290000 22.010000 0 255 0
14.692000 10.471000 8.565000 255 0 0
14.670000 10.740000 5.550000 255 0 0
14.686700 10.426700 11.723300 255 0 0
14.620000 10.700000 2.180000 0 255 0
14.641700 10.478300 15.213300 255 0 0
14.633200 10.522300 5.565900 255 0 0
14.639000 10.439000 12.056000 255 0 0
15.130000 10.500000 16.209999 0 255 0
13.706700 10.196700 14.153300 0 255 0
15.200000 10.390000 15.770000 0 255 0
15.190000 10.470000 19.790001 0 255 0
15.175000 10.515000 16.665001 0 255 0
14.620000 10.010000 19.400000 0 255 0
14.645700 10.180700 16.363600 0 255 0
14.490000 10.930000 26.969999 0 255 0
14.136000 10.228000 18.305000 0 255 0
14.110000 10.350000 24.990000 0 255 0
14.070000 10.240000 18.719999 0 255 0
14.840000 9.932500 16.497499 0 255 0
14.833300 9.763300 19.856701 0 255 0
14.840000 11.150000 14.430000 0 255 0
14.845000 11.027500 20.924999 0 255 0
15.180000 10.523300 23.616699 0 255 0
13.843300 9.830000 19.366699 0 255 0
15.430000 11.070000 18.510000 0 255 0
14.150000 9.410000 19.820000 0 255 0
14.470000 9.560000 20.940001 0 255 0
14.545000 10.885000 19.615000 0 255 0
15.310000 11.190000 19.410000 0 255 0
14.100000 9.483300 18.070000 0 255 0
13.693300 9.763300 19.766701 0 255 0
14.510000 9.800000 26.709999 0 255 0
15.260000 10.940000 18.790001 0 255 0
14.452000 10.130000 2.014000 0 255 0
14.450000 10.578000 18.364000 255 0 0
13.746700 9.926700 18.453300 0 255 0
14.045000 9.460000 25.969999 0 255 0
13.550000 10.190000 14.230000 0 255 0
14.091700 10.426700 17.546700 0 255 0
14.360000 9.410000 15.840000 0 255 0
14.770000 10.870000 21.730000 0 255 0
14.710000 10.380000 5.570000 255 0 0
14.710000 10.040000 15.140000 0 255 0
14.990000 10.560000 18.389999 0 255 0
15.147500 10.232500 14.167500 0 255 0
13.373300 10.326700 17.813299 0 255 0
14.585000 10.212500 1.807500 0 255 0
15.000000 10.980000 19.250000 0 255 0
13.644000 10.033000 10.509000 0 255 0
14.830000 10.500000 9.360000 255 0 0
14.837500 10.367500 15.662500 0 255 0
14.600000 10.790000 20.270000 0 255 0
15.470000 10.090000 17.320000 0 255 0
13.550000 10.610000 15.755000 0 255 0
13.740000 10.110000 10.770000 0 255 0
15.482000 10.168000 19.874001 0 255 0
14.790000 9.880000 21.049999 0 255 0
15.320000 10.930000 18.780001 0 255 0
14.385000 9.895000 16.605000 0 255 0
14.970000 10.770000 22.330000 0 255 0
15.005000 10.830000 19.270000 0 255 0
14.455000 10.190000 26.700001 0 255 0
14.385000 11.577500 15.212500 0 255 0
14.244000 10.571000 12.623000 0 255 0
14.196700 11.520800 15.306700 0 255 0
15.580000 10.230000 20.705000 0 255 0
15.190000 10.380000 14.900000 0 255 0
15.255000 10.935000 16.610001 0 255 0
14.400000 11.400000 13.460000 0 255 0
14.240000 9.720000 19.049999 0 255 0
14.260000 10.600000 16.980000 0 255 0
14.710000 10.500000 15.370000 255 0 0
14.682900 10.777100 9.200000 255 0 0
14.692500 10.722500 12.357500 255 0 0
14.150000 10.422500 10.405000 0 255 0
14.538000 9.934000 21.705999 0 255 0
13.837500 11.282500 17.902500 0 255 0
14.760000 11.160000 17.020000 0 255 0
14.552000 10.722000 6.918000 255 0 0
14.557500 10.665000 3.765000 255 0 0
14.940000 10.385000 15.805000 0 255 0
14.390000 9.510000 23.270000 0 255 0
14.338600 10.420000 18.102900 0 255 0
15.420000 11.000000 18.990000 0 255 0
13.690000 10.060000 15.060000 0 255 0
13.690000 10.335000 23.257500 0 255 0
13.655000 10.475000 10.710000 0 255 0
14.380000 9.420000 23.690001 0 255 0
14.396700 10.720000 18.740000 0 255 0
14.290000 10.277100 18.265699 0 255 0
14.245000 9.835000 18.895000 0 255 0
14.030000 9.935000 26.959999 0 255 0
14.470000 10.090000 18.540001 0 255 0
14.750000 11.010000 21.930000 0 255 0
14.020000 11.175000 18.100000 0 255 0
14.440000 10.390000 14.220000 0 255 0
14.448000 10.438000 17.464001 255 0 0
13.590000 10.037500 18.957500 0 255 0
14.390000 10.986700 15.166700 0 255 0
14.476000 11.082000 15.106000 0 255 0
14.442200 10.578900 17.959999 255 0 0
14.790000 9.520000 22.020000 0 255 0
14.040000 10.190000 19.770000 0 255 0
14.696700 10.780000 17.153299 0 255 0
14.690000 10.710000 20.400000 0 255 0
13.690000 11.200000 19.299999 0 255 0
14.285000 10.535000 18.655001 0 255 0
13.590000 10.060000 12.900000 0 255 0
14.300000 9.910000 15.820000 0 255 0
14.470000 11.100000 15.250000 0 255 0
14.740000 10.400000 13.760000 0 255 0
14.180000 10.380000 8.030000 0 255 0
14.610000 11.510000 2.130000 0 255 255
14.860000 9.550000 22.809999 0 255 0
14.475000 10.095000 18.650000 0 255 0
14.745000 10.775000 20.924999 0 255 0
14.933300 10.923300 20.866699 0 255 0
14.280000 10.390000 10.080000 0 255 0
14.310000 10.450000 19.790001 0 255 0
15.480000 10.100000 20.500000 0 255 0
13.510000 10.450000 23.870001 0 255 0
14.880000 10.922500 16.597500 0 255 0
14.890000 10.885000 19.750000 0 255 0
13.990000 11.350000 18.559999 0 255 0
14.210000 10.480000 7.880000 0 255 0
14.190000 10.350000 17.600000 0 255 0
14.645600 9.681700 10.206100 0 255 0
14.641200 9.578800 16.764999 0 255 0
14.650000 10.764000 10.164000 255 0 0
14.622500 10.742500 6.997500 255 0 0
14.635000 10.685000 16.465000 255 0 0
14.900000 11.250000 21.750000 0 255 0
14.730000 10.700000 14.410000 0 255 0
