1.720000 -18.190001 -4.170000 0 255 0
1.738800 -18.069700 2.159500 0 255 0
0.385500 -17.760901 -5.780900 0 255 255
1.900000 -19.209999 12.040000 0 255 0
0.210000 -18.670000 -5.900000 0 255 255
0.640000 -18.420000 -6.185000 0 255 0
0.730000 -18.770000 6.870000 0 255 0
0.994700 -17.213301 -5.396700 0 255 255
0.680000 -19.070000 -5.450000 0 255 255
1.930000 -17.559999 10.974000 0 255 0
1.547100 -18.175699 3.358600 0 255 0
0.990000 -18.816401 3.150000 0 255 0
1.524000 -18.422001 1.016000 255 0 0
1.520000 -18.600000 13.650000 0 255 0
1.541300 -18.330000 7.308700 255 0 0
1.530000 -18.370001 4.057800 255 0 0
1.520000 -18.400000 0.740000 255 0 0
1.537500 -18.365000 3.907500 255 0 0
1.549000 -18.333000 7.062000 255 0 0
0.840900 -18.315500 -5.193600 0 255 0
0.875000 -17.805000 -6.287500 0 255 0
1.100000 -18.850000 -5.510000 0 255 0
1.595000 -18.120001 -6.150000 0 255 0
1.938000 -17.823200 -5.844800 0 255 255
0.889200 -17.573099 -5.486900 0 255 0
1.620000 -18.330000 0.790000 0 255 0
1.643300 -18.216700 -5.483300 0 255 0
2.390000 -18.530001 7.720000 0 255 0
2.385700 -18.719999 -5.724300 0 255 255
1.620000 -18.260000 6.830000 0 255 0
1.620000 -18.129999 16.590000 0 255 0
1.660000 -18.010000 10.290000 0 255 0
1.637500 -18.469999 -5.440000 0 255 0
2.000000 -18.740000 17.719999 0 255 0
2.000000 -18.680000 14.450000 0 255 0
1.988000 -18.684000 13.826000 0 255 0
1.985000 -18.415001 18.760000 255 0 0
1.100000 -18.469999 -0.250000 255 0 0
1.098900 -18.412201 -3.488900 255 0 0
1.098000 -18.378000 -3.335000 255 0 0
0.320000 -18.915001 -5.660000 0 255 255
0.350000 -18.910000 -4.910000 0 255 255
2.890000 -18.580000 14.160000 0 255 0
1.160000 -18.312500 -5.485000 0 255 0
1.150800 -18.274200 -2.438300 255 0 0
1.150000 -18.320000 -5.640000 0 255 0
1.147800 -18.272200 -2.291800 255 0 0
1.150000 -18.318001 -5.380000 255 0 0
1.152400 -18.275900 -2.139800 255 0 0
1.244200 -18.227100 -0.790000 255 0 0
1.270000 -18.180000 -3.780000 255 0 0
1.288100 -18.221399 -0.641900 0 255 0
1.300000 -18.190001 -3.670000 255 0 0
1.297800 -18.018900 12.511100 0 255 0
1.290600 -18.219299 -0.540700 0 255 0
1.630000 -19.629999 9.080000 0 255 0
1.130000 -18.200001 3.690000 0 255 0
1.150000 -18.530001 10.255000 0 255 0
1.140300 -18.315800 -2.790500 255 0 0
1.380000 -18.166700 -5.450000 0 255 0
1.381800 -18.230000 -2.384100 0 255 0
1.393000 -18.257799 0.857800 255 0 0
1.420000 -18.420000 7.290000 255 0 0
1.434400 -18.366699 -2.238900 255 0 0
1.440700 -18.309299 1.009300 255 0 0
1.448800 -18.365900 -1.889100 255 0 0
1.433300 -18.423300 7.762200 255 0 0
1.433300 -18.573299 10.743300 0 255 0
1.448700 -18.307501 1.260000 255 0 0
0.535000 -17.985001 10.150000 0 255 0
1.470000 -18.480000 -5.120000 255 0 0
1.483300 -18.530001 10.863300 255 0 0
1.501000 -18.365999 1.359000 255 0 0
1.472500 -18.330000 -1.782500 255 0 0
2.110000 -18.620001 21.000000 0 255 0
2.090200 -18.127600 1.410600 0 255 0
0.570000 -18.525000 -5.005000 0 255 255
1.528900 -18.363701 1.811500 255 0 0
1.536400 -18.325001 4.967100 255 0 0
1.550000 -18.549999 11.810000 0 255 0
1.532800 -18.324100 2.011400 255 0 0
1.040000 -18.721500 3.310300 0 255 0
1.050000 -18.290001 -2.940000 255 0 0
1.039300 -18.376699 3.371300 0 255 0
1.760000 -18.430000 15.830000 255 0 0
1.747500 -18.465000 12.557500 255 0 0
1.560000 -19.240000 -5.975000 0 255 0
1.650000 -19.170000 21.340000 0 255 0
1.660000 -18.010000 -6.370000 0 255 0
1.649400 -18.080000 3.367100 0 255 0
1.730000 -18.620001 13.150000 255 0 0
1.042500 -18.125799 3.570000 0 255 0
1.633300 -17.801701 3.611700 0 255 0
1.591000 -17.535000 -6.095000 0 255 255
1.603300 -17.270000 3.710000 0 255 0
1.660000 -17.540001 -5.500000 0 255 255
1.637600 -17.172899 3.810300 0 255 0
2.190000 -19.400000 11.170000 0 255 0
1.891300 -18.815701 4.863700 0 255 0
2.040000 -19.458000 5.756000 0 255 0
1.310000 -18.520000 9.230000 0 255 0
1.300000 -18.459999 5.940000 0 255 0
1.320000 -18.530001 2.970000 255 0 0
1.338900 -18.471100 6.213300 255 0 0
1.330000 -18.549999 -3.550000 255 0 0
1.352900 -18.434299 6.352900 255 0 0
1.387100 -18.307100 3.656200 255 0 0
1.397800 -18.378901 6.911100 255 0 0
1.250000 -18.549999 0.220000 255 0 0
1.243300 -18.326700 3.313300 255 0 0
1.230000 -18.580000 3.270000 0 255 0
1.310000 -17.290001 -5.320000 0 255 255
2.251400 -18.260000 -5.675700 0 255 0
1.590000 -18.500000 14.720000 0 255 0
1.590000 -18.459999 11.565000 255 0 0
1.592000 -18.406000 8.406000 255 0 0
1.581300 -18.375000 5.250000 255 0 0
2.295700 -17.612900 2.510000 0 255 0
1.990000 -17.974001 -5.890000 0 255 255
0.730000 -18.600000 7.120000 0 255 0
0.960000 -18.150000 12.450000 0 255 0
1.000000 -18.174999 -5.840000 0 255 0
0.970000 -18.570000 20.280001 0 255 0
0.945000 -17.355000 -5.825000 0 255 255
2.100000 -18.490000 12.150000 0 255 0
0.940000 -18.639999 -5.435000 0 255 0
1.300000 -18.467100 5.160000 255 0 0
1.288000 -18.368000 11.904000 0 255 0
1.050000 -18.500000 16.980000 0 255 0
1.720000 -18.700001 -6.080000 0 255 0
1.742000 -18.422001 13.462000 255 0 0
1.741400 -18.467100 10.108600 255 0 0
1.880000 -18.490000 16.080000 255 0 0
1.446700 -18.533300 9.553300 255 0 0
1.445000 -18.375000 -6.330000 0 255 0
1.446000 -18.469999 0.162000 255 0 0
1.429300 -18.322399 -3.089300 255 0 0
1.437500 -18.672501 12.811300 0 255 0
1.500000 -18.490000 3.700000 255 0 0
1.492900 -18.414301 0.462900 255 0 0
1.493300 -18.370001 10.206700 255 0 0
1.493300 -18.338301 6.965000 255 0 0
1.740000 -18.235001 -5.730000 0 255 0
1.740000 -19.410000 21.160000 0 255 0
1.640000 -19.617500 8.153800 0 255 0
1.510000 -18.440001 3.760000 255 0 0
1.745000 -18.170000 -5.750000 0 255 0
3.025000 -18.450001 18.950001 0 255 0
1.438000 -18.476000 -0.680000 255 0 0
1.436900 -18.315701 -3.839900 255 0 0
1.440000 -18.504999 8.810000 255 0 0
1.930000 -17.962900 2.217100 0 255 0
1.792000 -18.469999 -5.432000 0 255 0
2.428300 -18.133301 -5.731700 0 255 255
1.690000 -18.639999 8.530000 0 255 0
1.710000 -18.450001 11.600000 255 0 0
1.676700 -18.510000 14.863300 255 0 0
2.285000 -19.360001 9.880000 0 255 0
2.298800 -19.415001 13.460000 0 255 0
2.627500 -18.507500 15.652500 0 255 0
1.493300 -18.240000 -4.993300 255 0 0
1.475000 -18.264999 -1.740000 255 0 0
0.520000 -18.600000 11.780000 0 255 0
2.150000 -18.790001 9.450000 0 255 0
2.160000 -17.665001 8.790000 0 255 0
1.640000 -17.676701 -5.588300 0 255 255
1.087100 -17.718599 -5.184300 0 255 0
1.820000 -18.030001 -5.430000 0 255 0
1.836700 -18.466700 16.706699 255 0 0
1.941700 -19.225800 5.662500 0 255 0
1.933300 -17.520000 16.853300 0 255 0
1.186100 -17.768600 -4.833200 0 255 0
1.220000 -18.566700 18.500000 0 255 0
1.040000 -18.186701 20.903299 0 255 0
1.193300 -17.216700 -5.473300 0 255 255
2.239400 -18.214399 9.356100 0 255 0
2.253300 -18.476700 19.256701 0 255 0
2.193300 -19.420000 9.963300 0 255 0
1.535800 -18.417900 9.861100 255 0 0
0.320000 -18.150000 3.860000 0 255 0
1.530000 -18.340000 8.590000 255 0 0
1.534300 -18.421400 2.104300 255 0 0
1.550000 -18.600000 14.750000 0 255 0
1.543600 -18.364500 5.359100 255 0 0
1.531700 -18.423300 2.155000 255 0 0
1.530000 -18.600000 14.810000 0 255 0
1.545700 -18.331400 8.461400 255 0 0
1.547300 -18.368799 5.313500 255 0 0
1.520000 -18.500000 21.120001 0 255 0
1.920000 -17.900000 -5.545000 0 255 255
1.036700 -17.270800 -5.053300 0 255 255
2.180000 -18.540001 17.330000 0 255 0
1.786700 -18.621401 3.911000 0 255 0
1.791300 -18.462500 -5.495000 0 255 0
1.810000 -18.440001 -5.690000 0 255 0
1.810000 -18.660000 10.500000 0 255 0
1.790000 -18.770000 16.799999 0 255 0
2.187100 -19.180000 10.951400 0 255 0
1.780000 -18.410000 -5.860000 0 255 0
1.775000 -18.590000 3.910000 0 255 0
0.988300 -17.220900 -5.246500 0 255 255
0.993600 -17.224300 -5.498600 0 255 255
1.586200 -18.872499 9.167500 0 255 0
1.585000 -18.855000 9.190000 0 255 0
2.400000 -18.680000 13.480000 0 255 0
2.391300 -18.579300 6.952700 0 255 0
2.395300 -18.766001 -5.696700 0 255 255
2.400000 -18.610001 6.996700 0 255 0
2.380000 -18.719999 13.473300 0 255 0
2.396900 -18.615400 6.954600 0 255 0
1.205000 -18.230000 0.115000 255 0 0
1.696700 -17.853300 -5.630000 0 255 255
1.950000 -17.570000 9.680000 0 255 0
1.920000 -17.500000 12.790000 0 255 0
1.936000 -17.523001 9.818000 0 255 0
1.960000 -17.459999 12.940000 0 255 0
1.480000 -18.400000 -5.610000 0 255 0
1.480000 -18.365000 3.845000 255 0 0
1.483700 -18.327999 0.709000 255 0 0
2.060000 -17.440001 9.580000 0 255 0
0.620000 -17.530001 3.780000 0 255 0
0.190000 -18.325001 -5.735000 0 255 255
1.480000 -18.476700 1.806700 255 0 0
1.475000 -18.420000 -1.440000 255 0 0
1.495600 -18.369400 8.110000 255 0 0
1.495900 -18.320000 4.861200 255 0 0
1.470000 -18.690001 14.890000 0 255 0
1.475000 -18.410000 -1.295000 255 0 0
1.483300 -18.480000 1.866700 255 0 0
1.488900 -18.372101 8.360000 255 0 0
1.488900 -18.326300 5.208400 255 0 0
2.208300 -17.575001 8.768300 0 255 0
1.520000 -18.559999 4.550000 255 0 0
1.540000 -18.327999 -5.332000 0 255 0
1.560000 -17.820000 -4.920000 0 255 255
1.231700 -17.726700 -5.338300 0 255 0
1.540000 -17.709999 -4.990000 0 255 255
2.095000 -17.967501 -6.038300 0 255 255
1.060000 -17.940001 12.700000 0 255 0
0.985000 -17.725000 -5.982500 0 255 0
1.038000 -17.982000 9.455000 0 255 0
1.830000 -18.709999 17.030001 0 255 0
1.050000 -17.934999 12.475000 0 255 0
0.990000 -17.735001 -5.750000 0 255 0
1.143300 -18.236700 -1.940000 255 0 0
1.152200 -18.273300 -5.081100 255 0 0
1.185000 -18.465000 -0.785000 255 0 0
1.795000 -18.424999 16.355000 255 0 0
1.950000 -18.680000 19.549999 255 0 0
1.943300 -18.256701 -6.003300 0 255 0
2.200000 -18.420000 17.450001 0 255 0
2.194400 -18.263100 7.960000 0 255 0
2.160000 -18.090000 -5.850000 0 255 255
1.753300 -18.173300 -5.553300 0 255 0
1.526200 -18.275400 3.222300 0 255 0
2.395000 -19.424999 17.795000 0 255 0
0.636700 -18.969999 9.853300 0 255 0
1.245600 -18.721100 3.316700 0 255 0
1.280000 -18.459999 0.620000 255 0 0
1.280000 -18.400000 10.090000 0 255 0
2.090000 -18.600000 6.770000 0 255 0
1.482500 -17.217501 -5.498800 0 255 255
1.486700 -17.173300 3.966700 0 255 0
1.610000 -18.450001 9.600000 255 0 0
1.590000 -18.540001 12.840000 255 0 0
1.597500 -18.365000 3.115000 255 0 0
1.587700 -18.413200 6.356800 0 255 0
1.680000 -18.379999 1.260000 0 255 0
1.670000 -18.469999 -5.260000 0 255 0
1.680000 -18.280001 7.580000 0 255 0
0.260000 -18.200001 -5.100000 0 255 255
1.360000 -18.809999 -4.900000 0 255 0
0.700000 -18.969999 12.680000 0 255 0
0.820000 -18.200001 -5.320000 0 255 0
2.646700 -18.766701 18.066700 0 255 0
2.647500 -18.527500 8.267500 0 255 0
1.337500 -18.308300 3.805400 255 0 0
1.370000 -18.559999 -4.020000 255 0 0
2.095700 -17.711399 3.712900 0 255 0
2.094700 -17.782000 -5.949300 0 255 255
1.660000 -19.600000 13.590000 0 255 0
1.840000 -17.719999 -5.685000 0 255 255
1.825000 -17.722500 -5.827500 0 255 255
2.460000 -18.340000 15.160000 0 255 0
2.455000 -18.330000 15.205000 0 255 0
1.888000 -17.516001 -5.446000 0 255 255
1.810000 -17.629999 9.860000 0 255 0
1.930000 -18.330000 16.360001 0 255 0
1.910000 -18.139999 1.290000 0 255 0
1.910000 -18.200001 20.840000 0 255 0
1.703300 -18.980000 7.910000 0 255 0
0.500000 -17.850000 -5.770000 0 255 0
0.489200 -17.812099 3.906200 0 255 0
0.600000 -17.590000 3.720000 0 255 0
2.480000 -17.940001 16.620001 0 255 0
2.596700 -18.276699 3.563300 0 255 0
2.595000 -18.365000 9.855000 0 255 0
2.500000 -18.100000 3.550000 0 255 0
2.610000 -19.030001 9.570000 0 255 0
1.200000 -18.475000 -0.940000 255 0 0
1.800000 -18.370001 14.890000 255 0 0
1.790000 -18.280001 8.610000 0 255 0
1.640000 -19.190001 7.990000 0 255 0
1.691200 -19.522499 8.221300 0 255 0
1.700000 -18.040001 2.240000 0 255 0
1.480000 -18.530001 9.110000 255 0 0
1.480500 -18.367500 -0.292500 255 0 0
1.483300 -18.326700 -3.560000 255 0 0
0.690000 -18.355000 12.795000 0 255 0
1.710000 -17.430000 9.890000 0 255 0
1.690000 -17.580000 -5.577500 0 255 255
1.440800 -17.719999 -5.331500 0 255 255
1.985000 -19.309999 -0.145000 0 255 0
1.010000 -18.370001 -3.700000 255 0 0
1.170000 -18.170000 -1.490000 255 0 0
1.760000 -18.620001 21.260000 0 255 0
1.760000 -18.719999 21.200001 0 255 0
1.950000 -18.790001 14.910000 0 255 0
1.940000 -18.690001 21.219999 0 255 0
1.941700 -18.418301 11.401700 0 255 0
2.080000 -18.299999 16.389999 0 255 0
2.090000 -18.190001 16.370001 0 255 0
1.694400 -18.374399 -5.393300 0 255 0
2.200000 -19.070000 17.469999 0 255 0
1.702000 -18.260000 1.248000 0 255 0
0.600000 -18.240000 12.810000 0 255 0
2.360000 -18.030001 -5.710000 0 255 255
1.550000 -18.610001 14.880000 0 255 0
1.540000 -18.530001 21.150000 0 255 0
1.540000 -18.411400 2.211400 255 0 0
1.542500 -18.332500 8.505000 255 0 0
1.544100 -18.365499 5.258600 255 0 0
0.630000 -18.500000 -4.990000 0 255 0
0.960000 -17.590000 -5.950000 0 255 0
0.975000 -17.959999 -5.950000 0 255 0
1.006700 -18.136700 3.560000 0 255 0
0.930000 -18.670000 -5.035000 0 255 0
0.941300 -18.416901 9.860000 0 255 0
0.820000 -17.850000 -6.135000 0 255 0
0.130000 -18.170000 -5.780000 0 255 255
0.790000 -18.871700 9.665000 0 255 0
2.195000 -17.815001 -5.938300 0 255 255
0.550000 -18.286699 -5.450000 0 255 0
1.920000 -18.190001 16.799999 0 255 0
1.920000 -19.520000 8.120000 0 255 0
2.083300 -18.183300 -5.697800 0 255 0
1.645000 -17.715000 15.752500 0 255 0
1.635000 -17.719999 15.805000 0 255 0
2.410000 -18.760000 17.889999 0 255 0
1.388000 -18.275999 8.502000 0 255 0
1.150000 -17.334999 -4.680000 0 255 255
2.110000 -18.280001 17.889999 0 255 0
2.136700 -18.353300 7.896700 0 255 0
1.510000 -19.459999 8.570000 0 255 0
1.820000 -18.559999 13.860000 255 0 0
1.847500 -18.463800 7.353800 0 255 0
1.845000 -18.520000 17.110001 255 0 0
1.730000 -17.420000 15.280000 0 255 0
2.241100 -17.520000 2.460600 0 255 0
1.737100 -17.671400 -5.690000 0 255 255
1.095000 -17.420799 -4.899200 0 255 255
1.830000 -18.820000 21.590000 0 255 0
1.880000 -17.830000 -6.240000 0 255 255
1.340000 -17.799999 -4.930000 0 255 0
1.838300 -19.573299 8.210000 0 255 0
1.920000 -18.830000 4.820000 0 255 0
2.200000 -19.370001 13.370000 0 255 0
2.180000 -19.330000 10.190000 0 255 0
1.630000 -17.709999 -5.010000 0 255 255
1.150000 -17.267500 -4.880000 0 255 255
1.740000 -17.600000 20.120001 0 255 0
1.550000 -18.334999 8.245000 255 0 0
1.496700 -17.336700 -4.723300 0 255 255
1.531800 -18.418200 1.956400 0 255 0
1.547500 -18.371901 5.105600 0 255 0
1.360000 -17.570000 16.780001 0 255 0
1.350000 -17.670000 16.250000 0 255 0
1.488000 -17.968000 -5.942000 0 255 0
1.485600 -18.285601 0.604400 255 0 0
1.645000 -17.424999 -5.855000 0 255 255
1.224000 -18.118000 9.344000 0 255 0
1.491400 -17.768600 -5.341400 0 255 255
1.690000 -19.350000 13.410000 0 255 0
1.690000 -18.010000 3.502500 0 255 0
2.042700 -18.526699 -5.682700 0 255 0
1.385000 -18.174999 12.960000 0 255 0
1.390000 -18.250000 12.940000 0 255 0
1.380000 -19.100000 16.670000 0 255 0
1.390000 -17.969999 -6.170000 0 255 0
1.439300 -17.815701 -5.633600 0 255 0
1.433300 -18.180000 0.266700 255 0 0
0.949200 -18.569201 -5.033300 0 255 0
0.960000 -18.400000 3.540000 0 255 0
0.940000 -18.590000 -5.080000 0 255 0
1.436000 -18.224001 0.160000 255 0 0
1.424000 -18.282000 -3.090000 255 0 0
1.625000 -18.215000 -6.135000 0 255 0
1.630000 -18.250000 3.400000 0 255 0
2.000000 -18.350000 7.970000 0 255 0
1.430000 -18.160000 -0.050000 255 0 0
1.320000 -18.510000 2.990000 255 0 0
1.351400 -18.471399 6.152900 255 0 0
0.920000 -17.875000 -5.395000 0 255 0
0.880000 -17.580000 9.003300 0 255 0
1.200000 -18.240000 -3.810000 255 0 0
1.790000 -19.116301 7.968800 0 255 0
1.800000 -18.260000 15.920000 0 255 0
1.793300 -18.216700 12.766700 0 255 0
0.125000 -18.475000 -5.725000 0 255 255
0.120000 -18.520000 -5.550000 0 255 255
2.440000 -18.530001 20.940001 0 255 0
2.360000 -19.000000 9.550000 0 255 0
2.500000 -18.889999 7.210000 0 255 0
0.540000 -18.879999 3.820000 0 255 0
0.580000 -18.570000 -5.590000 0 255 0
0.580000 -19.230000 -5.150000 0 255 255
0.590000 -18.655001 10.675000 0 255 0
1.438100 -17.513100 -5.396900 0 255 255
3.020000 -18.570000 17.280001 0 255 0
1.139700 -18.617599 3.403400 0 255 0
1.730000 -17.520000 17.010000 0 255 0
1.760000 -17.850000 -5.140000 0 255 255
1.740000 -17.469999 20.150000 0 255 0
1.733300 -17.616699 10.516700 0 255 0
1.280000 -18.690001 9.350000 0 255 0
1.045000 -17.576700 -5.238300 0 255 0
1.310000 -18.370001 1.670000 255 0 0
1.295000 -18.420000 4.801700 255 0 0
1.320000 -18.420000 1.790000 255 0 0
1.342700 -18.367701 5.060500 255 0 0
0.650000 -18.760000 10.710000 0 255 0
0.643300 -18.615000 7.206700 0 255 0
1.897500 -19.172501 5.707500 0 255 0
0.536000 -17.972000 10.052000 0 255 0
1.584700 -18.365900 6.610600 255 0 0
1.592500 -18.410000 9.865000 255 0 0
1.590000 -18.486700 12.910000 255 0 0
1.690000 -18.540001 10.400000 255 0 0
1.687600 -18.471800 7.262600 255 0 0
1.795000 -18.410000 7.915000 0 255 0
1.770000 -18.450001 11.060000 255 0 0
1.785000 -18.549999 17.355000 255 0 0
1.780000 -18.466700 10.990000 255 0 0
1.800000 -18.526699 14.263300 255 0 0
1.788900 -18.412201 7.766700 0 255 0
0.570000 -18.719999 10.460000 0 255 0
0.587500 -19.262501 -5.187500 0 255 255
1.241500 -18.713100 8.473100 0 255 0
2.160000 -19.190001 11.030000 0 255 0
1.130000 -18.450001 21.080000 0 255 0
1.120000 -18.090000 -5.020000 0 255 0
1.130000 -18.360001 1.730000 255 0 0
1.460000 -17.360001 -4.650000 0 255 255
1.487500 -18.417500 10.015000 255 0 0
0.786300 -17.717699 3.767700 0 255 0
1.937500 -18.622499 13.812500 0 255 0
2.188000 -17.969999 -5.996000 0 255 255
2.010000 -18.490000 18.299999 255 0 0
1.430000 -18.590000 8.870000 0 255 0
1.442900 -18.365299 -3.783800 255 0 0
1.448600 -18.312799 -0.641400 255 0 0
2.385000 -19.375000 16.959999 0 255 0
2.670000 -18.350000 15.320000 0 255 0
2.500000 -19.059999 14.150000 0 255 0
1.740400 -17.673901 3.660200 0 255 0
1.760000 -17.469999 16.750000 0 255 0
1.750000 -17.799999 -5.970000 0 255 255
2.032500 -19.330000 5.742500 0 255 0
1.433700 -18.468800 8.555000 255 0 0
1.437400 -18.319099 5.305700 255 0 0
1.445000 -18.415800 11.807500 0 255 0
1.450000 -18.516701 17.956699 0 255 0
1.343300 -17.820000 -5.486700 0 255 0
1.240000 -18.660000 12.240000 0 255 0
1.050000 -17.665001 -6.186700 0 255 0
2.350000 -18.686701 13.506700 0 255 0
1.672500 -18.427500 9.862500 255 0 0
1.690000 -18.375000 6.625000 255 0 0
0.623300 -18.663300 10.713300 0 255 0
0.635000 -18.525000 7.345000 0 255 0
1.750000 -18.010000 9.270000 0 255 0
1.020000 -18.590000 -5.380000 0 255 0
0.680000 -18.940001 7.580000 0 255 0
0.743300 -17.559999 -6.156700 0 255 0
1.730000 -17.540001 15.890000 0 255 0
2.010000 -19.549999 18.170000 0 255 0
1.980000 -18.910000 -0.274000 0 255 0
2.195600 -17.621901 2.463100 0 255 0
2.593300 -18.028299 3.406700 0 255 0
2.347500 -18.212500 -5.940000 0 255 255
1.240000 -17.818899 -5.643300 0 255 0
1.737100 -18.562901 -5.392900 0 255 0
1.050000 -18.299999 -5.860000 0 255 0
1.030000 -18.770000 17.910000 0 255 0
1.770000 -18.620001 15.510000 255 0 0
1.786700 -18.520000 9.160000 0 255 0
2.310000 -19.280001 11.000000 0 255 0
2.295000 -19.174999 17.504999 0 255 0
1.938100 -17.569401 3.703700 0 255 0
1.970000 -18.750000 21.040001 0 255 0
1.990000 -18.700001 17.809999 0 255 0
0.884300 -18.111401 12.607100 0 255 0
1.746000 -17.930000 -5.940000 0 255 0
0.356700 -18.574400 -4.794400 0 255 255
1.836200 -17.622499 3.743800 0 255 0
2.210000 -17.730000 3.840000 0 255 0
1.930000 -18.440001 20.110001 0 255 0
1.096700 -17.513300 12.603300 0 255 0
1.505000 -19.270000 13.360000 0 255 0
1.479300 -18.274700 0.313300 255 0 0
0.710000 -17.709999 -6.010000 0 255 0
1.686200 -19.416201 8.260000 0 255 0
2.200000 -18.549999 -5.780000 0 255 0
2.100000 -17.740000 10.950000 0 255 0
0.670000 -17.440001 -5.180000 0 255 0
2.510000 -18.500000 9.950000 0 255 0
2.475000 -18.260000 19.455000 0 255 0
2.070000 -17.820000 -5.090000 0 255 255
1.680000 -18.250000 3.590000 0 255 0
1.670000 -18.190001 10.110000 0 255 0
1.695000 -18.610001 9.100000 255 0 0
1.670000 -18.469999 12.595000 255 0 0
2.260000 -19.059999 16.500000 0 255 0
2.360000 -19.400000 17.020000 0 255 0
1.880000 -18.820000 17.969999 0 255 0
1.870000 -18.930000 11.470000 0 255 0
1.646000 -19.625999 8.010000 0 255 0
1.520000 -18.330000 12.070000 0 255 0
1.532500 -18.455000 2.597500 255 0 0
1.537100 -18.372900 8.911400 255 0 0
1.551100 -18.414400 5.768900 255 0 0
1.525000 -18.455000 2.475000 255 0 0
1.560000 -18.610001 18.360001 0 255 0
1.484300 -17.465700 -5.350000 0 255 255
1.544600 -18.376900 8.960800 255 0 0
1.546700 -18.416700 5.710000 255 0 0
2.070000 -19.570000 9.780000 0 255 0
2.556700 -18.476700 9.913300 0 255 0
1.797100 -19.325701 8.217100 0 255 0
2.020000 -18.490000 -5.590000 0 255 0
1.485600 -18.316700 -5.333300 255 0 0
0.997100 -18.472900 12.807100 0 255 0
0.987000 -18.319500 3.503000 0 255 0
1.340000 -18.190001 -0.130000 255 0 0
1.276700 -17.536699 -5.883300 0 255 255
1.331400 -18.235500 -3.288300 255 0 0
1.310000 -17.559999 3.510000 0 255 0
0.788000 -18.070000 -5.290000 0 255 0
0.780000 -17.780001 -5.800000 0 255 0
0.785000 -17.915001 3.945000 0 255 0
1.700000 -17.360001 16.230000 0 255 0
1.696700 -17.816700 -5.953300 0 255 255
0.873300 -18.816700 17.913300 0 255 0
2.180000 -17.684999 9.860000 0 255 0
1.770000 -17.459999 -5.450000 0 255 255
2.305000 -19.209999 5.075000 0 255 0
1.130000 -17.280001 -5.110000 0 255 255
1.543300 -18.530001 5.306700 255 0 0
1.520000 -18.510000 5.450000 255 0 0
1.150000 -18.120001 -5.180000 0 255 0
1.770000 -18.549999 8.270000 0 255 0
1.601500 -17.759199 -5.789200 0 255 255
2.242900 -18.273800 -5.893300 0 255 0
1.950000 -18.709999 19.110001 255 0 0
2.080000 -18.389999 15.900000 0 255 0
0.392000 -18.318800 3.755200 0 255 0
0.620000 -17.940001 -5.530000 0 255 0
2.425000 -19.490000 17.615000 0 255 0
1.730000 -18.430000 -6.310000 0 255 0
1.738800 -18.161301 9.213800 0 255 0
1.940000 -17.389999 2.560000 0 255 0
2.390000 -19.370001 17.680000 0 255 0
1.980000 -18.620001 20.049999 255 0 0
1.310000 -18.940001 -5.100000 0 255 0
1.290000 -19.290001 17.740000 0 255 0
2.280000 -18.660000 21.540001 0 255 0
1.754000 -17.524000 -5.930000 0 255 255
1.740000 -17.350000 3.630000 0 255 0
2.520000 -19.290001 14.500000 0 255 0
1.998000 -18.284000 7.952000 0 255 0
2.338300 -18.681700 13.471700 0 255 0
2.241200 -18.712500 8.655000 0 255 0
2.383300 -19.463301 21.013300 0 255 0
2.385000 -19.424999 17.745001 0 255 0
0.570000 -18.889999 -5.720000 0 255 255
1.105000 -17.615000 -5.785000 0 255 0
0.885000 -17.540001 9.810000 0 255 0
0.700000 -19.290001 -5.470000 0 255 255
1.900000 -18.180000 20.840000 0 255 0
1.345000 -18.190001 0.910000 255 0 0
1.336800 -18.223700 -2.340900 255 0 0
2.200000 -19.266701 9.823300 0 255 0
1.690000 -18.450001 17.850000 0 255 0
1.703300 -18.673300 4.797800 0 255 0
1.638600 -17.270000 3.604500 0 255 0
2.140400 -17.710400 2.409600 0 255 0
2.640000 -18.980000 8.950000 0 255 0
1.670000 -18.469999 5.810000 0 255 0
1.710000 -18.530001 9.070000 255 0 0
1.688000 -18.372000 12.104000 255 0 0
1.291900 -17.629999 -5.208700 0 255 255
1.355000 -18.232500 2.317500 0 255 0
2.150000 -17.700001 2.280000 0 255 0
1.125000 -17.370001 -4.650000 0 255 255
1.425000 -18.535000 1.865000 255 0 0
1.445500 -18.420300 -4.889700 255 0 0
2.180000 -18.360001 7.880000 0 255 0
1.836700 -18.273300 -5.595000 0 255 0
1.836700 -18.570000 13.763300 255 0 0
1.850000 -18.520000 17.004999 255 0 0
1.850000 -18.420000 10.715000 0 255 0
2.090000 -19.478300 8.255000 0 255 0
1.620000 -18.580000 11.220000 255 0 0
1.696700 -18.333300 9.076700 0 255 0
1.680000 -18.150000 12.210000 0 255 0
1.880000 -18.170000 18.296700 0 255 0
1.887500 -19.424999 8.120000 0 255 0
1.900000 -18.709999 13.320000 0 255 0
0.590000 -17.530001 -5.420000 0 255 255
1.586700 -18.521299 4.716700 255 0 0
1.610000 -18.459999 1.570000 0 255 0
1.996700 -19.013300 10.953300 0 255 0
1.652500 -18.559999 8.417500 255 0 0
1.720000 -17.889999 -4.900000 0 255 255
0.480000 -18.400000 -5.240000 0 255 0
1.527000 -18.365999 1.458000 255 0 0
1.540300 -18.326900 4.709300 255 0 0
0.981800 -17.162701 -5.486400 0 255 255
2.160000 -18.570000 21.110001 0 255 0
1.650000 -18.590000 14.840000 0 255 0
1.390000 -18.514999 -1.960000 255 0 0
2.290000 -18.490000 7.610000 0 255 0
2.080000 -18.930000 4.913300 0 255 0
1.822500 -18.934999 5.567500 0 255 0
1.126700 -17.516701 -5.403300 0 255 255
1.490000 -18.299999 -2.150000 255 0 0
1.505000 -18.378799 1.102500 255 0 0
1.485000 -18.504999 10.905000 255 0 0
1.475000 -18.469999 -5.210000 255 0 0
1.845000 -18.870001 15.400000 0 255 0
1.590000 -18.540001 -5.990000 0 255 0
1.583300 -18.333300 7.456700 255 0 0
2.090000 -18.350000 9.310000 0 255 0
2.200000 -18.480000 16.770000 0 255 0
2.590000 -18.020000 8.180000 0 255 0
2.600000 -18.190001 17.629999 0 255 0
1.050000 -18.000000 -4.940000 0 255 0
1.725000 -18.469999 7.230000 0 255 0
1.723300 -18.416700 10.366700 255 0 0
2.685000 -17.809999 16.559999 0 255 0
2.283300 -18.580000 -5.803300 0 255 0
1.980000 -17.559999 -5.760000 0 255 255
1.980000 -17.990000 20.360001 0 255 0
1.135000 -17.627501 -5.092500 0 255 0
1.127500 -17.612499 -5.240000 0 255 0
1.378000 -17.768000 -5.342000 0 255 0
1.705000 -18.379999 -5.675000 0 255 0
1.840000 -18.360001 14.830000 0 255 0
1.920000 -18.730000 -5.690000 0 255 0
2.290000 -18.510000 -5.900000 0 255 0
2.310000 -18.510000 -5.760000 0 255 255
2.300000 -18.700001 6.910000 0 255 0
2.290000 -18.209999 14.040000 0 255 0
1.640000 -17.610001 -5.560000 0 255 255
1.660000 -17.209999 4.040000 0 255 0
1.640000 -17.370001 -5.840000 0 255 255
1.446700 -17.281099 -5.494400 0 255 255
1.505000 -18.420000 10.930000 255 0 0
1.440000 -17.323299 3.803300 0 255 0
1.393300 -18.719999 10.800000 0 255 0
1.355000 -18.475000 16.805000 0 255 0
2.236700 -18.176701 16.010000 0 255 0
1.630000 -18.315001 6.610000 255 0 0
1.620000 -18.150000 3.470000 0 255 0
1.341000 -18.307699 3.511000 255 0 0
1.470000 -18.219999 0.210000 255 0 0
1.477000 -18.278000 3.460000 255 0 0
1.483300 -18.263300 -3.136700 255 0 0
1.290000 -18.230000 3.250000 255 0 0
0.982500 -18.457500 9.850000 0 255 0
1.060000 -18.299999 -2.340000 255 0 0
1.040000 -18.360001 -5.470000 0 255 0
0.870000 -18.059999 -6.350000 0 255 0
0.880000 -17.920000 9.570000 0 255 0
0.895000 -17.764999 12.615000 0 255 0
0.905000 -18.055000 -5.955000 0 255 0
0.890000 -18.030001 3.610000 0 255 0
0.870000 -17.790001 12.980000 0 255 0
0.905000 -17.940001 9.615000 0 255 0
2.360000 -18.320000 19.309999 0 255 0
1.010000 -18.049999 8.690000 0 255 0
0.980000 -18.150000 12.640000 0 255 0
2.035000 -18.129999 -6.250000 0 255 0
2.040000 -18.535000 19.055000 255 0 0
2.550000 -17.930000 18.030001 0 255 0
3.055000 -18.525000 19.424999 0 255 0
1.160000 -18.510000 0.390000 255 0 0
1.160000 -18.200001 -5.750000 0 255 0
1.235000 -19.235001 17.360001 0 255 0
1.250000 -19.110001 10.880000 0 255 0
1.160000 -18.139999 20.990000 0 255 0
1.832000 -17.972000 -5.702000 0 255 0
1.955000 -18.305000 20.815001 0 255 0
1.920000 -18.360001 17.520000 255 0 0
1.590000 -18.080000 -5.030000 0 255 0
1.600000 -17.860001 15.670000 0 255 0
1.390000 -18.275000 4.510000 255 0 0
1.387100 -18.117100 -5.152900 0 255 0
1.387000 -18.233999 1.358000 0 255 0
2.680000 -18.190001 17.610001 0 255 0
1.460000 -19.040001 -5.730000 0 255 0
0.547100 -17.965700 10.107100 0 255 0
1.027100 -18.415701 3.368600 0 255 0
1.540000 -18.320000 -3.660000 0 255 0
1.526700 -18.573299 6.263300 255 0 0
1.520000 -18.520000 9.390000 255 0 0
1.560000 -18.559999 5.260000 255 0 0
1.540000 -18.315001 -4.245000 0 255 0
2.345000 -19.355000 19.125000 0 255 0
2.460000 -18.740000 18.350000 0 255 0
2.445000 -18.750000 2.175000 0 255 0
1.150400 -17.210699 -4.678200 0 255 255
0.800000 -17.990000 10.170000 0 255 0
0.789600 -18.270700 3.602200 0 255 0
1.510000 -19.370001 8.190000 0 255 0
1.541300 -18.274700 -5.286700 0 255 0
2.970000 -18.219999 20.865000 0 255 0
1.860000 -17.940001 2.230000 0 255 0
2.370000 -19.360001 20.959999 0 255 0
0.382300 -18.072300 3.711500 0 255 0
1.356700 -18.486700 6.760000 255 0 0
1.360000 -17.860001 -5.510000 0 255 0
1.820000 -17.420000 3.550000 0 255 0
1.782000 -17.940001 -4.852000 0 255 0
1.995000 -18.969999 -5.680000 0 255 0
1.585800 -18.421700 -5.230000 0 255 0
1.835000 -17.711399 -5.905000 0 255 255
0.650000 -18.400000 11.150000 0 255 0
0.636700 -18.261700 -5.143300 0 255 0
1.560000 -18.450001 -0.070000 0 255 0
1.540000 -18.325001 9.550000 255 0 0
1.537300 -18.365400 6.414600 255 0 0
1.541400 -18.414801 3.059500 255 0 0
2.005000 -18.424999 14.865000 0 255 0
1.380000 -19.215000 -5.535000 0 255 255
1.250000 -18.469999 0.106700 255 0 0
1.240000 -18.600000 3.180000 0 255 0
1.582500 -17.916300 -5.446300 0 255 0
0.860000 -17.950001 9.810000 0 255 0
0.620000 -18.959999 9.650000 0 255 0
1.940600 -17.966600 -5.688100 0 255 255
0.690000 -18.405001 12.815000 0 255 0
1.445000 -18.340000 6.620000 255 0 0
1.446000 -18.474001 9.666000 255 0 0
2.860000 -18.379999 13.860000 0 255 0
1.484300 -17.824301 -5.537100 0 255 0
1.990000 -18.875000 -5.390000 0 255 0
2.490000 -19.110001 14.360000 0 255 0
1.720000 -18.629999 -5.220000 0 255 0
1.730000 -18.385000 11.075000 255 0 0
1.735600 -18.418100 7.803100 255 0 0
1.735000 -18.629999 -5.305000 0 255 0
1.739000 -18.418600 7.758600 255 0 0
0.990000 -18.632500 6.905000 0 255 0
1.478300 -17.368299 -4.703300 0 255 255
1.520000 -18.660000 8.560000 0 255 0
1.538100 -18.362700 2.006200 255 0 0
1.540800 -18.325800 5.163300 255 0 0
0.790000 -17.750000 -5.530000 0 255 0
0.803300 -18.023300 -5.383300 0 255 0
1.536500 -18.324499 0.516000 255 0 0
2.240000 -18.620001 17.816700 0 255 0
2.253300 -18.773300 21.103300 0 255 0
0.975000 -17.320000 -5.292500 0 255 255
0.785000 -17.705000 9.012500 0 255 0
0.990000 -17.409599 -5.025600 0 255 255
1.794400 -18.573299 8.450600 0 255 0
2.200000 -18.540001 19.240000 0 255 0
1.650000 -18.610001 11.300000 255 0 0
1.650000 -18.620001 14.590000 0 255 0
1.297100 -18.331400 4.317100 255 0 0
1.281200 -18.261999 1.160400 255 0 0
1.043300 -18.773300 12.266700 0 255 0
1.830000 -18.719999 17.764999 0 255 0
1.690000 -17.719200 -5.494600 0 255 255
1.735300 -17.682699 -5.144700 0 255 255
2.528000 -19.222000 12.660000 0 255 0
0.896000 -18.318001 11.054000 0 255 0
2.480000 -19.309999 19.520000 0 255 0
1.800000 -19.180000 5.680000 0 255 0
0.490000 -18.764999 3.310000 0 255 0
2.360000 -19.370001 11.150000 0 255 0
2.455000 -18.665001 18.395000 0 255 0
1.560000 -19.379999 9.530000 0 255 0
0.495500 -18.627701 3.366800 0 255 0
0.310000 -18.670000 3.465000 0 255 0
1.520000 -18.120001 -5.810000 0 255 0
1.560000 -19.340000 21.090000 0 255 0
1.525000 -18.115000 -5.935000 0 255 0
2.030000 -18.629999 19.410000 255 0 0
0.710000 -18.070000 -5.890000 0 255 0
1.720000 -18.980000 10.280000 0 255 0
2.160000 -17.780001 20.590000 0 255 0
1.594400 -18.531099 4.753300 255 0 0
1.600000 -18.526699 5.423300 255 0 0
1.810000 -18.059999 -6.040000 0 255 0
1.795000 -18.440001 16.115000 255 0 0
1.775000 -18.375000 12.900000 255 0 0
2.080000 -18.420000 17.965000 0 255 0
1.650000 -18.459999 2.110000 0 255 0
1.650000 -18.309999 12.030000 255 0 0
1.040000 -19.070000 5.755000 0 255 0
1.695000 -18.467501 11.115000 255 0 0
1.790000 -19.370001 8.303300 0 255 0
2.270000 -19.469999 20.570000 0 255 0
1.730000 -18.530001 8.130000 255 0 0
1.720000 -18.559999 4.800000 0 255 0
1.736700 -18.456699 11.363300 255 0 0
1.746700 -18.433300 14.606700 255 0 0
1.670000 -17.610001 -5.440000 0 255 255
1.785000 -18.215000 15.415000 0 255 0
2.132500 -17.463800 9.595000 0 255 0
1.760000 -18.280001 -4.140000 0 255 0
1.760000 -18.059999 8.530000 0 255 0
0.980000 -17.330000 -4.945000 0 255 255
1.745000 -19.240000 9.860000 0 255 0
1.695000 -17.799999 -5.140000 0 255 255
1.660000 -17.969999 -5.020000 0 255 0
1.044000 -17.326300 -5.188700 0 255 255
1.586700 -18.570000 13.256700 0 255 0
2.288900 -18.467699 7.506300 0 255 0
1.637300 -17.463600 -5.890000 0 255 255
1.680000 -18.555000 14.545000 0 255 0
1.045000 -17.620001 -5.095000 0 255 0
1.641200 -17.728600 -5.090500 0 255 255
1.733800 -18.227699 1.171500 0 255 0
2.635000 -19.209999 14.480000 0 255 0
1.236700 -17.873301 -5.153300 0 255 0
1.840000 -18.850000 12.140000 0 255 0
1.860000 -18.799999 15.390000 0 255 0
1.078900 -17.306700 -5.342200 0 255 255
2.180000 -18.830000 13.962000 0 255 0
2.620000 -19.240000 14.650000 0 255 0
1.950000 -17.500000 -5.670000 0 255 255
0.910000 -18.790001 -4.890000 0 255 0
1.934300 -17.521400 -5.352900 0 255 255
2.336400 -18.574800 6.911600 0 255 0
2.330000 -18.535000 10.325000 0 255 0
2.360000 -18.590000 7.040000 0 255 0
1.346000 -17.774000 -5.640000 0 255 0
1.340000 -17.610001 3.860000 0 255 0
2.280000 -19.510000 16.959999 0 255 0
1.845000 -18.955000 -6.070000 0 255 0
1.700000 -17.400000 -5.750000 0 255 255
1.960000 -18.670000 19.440001 255 0 0
1.920000 -18.719999 16.309999 0 255 0
1.933300 -18.483299 6.813300 0 255 0
1.760000 -18.559999 18.889999 0 255 0
1.685000 -17.415001 -5.605000 0 255 255
2.245000 -18.309999 -5.930000 0 255 0
2.037500 -17.422501 17.020000 0 255 0
1.391400 -17.717100 -5.842900 0 255 255
1.590000 -18.469999 3.760000 255 0 0
1.583300 -18.520000 6.913300 255 0 0
1.203100 -17.517700 -5.689200 0 255 255
1.225000 -18.084999 9.360000 0 255 0
1.220000 -18.240000 12.510000 0 255 0
1.660000 -18.530001 16.400000 0 255 0
1.660000 -18.389999 13.150000 255 0 0
1.640000 -18.416700 9.918900 255 0 0
1.500000 -18.070000 -5.980000 0 255 0
2.040000 -18.376699 -5.723300 0 255 0
0.890000 -17.879999 10.000000 0 255 0
0.900000 -18.209999 -5.670000 0 255 0
1.580000 -18.360001 0.480000 0 255 0
1.610000 -18.540001 9.910000 255 0 0
1.582500 -18.472500 6.745000 255 0 0
1.395000 -17.920000 -5.945000 0 255 0
1.690000 -18.250000 -6.170000 0 255 0
1.870000 -18.920000 -6.010000 0 255 0
1.580000 -18.010000 3.560000 0 255 0
1.400000 -19.230000 16.590000 0 255 0
1.500000 -19.209999 13.600000 0 255 0
1.489800 -18.270000 3.306300 255 0 0
1.046700 -18.183300 3.510000 0 255 0
0.950000 -18.326700 9.923300 0 255 0
0.938700 -18.424000 3.373300 0 255 0
1.050000 -17.705000 12.700000 0 255 0
0.740000 -18.215000 -6.190000 0 255 0
0.730000 -18.370001 9.920000 0 255 0
1.390000 -18.549999 6.552500 255 0 0
1.410000 -18.350000 -6.480000 0 255 0
1.400000 -18.480000 0.010000 255 0 0
1.410000 -18.410000 -3.260000 255 0 0
0.650000 -17.770000 -5.620000 0 255 0
0.650000 -17.920000 10.250000 0 255 0
1.000000 -18.760000 3.080000 0 255 0
0.610000 -17.834999 8.970000 0 255 0
0.690000 -17.850000 9.140000 0 255 0
1.000000 -17.639999 12.840000 0 255 0
0.743300 -17.763300 9.196700 0 255 0
1.294000 -17.620001 12.522000 0 255 0
0.836700 -17.980000 12.656700 0 255 0
0.845000 -17.982500 12.615000 0 255 0
1.760000 -18.420000 9.010000 255 0 0
1.735000 -18.389999 12.250000 255 0 0
1.510000 -18.580000 -5.390000 0 255 0
1.290000 -18.260500 -4.590300 255 0 0
2.730000 -18.600000 9.670000 0 255 0
2.742500 -18.924999 16.207500 0 255 0
1.260000 -17.520000 12.520000 0 255 0
1.290000 -19.059999 20.665001 0 255 0
1.400000 -18.518000 -4.337000 255 0 0
2.560000 -19.100000 9.630000 0 255 0
2.530000 -19.139999 9.100000 0 255 0
2.505000 -18.920000 4.110000 0 255 0
2.490000 -18.559999 20.420000 0 255 0
2.470000 -18.580000 18.980000 0 255 0
2.470000 -18.575001 19.025000 0 255 0
2.636700 -18.217800 11.652200 0 255 0
1.580000 -18.420000 -5.500000 0 255 0
1.200000 -19.379999 19.180000 0 255 0
1.255000 -18.309999 -2.045000 255 0 0
1.240700 -18.265200 1.112500 255 0 0
1.240000 -18.424999 4.295000 255 0 0
1.240900 -18.268000 1.057700 255 0 0
1.905000 -18.969999 15.460000 0 255 0
2.340000 -18.930000 7.310000 0 255 0
1.900000 -18.530001 16.520000 255 0 0
1.220000 -18.389999 -0.470000 255 0 0
2.143300 -19.570000 11.516700 0 255 0
2.030000 -19.330000 9.820000 0 255 0
1.640000 -18.340000 7.980000 255 0 0
0.840000 -18.055000 12.675000 0 255 0
2.591300 -19.077499 14.416200 0 255 0
1.147500 -18.877501 5.563300 0 255 0
1.139000 -18.366501 -3.291600 255 0 0
1.139600 -18.368799 -3.443500 255 0 0
1.153300 -18.331699 -0.181700 255 0 0
1.945000 -17.830000 13.055000 0 255 0
1.480000 -18.290001 -2.710000 255 0 0
1.480000 -18.216700 -5.836700 0 255 0
2.550000 -18.181700 3.418300 0 255 0
2.760000 -18.400000 21.240000 0 255 0
1.540000 -18.820000 17.490000 0 255 0
1.537500 -19.375000 8.297500 0 255 0
1.540000 -18.270000 1.270000 255 0 0
0.790000 -18.160000 3.690000 0 255 0
0.780000 -18.430000 -5.710000 0 255 0
0.850000 -18.309999 -5.510000 0 255 0
1.900000 -17.417801 -5.388900 0 255 255
1.300000 -17.299999 -5.860000 0 255 255
2.090000 -17.753300 3.773300 0 255 0
2.087500 -18.027500 -5.735000 0 255 255
1.040000 -18.903299 3.301100 0 255 0
2.610000 -19.090000 14.300000 0 255 0
1.386700 -18.263300 -6.103300 0 255 0
0.443100 -18.473101 3.422300 0 255 0
1.792500 -19.415001 9.807500 0 255 0
1.326400 -17.210699 -4.782900 0 255 255
2.270000 -18.490000 21.209999 0 255 0
0.710000 -17.320000 -4.960000 0 255 255
1.481500 -17.668501 -5.884600 0 255 255
2.210000 -19.129999 10.940000 0 255 0
1.560000 -17.610001 3.790000 0 255 0
1.220000 -18.690001 19.370001 0 255 0
1.990000 -18.605000 17.790001 255 0 0
1.990000 -17.473301 17.013300 0 255 0
1.282000 -18.261999 -6.244000 0 255 0
2.005000 -18.465000 10.805000 0 255 0
1.977500 -18.557501 17.299999 255 0 0
2.200000 -18.700001 18.889999 0 255 0
0.930000 -18.740000 -6.080000 0 255 0
0.951100 -18.566700 3.452200 0 255 0
0.945000 -18.385000 17.075001 0 255 0
1.780000 -17.626699 3.758300 0 255 0
1.792000 -17.625999 3.598000 0 255 0
0.540000 -19.280001 -5.630000 0 255 255
1.939200 -17.773100 -5.936900 0 255 255
1.935000 -17.620001 3.620000 0 255 0
1.770000 -18.820000 14.390000 0 255 0
1.740500 -17.267300 3.714100 0 255 0
1.195000 -18.340000 2.755000 255 0 0
1.197200 -18.273800 -0.494400 255 0 0
1.170000 -19.030001 20.740000 0 255 0
1.180000 -18.340000 2.410000 255 0 0
1.197500 -18.270700 -0.739300 0 255 0
1.170000 -18.480000 -3.700000 255 0 0
1.210000 -18.504999 -0.530000 255 0 0
2.153300 -17.639999 8.760000 0 255 0
2.090000 -18.260000 21.440001 0 255 0
0.538500 -18.272600 3.707800 0 255 0
2.585000 -18.719999 7.005000 0 255 0
1.810000 -17.959999 -5.780000 0 255 255
1.890000 -17.726700 -5.736700 0 255 255
0.500000 -19.090000 -5.330000 0 255 255
0.487500 -18.871201 7.315000 0 255 0
2.120000 -18.299999 16.330000 0 255 0
1.685000 -18.469999 9.425000 255 0 0
2.040000 -17.709999 21.160000 0 255 0
1.775700 -17.765699 -5.095700 0 255 255
2.030000 -18.379999 8.010000 0 255 0
0.647500 -18.968800 7.621300 0 255 0
0.540000 -18.413799 11.456300 0 255 0
2.487100 -18.518600 9.761400 0 255 0
2.596000 -18.070000 3.462000 0 255 0
2.590000 -18.340000 15.360000 0 255 0
2.805000 -18.620001 18.715000 0 255 0
2.197500 -19.227501 10.005000 0 255 0
1.790000 -18.570000 9.020000 0 255 0
1.810000 -19.590000 8.910000 0 255 0
1.743300 -18.026699 15.510000 0 255 0
0.488800 -18.221600 3.754800 0 255 0
1.582500 -18.325001 8.457500 255 0 0
2.060000 -19.430000 11.930000 0 255 0
2.233300 -18.180000 9.313300 0 255 0
1.585900 -18.522400 2.097100 0 255 0
1.980000 -19.090000 15.480000 0 255 0
1.690000 -19.270000 8.330000 0 255 0
1.040000 -18.650000 6.780000 0 255 0
1.745000 -18.270000 -4.335000 0 255 0
1.738300 -17.969999 15.001700 0 255 0
1.740000 -18.022499 14.995000 0 255 0
1.943300 -17.719999 9.453300 0 255 0
2.655000 -18.504999 8.515000 0 255 0
1.860000 -18.200001 16.750000 0 255 0
0.510000 -18.160000 3.840000 0 255 0
0.480000 -18.150000 3.590000 0 255 0
0.492500 -18.059999 10.107500 0 255 0
0.496700 -18.413300 -6.191700 0 255 0
1.940000 -18.062901 16.762899 0 255 0
1.940000 -19.427999 8.164000 0 255 0
1.950000 -19.420000 8.290000 0 255 0
1.850000 -18.280001 17.799999 0 255 0
1.770000 -18.070000 -4.810000 0 255 0
2.495200 -18.726200 2.309300 0 255 0
2.145000 -18.080000 1.425000 0 255 0
2.153300 -18.626699 17.853300 0 255 0
1.880000 -18.815001 13.255000 0 255 0
2.285000 -19.355000 10.995000 0 255 0
1.650000 -17.340000 -5.580000 0 255 255
1.680000 -18.530001 14.260000 255 0 0
1.690000 -18.455000 11.025000 255 0 0
1.890000 -19.309999 8.150000 0 255 0
2.250000 -18.379999 10.890000 0 255 0
1.646000 -18.312000 -5.486000 0 255 0
1.730000 -18.160000 -5.500000 0 255 0
1.820000 -18.980000 12.200000 0 255 0
1.045700 -18.014999 -5.082100 0 255 0
1.760000 -18.389999 13.550000 255 0 0
1.760000 -18.670000 -5.370000 0 255 0
1.735600 -18.468800 7.268400 0 255 0
1.650000 -18.013300 -5.583300 0 255 0
2.420000 -18.520000 16.889999 0 255 0
2.344000 -18.672001 -5.842000 0 255 255
2.320000 -18.780001 13.520000 0 255 0
1.530000 -18.309999 0.790000 255 0 0
1.870000 -19.209999 13.410000 0 255 0
1.830000 -18.170000 17.879999 0 255 0
1.935000 -18.860001 10.805000 0 255 0
2.390000 -18.900000 7.170000 0 255 0
2.283100 -18.260799 -5.689200 0 255 0
1.690000 -17.360001 3.815000 0 255 0
1.680000 -17.629999 -6.070000 0 255 255
0.794000 -18.521999 9.964000 0 255 0
0.788100 -18.418800 3.466200 0 255 0
0.970000 -17.600000 3.620000 0 255 0
1.700000 -17.400000 -5.660000 0 255 255
2.638000 -18.368999 9.812000 0 255 0
2.633300 -18.270000 3.313300 0 255 0
2.630000 -18.410000 19.969999 0 255 0
0.650000 -18.410000 12.840000 0 255 0
1.486700 -18.275000 12.865000 0 255 0
0.827500 -18.522499 3.322500 0 255 0
0.845000 -18.225000 10.065000 0 255 0
0.846300 -18.676201 -4.981300 0 255 0
1.980000 -18.370001 19.830000 0 255 0
2.000000 -19.434999 9.910000 0 255 0
1.985000 -19.412500 9.772500 0 255 0
1.650000 -18.330000 3.240000 255 0 0
1.500000 -18.430000 5.140000 255 0 0
1.483300 -18.453300 8.410000 255 0 0
1.343300 -18.260500 -3.939900 255 0 0
0.934400 -18.267799 12.662200 0 255 0
1.790000 -18.969999 18.080000 0 255 0
1.890000 -19.170000 21.219999 0 255 0
1.640000 -18.620001 3.830000 0 255 0
1.460000 -18.520000 16.469999 0 255 0
1.433300 -18.453300 6.863300 255 0 0
1.435000 -18.420000 10.100000 255 0 0
1.441100 -18.312201 3.810000 255 0 0
1.450000 -18.370001 0.558000 255 0 0
1.480000 -18.490000 8.570000 255 0 0
1.470000 -18.420000 5.590000 255 0 0
1.483300 -18.453300 8.763300 255 0 0
1.635000 -18.584999 7.300000 255 0 0
1.660000 -18.440001 16.719999 0 255 0
0.630000 -17.790001 9.230000 0 255 0
0.940000 -17.775000 12.511700 0 255 0
1.640000 -18.430000 13.810000 255 0 0
1.620000 -18.590000 4.020000 0 255 0
1.642000 -18.420000 13.264000 255 0 0
1.292800 -18.261200 -5.336800 255 0 0
1.290000 -18.771999 12.864000 0 255 0
1.280000 -18.570000 3.260000 0 255 0
1.439100 -18.318701 5.461300 255 0 0
1.440000 -18.360001 2.310000 255 0 0
1.432500 -18.472500 8.817500 255 0 0
2.826700 -18.510000 15.770000 0 255 0
2.830000 -18.523300 15.706700 0 255 0
2.325000 -18.125000 -5.725000 0 255 255
0.990000 -17.863300 13.013300 0 255 0
1.190500 -17.714100 -5.282300 0 255 0
1.220000 -19.490000 7.680000 0 255 0
1.090000 -18.963301 5.625000 0 255 0
1.397100 -18.525700 -4.944300 255 0 0
1.155000 -18.284300 -3.644300 255 0 0
2.642500 -18.468300 8.465000 0 255 0
1.033300 -17.216700 -4.830000 0 255 255
2.045000 -19.266701 9.851700 0 255 0
2.050000 -18.389999 16.400000 0 255 0
1.490000 -18.969999 20.420000 0 255 0
0.470000 -18.420000 -5.490000 0 255 0
0.655000 -17.834999 3.675000 0 255 0
1.090000 -18.713301 -5.043300 0 255 0
1.795000 -19.309999 8.065000 0 255 0
2.450000 -18.900000 4.290000 0 255 0
1.840000 -18.876699 20.763300 0 255 0
1.690000 -18.163300 9.153300 0 255 0
2.045000 -17.985001 -6.090000 0 255 255
1.460000 -19.020000 17.860001 0 255 0
0.830000 -17.959999 -4.830000 0 255 0
0.625000 -18.309999 11.320000 0 255 0
0.460000 -19.230000 -5.050000 0 255 255
1.556700 -18.480000 -5.436700 0 255 0
1.542500 -18.514999 16.757500 0 255 0
1.535500 -18.330000 4.112700 255 0 0
1.526000 -18.368000 0.876000 255 0 0
1.650000 -18.590000 10.540000 255 0 0
2.210000 -18.670000 8.720000 0 255 0
2.287500 -19.217501 5.102500 0 255 0
1.760000 -17.889999 -6.140000 0 255 255
1.740200 -17.724400 3.610500 0 255 0
2.191100 -18.271099 -5.831100 0 255 0
0.260000 -18.570000 3.520000 0 255 0
1.882000 -17.476000 9.916000 0 255 0
1.880000 -17.719999 13.090000 0 255 0
1.890000 -17.570000 3.605000 0 255 0
0.460000 -18.830000 3.470000 0 255 0
1.130000 -18.120001 -4.850000 0 255 0
2.685000 -18.170000 11.770000 0 255 0
1.210000 -18.200001 8.590000 0 255 0
1.270000 -18.480000 18.110001 0 255 0
1.470000 -18.240000 -0.170000 255 0 0
1.478100 -18.283800 3.060500 255 0 0
2.030000 -18.389999 16.365000 0 255 0
2.384100 -18.312401 3.615900 0 255 0
1.394300 -17.727100 -5.645000 0 255 0
1.510000 -17.600000 -5.810000 0 255 255
1.487100 -17.574100 3.668800 0 255 0
0.733300 -18.066700 -5.440000 0 255 0
0.720000 -17.930000 4.010000 0 255 0
0.732500 -18.077499 -5.242500 0 255 0
1.620000 -19.010000 -5.760000 0 255 0
1.644000 -18.778000 10.200000 0 255 0
1.630000 -18.870001 16.719999 0 255 0
2.182500 -18.959999 -5.892500 0 255 0
0.932900 -17.410000 -5.485700 0 255 255
0.970000 -18.129999 -5.500000 0 255 0
0.970000 -18.280001 3.690000 0 255 0
1.000000 -18.465000 16.760000 0 255 0
0.995600 -18.375601 10.004400 0 255 0
1.660000 -18.660000 21.230000 0 255 0
1.690000 -18.080000 12.150000 0 255 0
1.880000 -17.875000 -5.930000 0 255 255
1.710000 -19.219999 10.450000 0 255 0
1.670000 -19.370001 -5.830000 0 255 255
1.860000 -18.490000 19.120001 0 255 0
1.840000 -18.070000 -6.200000 0 255 0
1.830000 -18.340000 16.320000 255 0 0
1.503300 -18.463301 2.253300 255 0 0
1.480000 -18.411699 -0.890000 255 0 0
1.496000 -18.379999 8.761000 255 0 0
1.492100 -18.328600 5.611000 255 0 0
1.986700 -18.403299 7.856700 0 255 0
1.990000 -18.410000 8.020000 0 255 0
2.300000 -19.280001 11.230000 0 255 0
0.300000 -18.207500 -5.145000 0 255 255
0.690200 -17.572901 3.862400 0 255 0
1.605000 -17.767500 -5.832500 0 255 255
1.450000 -18.190001 1.930000 255 0 0
1.570000 -18.340000 -3.000000 0 255 0
1.992000 -18.808001 2.306000 0 255 0
1.975000 -18.559999 12.095000 0 255 0
2.500000 -17.879999 18.020000 0 255 0
2.678600 -18.275700 8.455700 0 255 0
2.370000 -18.420000 12.450000 0 255 0
2.385000 -18.490000 15.590000 0 255 0
2.440000 -18.129999 9.420000 0 255 0
2.640000 -18.330000 12.570000 0 255 0
2.270000 -18.379999 17.469999 0 255 0
2.287100 -18.104300 1.557100 0 255 0
2.560000 -18.230000 3.280000 0 255 0
2.590000 -18.459999 20.990000 0 255 0
2.245000 -18.465000 17.362499 0 255 0
2.557500 -18.207500 3.955000 0 255 0
2.532500 -18.165001 8.160000 0 255 0
2.490800 -18.461500 7.603100 0 255 0
2.470000 -18.340000 17.590000 0 255 0
2.541400 -18.221399 3.657100 0 255 0
2.740000 -18.510000 10.600000 0 255 0
2.580000 -17.950001 16.600000 0 255 0
2.220000 -18.469999 17.309999 0 255 0
2.243300 -18.363300 10.796700 0 255 0
2.390000 -18.879999 7.050000 0 255 0
2.540000 -18.430000 20.915001 0 255 0
2.537500 -18.557501 10.460000 0 255 0
2.688800 -18.211201 11.655000 0 255 0
2.680000 -18.360001 8.590000 0 255 0
1.720000 -18.440001 9.870000 255 0 0
1.730000 -18.370001 12.990000 255 0 0
1.580000 -18.549999 5.240000 255 0 0
1.530000 -19.160000 -6.120000 0 255 0
1.030000 -18.070000 -5.320000 0 255 0
1.050000 -18.090000 -5.490000 0 255 0
1.020000 -18.230000 10.010000 0 255 0
1.760000 -18.549999 16.540001 255 0 0
1.990000 -19.250000 -0.130000 0 255 0
1.990000 -18.370001 20.219999 0 255 0
1.620000 -18.650000 10.090000 255 0 0
1.660000 -18.590000 3.830000 0 255 0
1.640000 -18.427099 13.205700 255 0 0
1.840000 -18.990000 -5.880000 0 255 0
1.850000 -19.264999 13.260000 0 255 0
1.630000 -18.629999 13.770000 0 255 0
1.275000 -18.465000 2.560000 255 0 0
1.310000 -18.510000 5.820000 255 0 0
1.060000 -18.040001 12.600000 0 255 0
1.020000 -18.059999 9.470000 0 255 0
1.850000 -18.570000 -5.350000 0 255 0
0.800000 -18.740000 -6.040000 0 255 0
0.770000 -18.240000 12.780000 0 255 0
0.693300 -18.365000 12.755000 0 255 0
1.147000 -18.280001 -3.741000 255 0 0
1.152000 -18.285999 -3.782000 255 0 0
2.685000 -17.980000 16.190001 0 255 0
1.445800 -17.856701 -4.943300 0 255 0
1.046700 -17.576700 -5.393300 0 255 0
1.245500 -18.320900 2.106800 255 0 0
1.230000 -18.870001 18.070000 0 255 0
1.252500 -18.315001 3.455000 255 0 0
0.755000 -17.530001 -5.390000 0 255 0
2.350000 -18.268000 3.666000 0 255 0
1.350000 -18.360001 3.810000 255 0 0
1.193300 -17.420000 -4.653300 0 255 255
0.440000 -18.480000 -6.020000 0 255 0
2.735700 -18.408600 9.845700 0 255 0
2.200000 -18.049999 21.490000 0 255 0
1.741300 -17.720699 -5.894000 0 255 255
2.520000 -18.920000 8.900000 0 255 0
1.135000 -18.709999 -5.040000 0 255 0
1.360000 -18.309999 -4.020000 255 0 0
1.344000 -18.260000 -0.888000 255 0 0
1.547500 -18.072500 -4.957500 0 255 0
0.620000 -18.230000 11.305000 0 255 0
0.705000 -17.865000 9.910000 0 255 0
1.436700 -17.626699 -5.788300 0 255 255
0.640000 -18.520000 -6.230000 0 255 0
