-0.510000 -12.290000 -4.630000 0 255 255
-0.340000 -12.770000 17.980000 0 255 0
-0.358800 -12.370000 -4.942500 0 255 0
1.442000 -13.266000 18.462000 0 255 0
-0.400000 -12.770000 11.680000 0 255 0
0.032000 -13.472000 13.962000 0 255 0
-0.500000 -12.676700 15.923300 0 255 0
-0.240000 -12.280000 18.290001 0 255 0
-0.270000 -12.760000 23.695000 0 255 0
-0.456300 -12.661300 10.866200 0 255 0
-0.630000 -12.590000 -3.380000 0 255 255
-0.600000 -12.823300 12.123300 0 255 0
-0.425000 -12.022500 8.777500 0 255 0
-0.510000 -12.800000 18.389999 0 255 0
-0.520000 -13.180000 18.280001 0 255 0
-0.506000 -12.872000 11.902000 0 255 0
-0.475000 -13.155000 11.865000 0 255 0
-0.446700 -12.810000 15.160000 0 255 0
-0.200000 -12.120000 19.080000 0 255 0
-0.220000 -12.450000 9.180000 0 255 0
-0.190000 -12.040000 19.190001 0 255 0
-0.260000 -12.380000 9.165000 0 255 0
0.842900 -12.862900 9.022900 0 255 0
-0.220000 -12.040000 19.090000 0 255 0
-0.841700 -12.328300 -4.345000 0 255 255
-0.406700 -11.970000 9.006700 0 255 0
-0.350000 -12.468000 10.472000 0 255 0
-0.500000 -12.970000 -2.990000 0 255 255
1.530000 -13.315000 23.320000 0 255 0
-0.790000 -12.470000 9.610000 0 255 0
0.472200 -12.858900 -1.096700 255 0 0
0.490500 -13.618100 9.306200 0 255 0
-0.240000 -12.620000 -4.660000 0 255 0
0.481400 -12.767100 4.212900 255 0 0
0.505000 -12.655000 10.720000 255 0 0
0.485000 -12.740000 13.875000 255 0 0
-0.260000 -12.380000 19.200001 0 255 0
-0.406700 -13.276700 13.600000 0 255 0
0.326700 -12.306700 6.146700 0 255 0
0.003300 -12.480000 -4.230000 255 0 0
-0.007800 -11.974400 14.766700 0 255 0
0.176700 -11.770000 14.866700 0 255 0
0.380000 -12.440000 5.630000 255 0 0
0.340000 -13.920000 23.670000 0 255 0
0.332200 -11.956700 -4.086700 0 255 255
0.350000 -13.880000 23.670000 0 255 0
0.345000 -11.915000 -4.133800 0 255 255
0.030000 -12.740000 2.040000 255 0 0
-0.105000 -12.575000 -4.350000 255 0 0
0.050000 -11.970000 -4.110000 0 255 255
0.030000 -13.360000 10.970000 0 255 0
-0.230000 -11.915000 -4.205000 0 255 255
-0.110000 -12.220000 -4.190000 0 255 0
0.300000 -13.610000 9.060000 0 255 0
0.282200 -13.678900 12.314400 0 255 0
0.236700 -11.873300 -3.940000 0 255 255
-0.350000 -12.820000 23.510000 0 255 0
-0.262000 -12.772000 23.612000 0 255 0
-0.110000 -12.050000 -3.975000 0 255 255
-0.013300 -13.424200 9.212500 0 255 0
0.189100 -13.617300 9.211800 0 255 0
0.191300 -13.672700 12.353300 0 255 0
-0.440000 -13.140000 18.610001 0 255 0
-0.450000 -12.800000 11.675000 0 255 0
0.080000 -12.440000 -4.680000 255 0 0
-0.460000 -13.000000 18.264999 0 255 0
-0.590000 -12.860000 12.120000 0 255 0
0.126000 -11.782500 -4.084500 0 255 255
-0.520000 -13.000000 18.219999 0 255 0
-0.650000 -12.110000 8.720000 0 255 0
-0.616200 -12.872900 11.904800 0 255 0
-0.590000 -12.975000 18.400000 0 255 0
-0.626700 -12.815000 11.961700 0 255 0
0.030000 -11.400000 5.840000 0 255 0
-0.556700 -12.863300 12.003300 0 255 0
-0.565000 -12.977500 18.309999 0 255 0
-0.565000 -12.811700 15.261700 0 255 0
-0.540000 -12.800000 15.220000 0 255 0
-0.565000 -12.875000 12.065000 0 255 0
0.000000 -12.530000 -3.400000 255 0 0
-0.070000 -12.630000 -3.620000 255 0 0
-0.080000 -12.270000 19.200001 0 255 0
-0.270000 -11.450000 -4.280000 0 255 255
-0.243300 -12.016700 12.143300 0 255 0
-0.807500 -12.162500 8.862500 0 255 0
0.035000 -11.425000 5.800000 0 255 0
-0.257100 -12.404300 9.150000 0 255 0
1.447500 -13.018700 8.461900 0 255 0
-0.510000 -13.426700 13.910000 0 255 0
-0.520000 -13.183300 -3.283300 0 255 255
-0.360000 -12.450000 9.120000 0 255 0
-0.380000 -12.315000 18.889999 0 255 0
-0.310000 -12.020000 9.390000 0 255 0
-0.413500 -12.571200 6.455900 0 255 0
-0.855000 -13.225000 -5.332500 0 255 255
0.201200 -13.165000 -0.401200 0 255 0
1.186700 -12.324400 22.508900 0 255 0
0.010000 -12.320000 13.860000 0 255 0
-0.011400 -12.431400 -4.887900 255 0 0
-0.051400 -12.569700 -4.190800 255 0 0
0.139100 -12.268200 -4.934500 0 255 0
0.145000 -13.450000 21.165001 0 255 0
1.136700 -12.360000 -5.190000 0 255 255
1.240000 -12.620000 24.200001 0 255 0
1.260000 -12.510000 17.730000 0 255 0
1.120000 -12.980000 15.920000 0 255 0
1.190000 -13.370000 24.049999 0 255 0
1.610000 -13.560000 23.590000 0 255 0
0.480000 -12.810000 21.860001 0 255 0
-0.015000 -13.175000 14.960000 0 255 0
0.000000 -13.500000 11.560000 0 255 0
-0.109000 -12.164000 11.522000 0 255 0
-0.066700 -12.020000 -4.093300 0 255 255
-0.070000 -12.010000 -4.120000 0 255 255
0.089300 -13.524300 9.302100 0 255 0
0.055000 -11.970000 -4.060000 0 255 255
0.023300 -13.366700 11.013300 0 255 0
-0.030000 -12.065000 -4.150000 0 255 255
0.005000 -13.461700 9.301700 0 255 0
0.300000 -13.766700 12.466700 0 255 0
0.286300 -13.719400 9.307500 0 255 0
0.305000 -13.610000 15.810000 0 255 0
0.360000 -12.570000 24.320000 0 255 0
0.143300 -12.130000 -4.076700 0 255 255
-0.009300 -12.619300 -3.790600 0 255 0
0.180000 -13.710000 18.910000 0 255 0
0.190000 -13.610000 12.600000 0 255 0
-0.055000 -13.475000 13.921700 0 255 0
0.148600 -12.320000 -4.051400 0 255 0
0.400000 -13.857500 12.310000 0 255 0
0.010000 -12.010000 -3.950000 0 255 255
-0.002500 -13.420000 9.112500 0 255 0
0.033300 -13.370000 14.013300 0 255 0
0.100000 -12.020000 22.170000 0 255 0
-0.420000 -12.370000 18.350000 0 255 0
-0.415600 -12.028900 -4.591100 0 255 255
0.096700 -11.730000 -4.086700 0 255 255
-0.100000 -12.560000 8.980000 0 255 0
-0.100000 -11.990000 19.219999 0 255 0
-0.090000 -11.930000 15.970000 0 255 0
-0.220000 -12.070000 19.139999 0 255 0
-0.170000 -12.540000 8.980000 0 255 0
-0.310000 -12.425000 9.140000 0 255 0
-0.190000 -12.130000 19.320000 0 255 0
1.075000 -13.085000 18.514999 0 255 0
-0.040000 -12.570000 -3.650000 255 0 0
0.025000 -11.415000 5.775000 0 255 0
-0.280000 -11.480000 -4.370000 0 255 255
-0.410000 -11.980000 9.060000 0 255 0
-0.204000 -11.862400 -3.852600 0 255 255
-0.146700 -12.370000 14.450000 0 255 0
-0.418800 -12.020000 9.368800 0 255 0
-0.140000 -11.840000 16.110001 0 255 0
0.300000 -12.860000 4.100000 255 0 0
0.289600 -12.955800 -2.189000 0 255 0
0.446700 -12.973300 -5.436700 0 255 0
0.570000 -13.830000 24.070000 0 255 0
0.053300 -12.723300 -1.003300 255 0 0
0.043300 -12.663300 2.166700 255 0 0
-0.498800 -12.123700 8.670000 0 255 0
1.190000 -13.150000 14.410000 0 255 0
0.290000 -12.240000 13.060000 0 255 0
-0.520000 -12.140000 13.060000 0 255 0
-0.290000 -13.570000 17.270000 0 255 0
0.587000 -12.020000 -5.087400 0 255 255
0.735000 -12.880000 22.559999 255 0 0
0.930000 -13.813300 24.053301 0 255 0
1.337500 -12.530000 9.705000 0 255 0
0.360000 -12.170000 13.040000 0 255 0
0.610000 -12.640000 14.360000 255 0 0
0.593300 -12.666700 17.613300 0 255 0
0.575000 -12.570000 11.095000 255 0 0
0.585000 -12.705000 20.924999 0 255 0
0.745000 -13.630000 17.750000 0 255 0
0.090000 -12.330000 22.170000 0 255 0
0.104000 -12.610000 2.550000 255 0 0
0.160000 -12.490000 1.810000 255 0 0
0.220000 -12.720000 7.330000 255 0 0
0.223300 -12.776700 4.163300 255 0 0
-0.450000 -13.365000 -3.350000 0 255 255
0.075000 -12.065000 -4.090000 0 255 255
0.010000 -12.070000 -3.940000 0 255 255
-0.006700 -11.966700 -4.053300 0 255 255
-0.010000 -13.460000 12.290000 0 255 0
-0.012900 -13.415700 9.167100 0 255 0
0.092500 -12.155000 -3.977500 0 255 255
0.192400 -12.020000 -3.930700 0 255 255
0.285000 -12.165000 -3.890000 0 255 255
0.010000 -12.120000 18.910000 0 255 0
-0.270000 -12.563300 6.450000 0 255 0
-0.130000 -12.590000 8.930000 0 255 0
-0.090000 -12.020000 19.250000 0 255 0
0.140000 -11.650000 12.010000 0 255 0
-0.100000 -12.630000 -3.620000 255 0 0
0.190000 -12.270000 15.740000 0 255 0
0.191400 -12.220700 -3.758600 0 255 0
0.236700 -12.433300 15.670000 0 255 0
0.244300 -12.114300 -4.140000 0 255 255
0.144200 -11.567500 12.017500 0 255 0
-0.290000 -12.570000 19.010000 0 255 0
-0.306700 -11.972200 12.104400 0 255 0
-0.312500 -11.871200 12.098700 0 255 0
-0.265000 -11.980000 12.165000 0 255 0
-0.120000 -12.580000 9.100000 0 255 0
-0.350000 -11.575000 -4.290000 0 255 255
0.036000 -11.372000 5.768000 0 255 0
-0.190000 -12.030000 18.969999 0 255 0
-0.220000 -12.030000 18.990000 0 255 0
-0.490000 -13.400000 13.850000 0 255 0
0.180000 -12.590000 18.480000 0 255 0
-0.260000 -12.230000 17.790001 0 255 0
0.080000 -11.716000 16.162001 0 255 0
-0.198500 -11.872700 -4.025800 0 255 255
0.060000 -12.600000 5.020000 255 0 0
0.000000 -12.620700 9.770000 0 255 0
-0.010000 -12.914000 -5.186000 0 255 0
-0.258800 -12.473800 -4.992500 0 255 0
-0.260000 -13.035000 11.570000 0 255 0
-0.270000 -12.920000 17.870001 0 255 0
0.370000 -12.660000 24.219999 0 255 0
0.323300 -12.776700 -4.528300 255 0 0
0.535900 -11.824100 11.460000 0 255 0
0.578000 -11.578000 11.560000 0 255 0
1.051700 -13.613300 14.958300 0 255 0
-0.760000 -11.690000 -3.980000 0 255 255
1.380000 -13.490000 23.389999 0 255 0
1.600000 -12.940000 16.360001 0 255 0
0.520000 -11.840000 5.250000 0 255 0
0.587600 -11.522400 11.865900 0 255 0
0.550000 -12.790000 -1.260000 255 0 0
0.536700 -12.660000 5.256700 255 0 0
0.540000 -12.590000 11.820000 255 0 0
0.526700 -12.713300 2.123300 255 0 0
0.536300 -12.621200 8.660000 255 0 0
0.231700 -11.968300 -4.790000 0 255 255
1.380000 -12.590000 15.180000 0 255 0
0.450000 -13.780000 -5.280000 0 255 255
0.980000 -13.340000 23.160000 0 255 0
1.210000 -12.400000 -5.125000 0 255 255
0.541300 -13.370000 9.210000 0 255 0
0.542300 -13.367700 9.360800 0 255 0
0.200000 -11.560000 11.860000 0 255 0
0.200000 -11.610000 14.770000 0 255 0
0.030000 -12.805000 -1.225000 255 0 0
0.320000 -12.140000 -3.980000 0 255 255
0.397500 -12.730000 6.058700 255 0 0
0.387100 -12.171900 -3.837400 0 255 255
-0.470000 -11.780000 -5.020000 0 255 255
0.620000 -12.790000 13.620000 255 0 0
0.640000 -12.800000 23.150000 0 255 0
0.650000 -12.730000 16.840000 255 0 0
0.590000 -12.930000 20.889999 255 0 0
0.580000 -12.950000 24.059999 0 255 0
-0.750000 -12.170000 8.790000 0 255 0
-0.700000 -13.390000 -4.280000 0 255 255
0.083300 -13.513300 14.860000 0 255 0
0.100000 -13.475000 11.701200 0 255 0
-0.010000 -12.140000 18.980000 0 255 0
-0.368000 -12.562000 10.108000 0 255 0
0.010000 -13.360000 9.130000 0 255 0
0.010000 -11.990000 -3.920000 0 255 255
0.180000 -11.840000 -4.090000 0 255 255
0.170000 -13.690000 12.590000 0 255 0
0.185000 -13.605000 9.355000 0 255 0
0.175000 -13.630000 12.565000 0 255 0
0.295000 -12.160000 -4.140000 0 255 255
0.239800 -12.064900 -3.886400 0 255 255
0.540000 -11.690000 11.940000 0 255 0
-0.130000 -12.200000 19.010000 0 255 0
-0.120000 -12.260000 19.330000 0 255 0
0.200000 -12.360000 6.060000 255 0 0
-0.313300 -11.770000 11.950000 0 255 0
0.130000 -13.570000 -5.140000 0 255 255
-0.080000 -12.360000 23.650000 0 255 0
-1.080000 -12.920000 -5.160000 0 255 255
-0.310000 -13.820000 -5.190000 0 255 255
-1.020000 -12.950000 -5.360000 0 255 255
-0.066000 -11.768000 14.018000 0 255 0
0.382500 -13.315000 -4.875000 0 255 255
0.054000 -12.879000 -0.687000 0 255 0
-0.355000 -13.225000 11.995000 0 255 0
-0.120000 -12.070000 11.740000 0 255 0
-0.098000 -12.627000 -4.442000 0 255 0
0.186700 -13.763300 9.453300 0 255 0
-0.376700 -13.380000 14.006700 0 255 0
0.036700 -13.320000 11.676700 0 255 0
0.030000 -13.290000 14.830000 0 255 0
0.430000 -13.910000 22.719999 0 255 0
1.160000 -11.900000 16.980000 0 255 0
-0.516000 -12.922000 -5.148000 0 255 255
0.370000 -12.190000 21.250000 0 255 0
0.260000 -12.750000 14.290000 255 0 0
0.236700 -12.606700 11.073300 255 0 0
0.220000 -12.570000 1.260000 255 0 0
0.226700 -12.505000 4.513300 255 0 0
-0.092500 -12.760000 -4.240000 255 0 0
1.140000 -12.055000 17.004999 0 255 0
-1.012500 -12.925000 -4.940000 0 255 255
0.600000 -12.620000 11.210000 255 0 0
0.570000 -12.670000 14.350000 255 0 0
0.585000 -12.727500 17.757500 255 0 0
0.210000 -13.840000 15.210000 0 255 0
1.190000 -12.755000 15.105000 0 255 0
0.537400 -12.317200 7.057900 0 255 0
0.290000 -13.210000 16.260000 0 255 0
0.180000 -13.370000 -5.610000 0 255 255
0.480000 -12.790000 23.809999 0 255 0
1.254000 -12.830000 8.272000 0 255 0
-0.000300 -11.819700 -4.745700 0 255 255
1.060000 -13.210000 24.139999 0 255 0
0.988300 -12.825000 -5.195000 0 255 255
1.389200 -13.165800 8.611700 0 255 0
-0.790000 -11.890000 -4.970000 0 255 255
0.000000 -13.390000 11.800000 0 255 0
-0.358900 -13.223300 11.770000 0 255 0
0.786000 -13.620000 14.854000 0 255 0
0.340000 -12.380000 8.960000 255 0 0
0.350000 -12.570000 21.969999 0 255 0
0.300000 -12.525000 15.630000 0 255 0
0.280000 -12.420000 22.129999 0 255 0
0.241200 -12.220000 -3.995000 0 255 0
0.238900 -12.463100 6.307400 255 0 0
0.270000 -12.060000 -3.980000 0 255 255
0.288000 -12.564000 15.618000 0 255 0
0.140000 -11.900000 -3.880000 0 255 255
0.154000 -11.612000 11.964000 0 255 0
0.234000 -12.716000 12.014000 0 255 0
0.248600 -12.531400 -0.633800 255 0 0
0.247700 -12.555900 -3.786400 255 0 0
0.270000 -12.700000 -3.800000 255 0 0
0.450000 -12.930000 16.080000 255 0 0
0.460000 -12.860000 19.200001 255 0 0
0.443900 -13.214600 9.308900 0 255 0
0.535000 -13.781300 12.608800 0 255 0
0.530000 -13.570000 15.040000 0 255 0
0.270000 -12.240000 13.020000 0 255 0
0.250000 -12.750000 6.765000 255 0 0
0.242000 -12.722000 9.920000 255 0 0
0.244600 -12.536000 -3.138300 0 255 0
0.190000 -13.710000 23.959999 0 255 0
0.055000 -12.710000 3.740000 255 0 0
0.056300 -12.633700 -2.734400 255 0 0
0.425000 -12.685000 16.010000 255 0 0
0.430000 -12.710000 12.760000 255 0 0
0.410000 -12.380000 7.220000 0 255 0
-1.111400 -13.064300 -4.791400 0 255 255
0.340000 -12.726000 -5.286700 0 255 0
0.350000 -12.670000 -2.130000 255 0 0
0.370000 -13.470000 17.889999 0 255 0
0.387800 -13.123900 -5.030400 0 255 0
0.290000 -12.530000 23.260000 0 255 0
0.430000 -12.850000 17.610001 255 0 0
-0.300000 -12.570000 8.440000 0 255 0
0.460000 -13.460000 17.760000 0 255 0
0.448900 -13.230000 -4.977800 0 255 0
-1.007000 -12.913000 -4.836000 0 255 255
0.580000 -11.740000 -4.810000 0 255 255
-0.071900 -12.715000 -4.337800 0 255 0
0.610000 -13.300000 24.400000 0 255 0
0.583000 -11.618000 11.518000 0 255 0
0.373300 -13.633300 -5.456700 0 255 255
0.660000 -11.640000 14.750000 0 255 0
0.660000 -11.670000 11.520000 0 255 0
-0.250000 -12.190000 17.590000 0 255 0
-0.500000 -12.884000 -3.294000 0 255 255
-0.255400 -11.920000 12.060000 0 255 0
-0.375000 -11.805000 -4.085000 0 255 255
1.100000 -12.080000 14.458600 0 255 0
1.183300 -12.570000 24.356701 0 255 0
0.485500 -13.718200 9.353600 0 255 0
0.520000 -13.690000 12.420000 0 255 0
0.539000 -13.723000 9.273000 0 255 0
1.040000 -12.180000 23.340000 0 255 0
0.531700 -13.118300 -4.995000 0 255 0
0.420000 -12.440000 8.870000 255 0 0
1.296700 -12.613300 24.196699 0 255 0
0.210000 -13.060000 -5.210000 0 255 0
0.955000 -12.315000 14.505000 0 255 0
0.990000 -13.050000 17.655001 0 255 0
1.000000 -13.190000 24.139999 0 255 0
0.510000 -13.180000 24.270000 0 255 0
1.340000 -12.930000 9.660000 0 255 0
1.343300 -12.813300 15.800000 0 255 0
0.135300 -12.882900 -4.391000 255 0 0
0.122000 -12.826000 -1.044000 255 0 0
0.147900 -12.774200 2.106800 255 0 0
0.286900 -11.823800 -4.781700 0 255 255
0.580000 -12.580000 11.570000 255 0 0
0.600000 -12.520000 8.430000 0 255 0
0.610000 -12.670000 17.870001 255 0 0
0.151700 -12.708300 5.273300 255 0 0
-0.420000 -12.360000 18.405001 0 255 0
-0.403300 -12.626700 8.600000 0 255 0
0.730000 -12.874000 21.865999 255 0 0
0.810000 -12.730000 22.280001 0 255 0
0.560000 -12.810000 2.100000 255 0 0
0.520000 -12.710000 8.410000 255 0 0
0.540000 -12.667500 11.562500 255 0 0
0.870000 -12.830000 12.090000 0 255 0
0.510000 -13.640000 12.260000 0 255 0
0.500000 -12.880000 2.350000 255 0 0
-0.056600 -12.269300 -4.902400 0 255 0
0.350000 -13.060000 -0.200000 0 255 0
0.080000 -12.010000 14.790000 0 255 0
0.030000 -12.260000 19.014999 0 255 0
0.833300 -12.826700 -5.470000 0 255 255
-0.100000 -13.920000 -5.060000 0 255 255
0.760000 -12.480000 -4.090000 0 255 255
0.736700 -11.786700 15.250000 0 255 0
1.410000 -13.280000 16.790001 0 255 0
1.405000 -13.350000 23.570000 0 255 0
-0.710000 -12.120000 6.645000 0 255 0
0.630000 -11.610000 12.110000 0 255 0
0.175000 -12.650000 9.695000 255 0 0
0.176700 -12.630000 6.543300 255 0 0
0.190000 -12.740000 12.850000 255 0 0
0.185700 -12.559300 3.362300 255 0 0
0.192900 -12.531200 0.212000 255 0 0
0.445000 -12.380000 9.810000 0 255 0
0.143300 -13.731100 12.316700 0 255 0
-0.620000 -13.125000 -3.180000 0 255 255
-0.260000 -12.530000 6.350000 0 255 0
0.470000 -12.520000 -4.520000 0 255 0
-0.520000 -13.120000 13.570000 0 255 0
0.590000 -13.570000 24.055000 0 255 0
-0.016700 -13.726700 12.770000 0 255 0
0.946700 -11.856700 23.703300 0 255 0
0.983300 -12.083300 23.706699 0 255 0
0.490000 -12.573800 6.455000 255 0 0
0.506700 -12.616700 9.593300 255 0 0
0.488800 -12.721200 3.457400 255 0 0
0.487000 -12.670800 0.312000 0 255 0
-0.550000 -12.965000 17.000000 0 255 0
1.040800 -12.926700 9.705000 0 255 0
1.280000 -13.370000 23.490000 0 255 0
0.500000 -11.810000 16.205000 0 255 0
0.570000 -12.820000 -0.760000 255 0 0
0.278800 -12.176200 -3.781300 0 255 255
0.700000 -12.230000 18.480000 0 255 0
0.730000 -13.110000 19.520000 0 255 0
-0.016700 -13.256700 19.160000 0 255 0
0.310000 -12.990000 16.160000 0 255 0
0.480000 -12.750000 7.840000 255 0 0
0.493300 -12.713300 17.406700 255 0 0
0.490000 -12.655600 14.165600 255 0 0
0.525000 -12.680000 17.315001 255 0 0
0.560000 -12.590000 23.879999 0 255 0
0.543300 -12.773300 10.800000 255 0 0
0.531700 -12.728300 14.056700 255 0 0
0.790000 -11.840000 20.020000 0 255 0
0.802900 -12.068600 10.127100 0 255 0
1.402300 -12.165400 -4.652300 0 255 255
0.940500 -13.663500 9.711000 0 255 0
1.448300 -13.275000 16.458300 0 255 0
0.996700 -12.913300 14.940000 0 255 0
1.030000 -13.016700 23.066700 0 255 0
0.820000 -13.110000 7.980000 0 255 0
0.940600 -12.869400 -5.141900 0 255 255
0.970000 -11.980000 23.510000 0 255 0
0.995000 -11.840000 13.740000 0 255 0
1.300000 -12.210000 -5.160000 0 255 255
0.595000 -13.817500 -5.540000 0 255 255
0.945000 -12.725000 -5.400000 0 255 255
0.442500 -12.817500 17.150000 255 0 0
0.460000 -12.730000 10.850000 255 0 0
0.442500 -12.670000 14.110000 255 0 0
0.241200 -13.018800 -0.295000 0 255 0
0.243300 -13.316700 19.666700 0 255 0
0.525000 -12.675000 6.550000 255 0 0
0.520000 -12.580000 12.925000 255 0 0
0.523300 -12.723300 3.406700 255 0 0
0.541300 -12.612500 9.751200 255 0 0
0.350000 -11.940000 19.530001 0 255 0
0.360000 -11.970000 16.350000 0 255 0
1.480000 -12.230000 22.020000 0 255 0
0.679200 -13.369200 -5.248500 0 255 255
1.375000 -13.305000 8.512500 0 255 0
1.378300 -13.420000 14.798300 0 255 0
0.751700 -11.516700 -4.605000 0 255 255
0.750000 -13.885000 23.889999 0 255 0
0.888000 -13.766000 17.612000 0 255 0
0.697000 -12.037000 -3.994000 0 255 255
0.340000 -12.740000 5.600000 255 0 0
0.335500 -12.617300 12.108200 255 0 0
0.343000 -12.862000 2.507000 0 255 0
0.343200 -12.936400 -0.645600 255 0 0
0.341000 -13.166000 9.262500 0 255 0
0.770000 -13.710000 23.940001 0 255 0
0.635000 -13.375000 9.315000 0 255 0
0.577500 -13.660000 24.049999 0 255 0
0.820000 -13.880000 15.810000 0 255 0
0.840000 -12.962500 18.402500 0 255 0
0.740000 -12.820000 19.450001 255 0 0
0.627500 -11.778800 5.127500 0 255 0
0.170000 -11.630000 12.220000 0 255 0
0.170000 -11.600000 12.240000 0 255 0
0.105000 -13.505000 14.725000 0 255 0
0.550000 -12.780000 18.559999 255 0 0
0.290000 -12.615000 -3.085000 255 0 0
1.120000 -11.900000 13.740000 0 255 0
0.230000 -13.710000 22.440001 0 255 0
0.530000 -12.620000 16.330000 0 255 0
0.543300 -12.666700 12.815600 255 0 0
0.538200 -12.719100 9.560000 255 0 0
0.495000 -11.820000 19.760000 0 255 0
0.390000 -12.440000 4.010000 255 0 0
0.340000 -12.566000 10.944000 255 0 0
0.540000 -12.810000 20.350000 255 0 0
0.530000 -12.790000 23.590000 0 255 0
0.540000 -12.780000 20.420000 0 255 0
0.560000 -12.810000 17.180000 255 0 0
0.685000 -13.785000 -5.525000 0 255 255
0.683700 -13.420000 9.312500 0 255 0
0.841100 -11.720000 14.657800 0 255 0
0.543300 -13.030000 20.856701 0 255 0
0.520000 -12.950000 24.000000 0 255 0
0.630000 -12.070000 -4.070000 0 255 255
0.110000 -13.076700 10.810000 0 255 0
0.740000 -13.666700 23.603300 0 255 0
0.388900 -12.282200 -4.035600 0 255 0
0.380000 -12.432000 5.502000 255 0 0
0.520000 -13.340000 12.060000 0 255 0
0.536000 -11.624000 -4.696000 0 255 255
0.240000 -12.672500 11.960000 255 0 0
0.245600 -12.522200 8.360300 255 0 0
0.220000 -12.440000 2.160000 255 0 0
0.250000 -12.674000 11.662000 255 0 0
0.248000 -12.516000 8.653300 255 0 0
0.610000 -11.900000 15.080000 0 255 0
0.620000 -11.610000 12.170000 0 255 0
0.800000 -11.930000 15.600000 0 255 0
-0.310000 -13.350000 -5.570000 0 255 255
1.200000 -12.630000 24.090000 0 255 0
1.200000 -12.460000 17.830000 0 255 0
1.186700 -12.556700 24.126699 0 255 0
1.570000 -12.880000 15.710000 0 255 0
0.170000 -13.660000 20.610001 0 255 0
-0.140000 -13.580000 12.450000 0 255 0
-0.656000 -12.376000 -4.246000 0 255 255
0.490000 -12.666700 15.366700 255 0 0
0.495000 -12.820000 12.305000 255 0 0
0.310000 -12.185000 24.065001 0 255 0
-0.025000 -12.480000 9.100000 0 255 0
-0.025400 -12.663300 -3.941300 0 255 0
-0.061000 -12.019000 -4.949000 0 255 255
-0.080000 -12.130000 14.420000 0 255 0
0.042500 -12.857500 -2.980000 255 0 0
0.810000 -11.970000 7.200000 0 255 0
1.550000 -12.676700 12.746700 0 255 0
1.550000 -12.320000 9.570000 0 255 0
0.120000 -11.870000 -3.900000 0 255 255
0.138300 -11.608300 12.010000 0 255 0
0.035000 -11.825000 18.315001 0 255 0
0.232200 -11.566100 -4.798300 0 255 255
0.330000 -13.020000 22.660000 0 255 0
0.330000 -12.950000 0.280000 255 0 0
0.330000 -12.840000 10.030000 0 255 0
0.490000 -13.330000 -5.440000 0 255 255
0.550000 -12.420000 -4.550000 0 255 0
0.537500 -12.132500 15.017500 0 255 0
-0.004300 -12.537100 6.205700 0 255 0
1.170000 -13.140000 18.469999 0 255 0
0.124300 -12.007100 -4.135700 0 255 255
0.140000 -13.340000 14.070000 0 255 0
0.803300 -13.610000 23.963301 0 255 0
1.150000 -12.230000 14.560000 0 255 0
0.530000 -13.360000 9.295000 0 255 0
0.277500 -12.265000 22.012501 0 255 0
0.530000 -13.420000 9.610000 0 255 0
1.560000 -13.360000 23.490000 0 255 0
0.292500 -12.375000 6.205000 255 0 0
1.300000 -12.255000 14.560000 0 255 0
0.695000 -11.610000 14.620000 0 255 0
0.705000 -11.455000 5.230000 0 255 0
0.170000 -11.960000 14.880000 0 255 0
1.140000 -12.917500 24.410000 0 255 0
0.046700 -12.666700 2.016700 255 0 0
0.058600 -12.714300 -1.241400 255 0 0
0.644500 -12.120000 -3.950000 0 255 255
-0.102800 -13.122100 7.866200 0 255 0
1.360000 -11.965000 16.200001 0 255 0
0.142300 -12.621300 -0.240000 255 0 0
0.148500 -12.575800 3.013100 255 0 0
0.144000 -12.523200 6.315600 255 0 0
-0.060000 -12.815000 -0.140000 0 255 0
1.386700 -12.410000 -5.083300 0 255 255
-0.463300 -13.406700 -4.596700 0 255 255
-0.670000 -12.326700 10.460000 0 255 0
-0.650000 -12.772000 15.820000 0 255 0
-0.515000 -12.575000 18.315001 0 255 0
-0.520000 -12.250000 8.910000 0 255 0
1.035000 -13.065000 23.170000 0 255 0
0.320000 -12.030000 -3.850000 0 255 255
0.342500 -12.573800 12.612500 255 0 0
-0.415000 -13.220000 -5.440000 0 255 255
0.395000 -12.925000 18.945000 0 255 0
0.400000 -11.965000 -4.730000 0 255 255
0.387300 -11.824500 -4.992700 0 255 255
0.410000 -12.800000 -0.760000 255 0 0
0.379000 -12.762700 -3.891200 0 255 0
0.380700 -12.487100 2.660700 255 0 0
0.398600 -12.613600 12.312900 255 0 0
0.397300 -12.505300 5.812700 0 255 0
0.390000 -12.560000 9.140000 255 0 0
1.080000 -12.850000 16.209999 0 255 0
1.085000 -12.965000 9.925000 0 255 0
1.140000 -13.175000 18.605000 0 255 0
0.875000 -12.025000 -4.910000 0 255 255
0.685000 -12.920000 21.405001 255 0 0
0.590000 -12.175000 -5.182500 0 255 255
0.225000 -13.925000 -5.245000 0 255 255
-0.105000 -11.680000 13.705000 0 255 0
0.470000 -12.700000 24.190001 0 255 0
0.500000 -12.660000 20.950001 0 255 0
0.500000 -12.820000 17.889999 255 0 0
0.510000 -12.770000 14.670000 255 0 0
0.493300 -13.870000 15.716700 0 255 0
0.520000 -13.530000 24.360001 0 255 0
0.530000 -12.860000 14.180000 255 0 0
-0.610000 -12.480000 10.410000 0 255 0
0.200000 -11.860000 18.065001 0 255 0
0.170000 -11.815000 14.810000 0 255 0
-0.770000 -12.222000 -4.378000 0 255 255
0.630000 -12.670000 9.000000 0 255 0
0.636700 -12.873300 21.653299 255 0 0
0.630000 -12.713300 18.309999 255 0 0
-0.416700 -11.860000 12.166700 0 255 0
-0.021100 -12.604400 -4.141100 255 0 0
-0.175500 -11.867300 -3.932700 0 255 255
1.190000 -12.125000 13.340000 0 255 0
-0.025000 -12.865000 14.925000 0 255 0
-0.006900 -13.514400 11.656900 0 255 0
-0.560000 -12.720000 12.050000 0 255 0
0.343800 -12.863800 2.310800 255 0 0
0.345000 -12.934400 -0.835600 255 0 0
0.342900 -12.815700 5.464300 255 0 0
-0.761500 -12.370600 6.557900 0 255 0
-0.313300 -12.523300 -5.120000 0 255 0
0.340000 -12.890000 23.070000 0 255 0
0.283500 -12.507500 3.455000 255 0 0
1.300000 -12.450000 10.170000 0 255 0
0.570000 -12.760000 -0.490000 255 0 0
0.570000 -12.800000 2.860000 255 0 0
0.232500 -11.827500 18.205000 0 255 0
-0.868200 -13.410000 -3.337300 0 255 255
0.500000 -13.790000 23.469999 0 255 0
0.546700 -12.773300 -4.796700 0 255 0
0.530000 -12.670000 1.697500 255 0 0
0.537500 -12.580000 8.261700 255 0 0
-0.913300 -13.083300 -4.546700 0 255 255
-0.920000 -12.815000 -4.770000 0 255 255
1.252500 -11.722500 9.007500 0 255 0
0.420000 -13.910000 15.700000 0 255 0
0.856700 -11.673300 7.203300 0 255 0
0.180000 -12.722500 3.772500 255 0 0
0.182500 -12.755000 6.917500 255 0 0
0.185000 -12.605000 -2.755000 255 0 0
0.590100 -11.967400 -4.336400 0 255 255
0.738000 -11.818000 -4.892000 0 255 255
0.633300 -11.730000 -4.840000 0 255 255
0.695000 -13.360000 14.840000 0 255 0
0.898200 -13.620000 14.664500 0 255 0
0.834000 -13.828000 14.618000 0 255 0
1.060000 -12.230000 13.220000 0 255 0
1.120000 -12.380000 13.040000 0 255 0
0.690000 -13.750000 23.750000 0 255 0
0.320000 -12.450000 15.750000 0 255 0
0.360000 -12.540000 12.730000 255 0 0
0.335000 -12.373800 -3.998700 0 255 0
0.320000 -12.560000 9.450000 255 0 0
0.280000 -12.467500 -3.845000 255 0 0
0.300000 -12.617500 -3.895000 255 0 0
0.541400 -13.217600 9.310000 0 255 0
0.350000 -12.700000 -0.530000 255 0 0
0.355900 -12.773500 -3.791200 255 0 0
0.295000 -13.165000 9.157500 0 255 0
0.285800 -12.865000 2.618300 255 0 0
0.700000 -13.470000 23.940001 0 255 0
0.540000 -13.667800 9.258300 0 255 0
0.590000 -12.575000 20.955000 0 255 0
0.580000 -12.610000 24.129999 0 255 0
0.240000 -13.760000 22.639999 0 255 0
0.136700 -13.470000 19.799999 0 255 0
0.286000 -13.616000 14.802000 0 255 0
0.280000 -13.660000 14.450000 0 255 0
0.200000 -11.800000 13.295000 0 255 0
0.200000 -11.950000 22.850000 0 255 0
0.440000 -12.440000 6.790000 255 0 0
0.420000 -13.990000 22.410000 0 255 0
0.220000 -11.890000 16.850000 0 255 0
0.260000 -11.730000 13.470000 0 255 0
0.900000 -11.760000 18.650000 0 255 0
0.335000 -11.980000 13.180000 0 255 0
0.360000 -11.890000 19.469999 0 255 0
1.400000 -12.170000 23.740000 0 255 0
0.290000 -13.900000 23.600000 0 255 0
0.740000 -13.400000 24.010000 0 255 0
0.406700 -12.433300 7.353300 255 0 0
0.746700 -13.410000 23.959999 0 255 0
0.400000 -12.433300 7.393300 255 0 0
0.178600 -12.721400 4.348600 255 0 0
0.195000 -12.750000 7.510000 255 0 0
0.180000 -12.601300 -2.142700 255 0 0
0.540000 -13.115000 20.325001 0 255 0
0.540000 -13.090000 23.440001 0 255 0
0.375000 -12.265000 -4.995000 0 255 0
0.375000 -12.430000 4.455000 255 0 0
0.380000 -12.800000 16.920000 255 0 0
0.385700 -12.082900 -5.087900 0 255 255
0.530000 -12.730000 15.070000 255 0 0
0.537500 -12.770000 11.827500 255 0 0
0.550000 -12.685000 18.305000 255 0 0
0.539100 -12.217000 -4.886000 0 255 255
0.180000 -12.660000 -1.810000 255 0 0
0.173300 -12.770000 4.716700 255 0 0
0.557500 -12.017500 -4.847500 0 255 255
0.340000 -12.840000 1.990000 0 255 0
0.334400 -12.067500 -4.901300 0 255 255
0.620000 -11.800000 5.310000 0 255 0
0.640000 -12.055000 15.115000 0 255 0
-0.067800 -13.428900 9.118900 0 255 0
0.490000 -12.966700 20.823299 0 255 0
0.270000 -12.890000 -0.030000 255 0 0
1.376700 -13.423300 16.503300 0 255 0
1.085000 -12.225000 23.410000 0 255 0
-0.265000 -13.370000 13.945000 0 255 0
-0.280000 -13.150000 -5.390000 0 255 255
-0.260000 -13.673300 14.160000 0 255 0
-0.415000 -12.975000 -5.285000 0 255 255
-0.270000 -13.610000 17.650000 0 255 0
-0.240000 -13.670000 14.040000 0 255 0
-0.267800 -11.726100 -4.433900 0 255 255
-0.512500 -13.075000 13.255000 0 255 0
0.493800 -13.616300 12.078700 0 255 0
0.390000 -13.375000 9.302500 0 255 0
0.232000 -12.840000 2.458000 255 0 0
0.490000 -12.320000 21.139999 0 255 0
0.180000 -12.340000 5.730000 255 0 0
0.182000 -12.466000 15.700000 0 255 0
1.105000 -13.115000 18.559999 0 255 0
0.828000 -11.872000 23.705999 0 255 0
0.441700 -13.516700 -5.535000 0 255 255
0.178300 -12.833300 0.645000 255 0 0
0.193300 -13.166700 23.059999 0 255 0
0.420000 -13.000000 -5.370000 0 255 0
0.930000 -11.866700 23.753300 0 255 0
0.270000 -13.520000 20.510000 0 255 0
0.881500 -12.014600 10.150000 0 255 0
1.420000 -12.925000 15.975000 0 255 0
0.550000 -12.890000 14.300000 0 255 0
0.548500 -13.172300 -5.036200 0 255 0
0.885000 -12.805000 21.695000 0 255 0
-0.209000 -13.628000 -5.090000 0 255 255
0.780000 -12.420000 23.379999 0 255 0
-0.073300 -13.376700 -5.686700 0 255 255
0.392700 -12.862000 2.313300 255 0 0
0.385600 -12.966700 8.824400 0 255 0
0.670000 -12.840000 16.670000 255 0 0
0.626700 -12.873300 20.160000 255 0 0
-0.140000 -13.480000 11.610000 0 255 0
0.640000 -13.870000 23.120001 0 255 0
0.580000 -12.740000 6.810000 255 0 0
0.610000 -12.810000 13.110000 0 255 0
0.585000 -12.755000 10.075000 255 0 0
0.742500 -13.062500 -5.087500 0 255 0
0.396700 -11.966700 -4.696700 0 255 255
0.543300 -12.680000 16.353300 255 0 0
0.545000 -12.720000 13.215000 255 0 0
0.540000 -12.758700 10.063700 255 0 0
-0.430000 -13.220000 13.820000 0 255 0
-0.410000 -13.320000 -5.540000 0 255 255
1.240000 -12.690000 -5.520000 0 255 255
-0.380000 -11.790000 12.210000 0 255 0
-0.670000 -11.980000 9.170000 0 255 0
1.035000 -13.110000 24.415001 0 255 0
1.030000 -12.700000 14.870000 0 255 0
1.035000 -12.420000 -5.080000 0 255 255
1.030000 -12.980000 24.370001 0 255 0
1.037500 -12.617500 8.380000 0 255 0
-0.713300 -12.323300 -5.006700 0 255 255
0.077800 -11.876700 -4.627800 0 255 255
0.110000 -12.040000 17.719999 0 255 0
0.082600 -12.261600 -4.996300 0 255 0
-1.150000 -12.310000 -4.840000 0 255 255
0.780000 -13.326000 -5.374000 0 255 255
0.026700 -12.916700 20.553301 0 255 0
-0.500000 -12.580000 -5.020000 0 255 255
0.190000 -12.950000 -3.683300 255 0 0
-0.760000 -12.723300 -5.283300 0 255 255
-0.765000 -12.520000 10.545000 0 255 0
0.385000 -13.227500 -5.142500 0 255 255
0.395000 -13.578300 17.806700 0 255 0
0.403800 -12.886300 -1.536200 255 0 0
-0.410000 -13.450000 14.190000 0 255 0
0.100000 -12.920000 15.766700 0 255 0
-0.406700 -13.628300 -4.633300 0 255 255
-0.800000 -12.850000 6.930000 0 255 0
0.060000 -13.820000 12.600000 0 255 0
0.006700 -11.413300 5.670000 0 255 0
0.190000 -12.680000 23.590000 0 255 0
0.170000 -12.510000 14.290000 0 255 0
0.942500 -12.660000 8.360000 0 255 0
0.940000 -12.505000 17.740000 0 255 0
0.780000 -12.930000 22.105000 255 0 0
1.446700 -12.823300 15.806700 0 255 0
1.460000 -12.710000 9.300000 0 255 0
0.138900 -12.972200 11.973300 0 255 0
-0.355000 -13.183700 11.757500 0 255 0
0.795000 -12.080000 18.480000 0 255 0
-0.510000 -13.300000 11.940000 0 255 0
-0.210000 -12.880000 -4.950000 0 255 0
0.800000 -12.913800 18.361300 0 255 0
0.320000 -12.460000 11.390000 255 0 0
0.360000 -12.560000 5.100000 255 0 0
0.330000 -12.680000 24.059999 0 255 0
0.360000 -12.510000 8.270000 255 0 0
0.704000 -12.428000 14.262000 0 255 0
0.020000 -12.340000 17.309999 0 255 0
0.040000 -12.460000 7.810000 0 255 0
0.045000 -12.155000 13.960000 0 255 0
0.042500 -12.422500 -4.838300 255 0 0
0.055000 -12.505000 1.655000 255 0 0
0.040000 -12.300000 13.920000 0 255 0
0.042100 -12.432900 -4.792100 255 0 0
0.050000 -12.310000 13.750000 0 255 0
0.710000 -12.580000 -5.250000 0 255 255
0.694000 -12.270000 13.556000 0 255 0
1.386700 -13.428300 14.651700 0 255 0
0.676700 -13.780000 14.760000 0 255 0
0.691300 -13.815000 14.617500 0 255 0
0.633000 -12.059000 -4.382000 0 255 255
0.034000 -13.462000 14.008000 0 255 0
-0.520000 -12.100000 11.910000 0 255 0
-0.260000 -12.720000 15.090000 0 255 0
-0.270000 -12.660000 18.350000 0 255 0
0.710000 -13.630000 12.240000 0 255 0
-0.517800 -12.468900 10.521100 0 255 0
0.630000 -12.680000 18.799999 255 0 0
0.620000 -12.870000 21.500000 255 0 0
0.635700 -12.681400 8.860000 0 255 0
0.655000 -13.610000 -5.590000 0 255 255
0.636000 -13.672000 12.554000 0 255 0
0.647200 -13.514100 9.404500 0 255 0
0.083300 -12.103300 -4.043300 0 255 255
0.092500 -13.376500 9.264000 0 255 0
0.650000 -13.940000 15.840000 0 255 0
1.330000 -12.620000 21.139999 0 255 0
-0.150000 -12.600000 23.950001 0 255 0
-0.710000 -12.465000 10.555000 0 255 0
0.644300 -13.812900 14.670000 0 255 0
-0.620000 -13.020000 13.170000 0 255 0
-0.625000 -13.085000 16.430000 0 255 0
-0.813800 -12.720000 11.165000 0 255 0
0.643300 -12.516700 10.803300 0 255 0
1.390000 -12.150000 7.550000 0 255 0
0.300000 -12.470000 10.340000 255 0 0
0.285000 -12.216000 -5.043000 0 255 255
0.306700 -12.716700 13.960000 255 0 0
0.290000 -12.433700 7.208100 255 0 0
0.286400 -12.508100 0.909300 255 0 0
0.640000 -12.510000 20.930000 0 255 0
0.600000 -13.660000 -5.740000 0 255 255
0.590000 -11.890000 11.540000 0 255 0
0.587500 -12.425000 -5.045000 0 255 0
0.840000 -13.065000 20.395000 0 255 0
0.590000 -13.780000 14.570000 0 255 0
0.660000 -12.750000 10.360000 0 255 0
0.620000 -12.840000 20.010000 255 0 0
1.291200 -12.172800 -5.292300 0 255 255
1.276700 -12.583300 19.209999 0 255 0
0.332500 -12.027500 22.670000 0 255 0
1.450000 -13.200000 16.040001 0 255 0
1.439000 -13.119000 9.558500 0 255 0
1.430000 -13.310000 22.620001 0 255 0
-0.902700 -13.167300 -3.133600 0 255 255
0.255000 -13.605000 12.525000 0 255 0
0.237100 -13.677100 9.265700 0 255 0
0.510000 -11.760000 13.260000 0 255 0
0.470000 -11.800000 16.400000 0 255 0
0.500000 -11.930000 9.840000 0 255 0
1.200000 -12.890000 9.760000 0 255 0
0.990000 -11.780000 15.330000 0 255 0
0.745000 -12.465000 14.355000 0 255 0
0.878300 -12.121700 -4.936700 0 255 255
0.440000 -11.920000 -5.074300 0 255 255
0.480000 -13.050000 11.970000 0 255 0
1.090000 -12.030000 14.665000 0 255 0
0.892700 -11.523300 11.968000 0 255 0
0.580000 -13.660000 23.879999 0 255 0
0.710000 -13.620000 23.920000 0 255 0
0.531200 -13.168700 9.350000 0 255 0
0.820000 -13.560000 9.350000 0 255 0
0.830000 -13.620000 9.410000 0 255 0
0.920000 -13.130000 21.660000 0 255 0
0.740000 -13.710000 9.160000 0 255 0
0.960000 -13.200000 16.320000 0 255 0
0.675000 -13.975000 22.764999 0 255 0
0.310000 -13.600000 14.980000 0 255 0
0.340000 -12.770000 -3.100000 255 0 0
0.350000 -12.620000 0.150000 255 0 0
0.550000 -12.740000 19.480000 255 0 0
0.530000 -12.820000 12.970000 255 0 0
0.560000 -12.730000 19.510000 255 0 0
0.542500 -12.760000 16.170000 255 0 0
0.490000 -12.790000 13.080000 255 0 0
0.470000 -12.840000 16.320000 255 0 0
0.190000 -12.470000 9.730000 255 0 0
0.196000 -12.430000 6.468000 255 0 0
0.376700 -11.763300 19.456699 0 255 0
0.386700 -11.726700 16.306700 0 255 0
0.470000 -12.730000 12.810000 255 0 0
0.478900 -12.758900 3.265000 255 0 0
0.493300 -12.680000 9.560000 255 0 0
0.490000 -13.835000 23.565001 0 255 0
0.170000 -13.630000 -5.256700 0 255 255
0.851400 -11.810000 -4.744300 0 255 255
0.680000 -12.670000 16.350000 0 255 0
0.440000 -12.856700 -5.193300 0 255 0
0.310000 -12.390000 4.810000 255 0 0
0.110000 -12.670000 5.380000 255 0 0
0.530000 -11.900000 16.180000 0 255 0
0.450000 -12.310000 11.180000 0 255 0
0.410000 -12.440000 1.110000 255 0 0
0.392900 -12.774300 23.152901 0 255 0
0.375000 -12.670000 16.860001 255 0 0
0.395800 -12.370800 -5.125800 0 255 0
0.392500 -12.657500 13.860000 255 0 0
0.740000 -13.830000 23.629999 0 255 0
0.760000 -11.710000 15.470000 0 255 0
0.392900 -12.261400 -5.047100 0 255 0
0.691100 -12.015000 -5.044400 0 255 255
0.685000 -12.033300 -4.745000 0 255 255
0.470000 -11.950000 -4.720000 0 255 255
0.460000 -11.820000 21.000000 0 255 0
0.400000 -12.553300 2.316700 255 0 0
1.090000 -13.200000 17.790001 0 255 0
0.610000 -11.550000 5.230000 0 255 0
0.210000 -13.370000 18.530001 0 255 0
0.650000 -12.670000 15.645000 255 0 0
0.460000 -13.750000 23.600000 0 255 0
0.405000 -13.530000 -5.020000 0 255 255
-0.860000 -12.820000 -3.080000 0 255 255
0.690000 -13.000000 16.170000 0 255 0
0.686700 -12.933300 22.663300 255 0 0
0.685000 -13.515000 9.600000 0 255 0
0.580000 -12.416700 -5.140000 0 255 0
0.590000 -11.875000 11.465000 0 255 0
0.605200 -11.770400 5.163200 0 255 0
0.143300 -12.713300 7.626700 255 0 0
0.134000 -12.670000 10.758000 0 255 0
0.130000 -12.580000 17.049999 0 255 0
-0.010000 -12.872300 -5.088500 0 255 0
0.440000 -13.800000 22.530001 0 255 0
-0.570000 -13.063300 18.396700 0 255 0
-0.570000 -12.955000 11.850000 0 255 0
-0.090000 -12.670000 -3.600000 255 0 0
1.140000 -12.117500 -5.041300 0 255 255
1.125000 -12.320000 7.625000 0 255 0
0.530000 -13.880000 -5.460000 0 255 255
0.745000 -11.690000 14.920000 0 255 0
1.140000 -13.250000 21.639999 0 255 0
0.500000 -13.010000 11.990000 0 255 0
0.510000 -12.920000 18.299999 0 255 0
0.490000 -12.880000 15.170000 255 0 0
1.295000 -13.432500 9.710000 0 255 0
0.230000 -12.872500 -4.995000 255 0 0
0.138600 -12.917000 -1.342500 255 0 0
0.560000 -13.770000 23.500000 0 255 0
-0.980000 -12.890000 -5.090000 0 255 255
0.160000 -13.470000 19.850000 0 255 0
0.210000 -13.810000 16.889999 0 255 0
0.790000 -12.290000 16.309999 0 255 0
0.255000 -11.627500 -4.935000 0 255 255
0.640000 -12.750000 21.410000 0 255 0
0.600000 -13.140000 -5.500000 0 255 0
-0.190000 -12.580000 18.459999 0 255 0
1.140000 -12.990000 8.490000 0 255 0
1.690000 -13.075000 19.465000 0 255 0
0.290000 -12.900000 13.540000 0 255 0
0.310000 -12.950000 16.820000 0 255 0
-0.500000 -13.160000 13.630000 0 255 0
0.191100 -12.814400 12.805600 255 0 0
-0.340000 -13.100000 -5.200000 0 255 255
-0.456000 -11.631000 -4.225000 0 255 255
-0.440000 -12.190000 12.110000 0 255 0
0.830000 -13.265000 19.605000 0 255 0
0.092500 -11.922500 -5.025000 0 255 255
-0.006700 -13.520000 12.953300 0 255 0
-0.010000 -13.220000 19.110001 0 255 0
0.730000 -12.615000 17.660000 0 255 0
0.630000 -12.170000 21.219999 0 255 0
0.630000 -12.690000 1.600000 0 255 0
0.636700 -12.813300 17.816700 255 0 0
0.644300 -12.570400 -4.892500 0 255 0
0.241100 -12.877800 13.416700 0 255 0
1.090000 -13.380000 24.389999 0 255 0
-0.930000 -12.980000 -4.520000 0 255 255
-0.500000 -12.790000 12.040000 0 255 0
0.807100 -12.024300 10.165700 0 255 0
-0.610000 -13.160000 13.280000 0 255 0
0.780000 -12.290000 8.900000 0 255 0
-0.580000 -12.480000 15.690000 0 255 0
0.790000 -12.970000 21.410000 255 0 0
0.046700 -12.063300 -4.944400 0 255 255
0.134700 -13.272000 9.119300 0 255 0
0.120000 -12.320000 23.639999 0 255 0
0.122500 -12.682500 1.607500 255 0 0
0.120000 -12.470000 14.240000 0 255 0
0.136400 -12.615600 4.659200 255 0 0
0.146700 -12.576700 7.926700 255 0 0
0.620000 -12.470000 10.200000 0 255 0
0.640000 -12.428900 13.458300 0 255 0
-0.906700 -12.769300 7.212000 0 255 0
0.656700 -12.903300 14.216700 0 255 0
-0.464000 -12.773000 15.202000 0 255 0
-0.553800 -12.475000 10.510000 0 255 0
0.570000 -11.890000 11.490000 0 255 0
0.576700 -12.410000 -5.200000 0 255 0
0.597000 -11.761000 5.197000 0 255 0
-0.830000 -12.560000 -1.790000 0 255 255
0.650000 -13.613300 9.653300 0 255 0
0.640000 -12.922500 16.222500 255 0 0
0.590000 -12.660000 15.100000 255 0 0
0.580000 -12.556000 8.810000 255 0 0
0.600000 -12.740000 18.629999 255 0 0
0.610000 -12.600000 11.850000 255 0 0
-0.510000 -12.080000 14.820000 0 255 0
-0.511000 -11.966000 -4.732000 0 255 255
0.180000 -12.560000 6.480000 255 0 0
0.210000 -12.616700 9.846700 255 0 0
0.196600 -12.521600 3.312600 255 0 0
0.477000 -12.812000 2.310000 255 0 0
0.496200 -12.720600 8.613700 255 0 0
0.480000 -12.126700 -4.843300 0 255 255
0.481300 -12.673900 5.359100 255 0 0
0.503300 -12.616700 14.953300 255 0 0
0.484300 -12.581400 11.704300 255 0 0
0.489900 -12.768500 -0.939800 255 0 0
-0.613000 -12.063000 -2.258000 0 255 255
0.050600 -12.715900 -0.944700 255 0 0
0.032100 -12.553800 -3.986400 0 255 0
0.543700 -12.313800 -4.981300 0 255 0
0.560000 -12.770000 16.980000 255 0 0
0.870000 -13.830000 14.770000 0 255 0
-0.915000 -12.970000 -4.648000 0 255 255
-0.870000 -12.915000 -4.725000 0 255 255
-0.392500 -13.322500 -5.502500 0 255 255
-0.404000 -13.224000 13.868000 0 255 0
0.590000 -12.820000 13.630000 255 0 0
-0.330000 -12.330000 16.809999 0 255 0
-0.312000 -12.423000 10.507000 0 255 0
0.620000 -12.490000 20.590000 0 255 0
-0.220000 -12.090000 19.549999 0 255 0
0.190000 -11.920000 13.750000 0 255 0
0.180000 -13.715000 23.620001 0 255 0
0.290000 -12.500000 6.770000 255 0 0
0.291800 -12.563600 10.011800 255 0 0
0.550000 -13.810000 22.500000 0 255 0
-0.190000 -12.210000 -4.910000 0 255 0
-0.630000 -12.120000 -2.130000 0 255 255
0.493300 -13.326700 -5.220000 0 255 255
0.910000 -13.770000 17.650000 0 255 0
0.740000 -13.720000 23.830000 0 255 0
0.680000 -12.270000 18.510000 0 255 0
0.240000 -13.716700 -4.943300 0 255 255
0.980000 -11.660000 11.980000 0 255 0
1.120000 -12.110000 8.910000 0 255 0
0.950000 -13.130000 21.740000 0 255 0
-0.200000 -12.240000 21.980000 0 255 0
0.850000 -12.940000 15.970000 0 255 0
1.190000 -12.815000 15.565000 0 255 0
1.028600 -12.524300 22.370001 0 255 0
1.030000 -12.580000 19.110001 0 255 0
-0.070000 -12.360000 23.725000 0 255 0
0.970000 -11.626700 7.193300 0 255 0
0.773300 -13.660000 9.418300 0 255 0
0.610000 -13.460000 24.389999 0 255 0
0.545000 -12.760000 18.915001 255 0 0
0.550000 -12.320000 -4.150000 0 255 0
0.885000 -13.655000 17.510000 0 255 0
0.885000 -13.565000 23.997499 0 255 0
0.520000 -12.270000 9.730000 0 255 0
0.760000 -11.970000 -4.420000 0 255 255
0.710000 -12.450000 -4.410000 0 255 255
-1.010000 -12.860000 -5.150000 0 255 255
1.245000 -12.015000 14.620000 0 255 0
-0.090000 -12.080000 19.180000 0 255 0
-0.107500 -12.516200 9.050000 0 255 0
1.010000 -12.080000 15.690000 0 255 0
-0.330000 -12.040000 12.180000 0 255 0
0.980000 -12.715000 -5.090000 0 255 255
1.040000 -13.110000 24.170000 0 255 0
0.470000 -12.850000 -1.430000 255 0 0
0.490000 -13.280000 23.850000 0 255 0
0.300000 -13.775000 15.800000 0 255 0
0.080000 -12.271500 11.414600 0 255 0
0.110000 -12.330000 14.560000 0 255 0
1.142600 -12.771300 -5.140400 0 255 255
1.338300 -12.315000 17.868299 0 255 0
-0.170000 -13.370000 19.290001 0 255 0
1.146000 -13.368000 18.612000 0 255 0
1.595000 -12.873700 9.647500 0 255 0
-0.425000 -13.420000 -4.580000 0 255 255
1.260000 -13.250000 -5.230000 0 255 255
0.248300 -13.726700 9.366700 0 255 0
0.595000 -13.380000 23.965000 0 255 0
0.430000 -12.860000 1.740000 255 0 0
0.420600 -12.903100 -1.491200 0 255 0
0.385300 -12.855300 1.811600 0 255 0
0.390000 -13.600000 24.030001 0 255 0
0.630000 -13.850000 18.320000 0 255 0
0.650000 -13.705000 14.965000 0 255 0
0.920000 -12.810000 9.610000 0 255 0
0.935000 -12.730000 16.174999 0 255 0
-0.074400 -12.556700 -4.585600 255 0 0
-0.220000 -12.200000 -4.760000 0 255 0
0.750000 -13.460000 -5.270000 0 255 255
-0.053800 -12.730000 -4.188400 0 255 0
0.835000 -13.075000 24.215000 0 255 0
-0.076700 -12.103300 19.150000 0 255 0
0.960000 -12.305000 14.760000 0 255 0
0.900000 -12.900000 14.410000 0 255 0
0.380000 -12.923300 14.703300 0 255 0
1.010000 -13.290000 16.400000 0 255 0
0.040000 -13.610000 21.980000 0 255 0
0.034000 -13.772000 12.454000 0 255 0
-0.351700 -13.776700 -4.498300 0 255 255
0.003200 -12.621600 -3.540500 255 0 0
0.000000 -12.675000 -0.201200 255 0 0
-0.680000 -12.875000 -5.330000 0 255 255
-0.867700 -12.720000 7.258600 0 255 0
1.280000 -13.380000 21.790001 0 255 0
0.988800 -12.972500 9.711300 0 255 0
-0.850000 -12.385000 6.475000 0 255 0
-0.110000 -11.720000 13.840000 0 255 0
-0.255000 -12.625000 -4.935000 0 255 0
-0.967700 -12.231500 -4.696900 0 255 255
0.490000 -12.280000 22.570000 0 255 0
0.260000 -13.220000 23.600000 0 255 0
0.830000 -11.920000 15.565000 0 255 0
-0.206700 -13.223300 -5.236700 0 255 255
0.170000 -12.740000 0.565000 255 0 0
0.187100 -12.767100 3.704300 255 0 0
0.260000 -12.780000 3.480000 255 0 0
0.220000 -12.600000 0.310000 255 0 0
0.220000 -12.735000 6.610000 255 0 0
-0.470000 -13.480000 13.860000 0 255 0
0.733300 -13.913300 23.973301 0 255 0
-0.070000 -12.590000 8.300000 0 255 0
1.255000 -13.515000 18.760000 0 255 0
-0.048300 -13.726700 14.808300 0 255 0
-0.056900 -13.607500 -4.530000 0 255 255
0.996000 -11.868000 15.660000 0 255 0
-0.117500 -12.782500 23.645000 0 255 0
1.347500 -12.107500 -4.695000 0 255 255
-0.460000 -12.713300 -4.996700 0 255 255
1.590000 -13.160000 19.520000 0 255 0
0.735700 -12.915700 21.561399 255 0 0
0.750000 -12.980000 18.410000 0 255 0
0.950000 -13.040000 22.230000 0 255 0
0.947100 -13.217100 9.564300 0 255 0
0.540000 -11.770000 13.280000 0 255 0
0.910000 -13.320000 19.059999 0 255 0
0.090000 -12.253300 11.453300 0 255 0
1.630000 -12.520000 20.670000 0 255 0
1.331900 -13.119600 -5.035400 0 255 255
1.190000 -13.260000 9.610000 0 255 0
0.992700 -11.521300 7.113600 0 255 0
-1.156200 -12.762500 -4.351300 0 255 255
1.043300 -12.806700 16.209999 0 255 0
1.235000 -12.980000 -5.570000 0 255 255
0.400000 -11.670000 13.500000 0 255 0
0.550000 -13.290000 24.080000 0 255 0
0.520000 -12.890000 -1.230000 255 0 0
-0.620000 -13.666700 -4.503300 0 255 255
0.630000 -11.970000 14.860000 0 255 0
0.610000 -12.410000 -4.670000 0 255 0
-0.004000 -11.869000 -4.786500 0 255 255
-0.425000 -12.515000 -5.050000 0 255 0
-0.875000 -12.457000 -4.345000 0 255 255
0.646700 -13.256700 -5.023300 0 255 0
1.342500 -12.825000 15.747500 0 255 0
1.330000 -12.940000 9.010000 0 255 0
1.336700 -12.873300 12.173300 0 255 0
-0.740000 -11.940000 -4.750000 0 255 255
-0.680000 -11.940000 -4.750000 0 255 255
-0.697500 -11.780000 -4.922500 0 255 255
-0.471500 -13.268500 -4.986900 0 255 255
0.836000 -12.480000 -4.808000 0 255 255
0.193300 -13.910000 -4.573300 0 255 255
0.450000 -13.320000 17.750000 0 255 0
1.370000 -12.190000 -5.090000 0 255 255
1.350000 -12.655000 8.460000 0 255 0
1.200000 -13.330000 18.400000 0 255 0
1.240000 -13.250000 24.115000 0 255 0
1.490000 -13.165000 23.317499 0 255 0
1.010000 -13.310000 -5.040000 0 255 255
0.156700 -12.806700 3.353300 255 0 0
0.145000 -12.915400 -3.140000 255 0 0
0.138800 -12.871200 0.008200 255 0 0
0.247500 -12.130000 -3.782500 0 255 255
0.542000 -11.974000 -3.980000 0 255 255
0.897500 -13.232500 24.362499 0 255 0
-0.600000 -13.200000 13.380000 0 255 0
1.490000 -13.315000 18.457500 0 255 0
-0.510000 -12.420000 6.360000 0 255 0
-0.509000 -12.463000 9.516000 0 255 0
-0.805000 -12.555000 11.910000 0 255 0
-0.810000 -12.930000 8.815000 0 255 0
-0.825000 -13.100000 -4.645000 0 255 255
0.496700 -13.773300 14.740000 0 255 0
-0.240000 -11.380000 -4.745000 0 255 255
-0.916700 -12.816700 7.016700 0 255 0
-0.661500 -11.623800 -4.742300 0 255 255
-0.758400 -11.717600 -4.739200 0 255 255
-0.410000 -13.620000 -5.000000 0 255 255
0.095000 -13.670000 11.710000 0 255 0
0.140000 -11.920000 19.980000 0 255 0
0.176700 -13.703300 -4.480000 0 255 255
0.185000 -13.667500 -4.393700 0 255 255
0.233800 -13.608700 -4.393700 0 255 255
0.270000 -13.590000 -4.470000 0 255 255
0.230000 -13.750000 -4.500000 0 255 255
0.170000 -13.900000 -4.480000 0 255 255
0.450000 -13.562500 -4.990000 0 255 255
0.700000 -12.280000 18.450001 0 255 0
-1.013300 -12.613300 -4.883300 0 255 255
0.510000 -13.660000 23.540001 0 255 0
0.336900 -12.513800 9.761500 255 0 0
-0.225000 -13.620000 -5.495000 0 255 255
-0.147500 -12.222500 14.152500 0 255 0
-0.150000 -13.180000 15.040000 0 255 0
0.037500 -13.617500 12.760000 0 255 0
0.377800 -12.075600 -4.792200 0 255 255
0.846000 -13.223000 9.762000 0 255 0
1.093300 -13.170000 23.103300 0 255 0
0.686700 -13.070000 9.806700 0 255 0
0.210000 -13.410000 21.910000 0 255 0
0.189200 -13.226700 9.255000 0 255 0
-0.105000 -12.230000 -4.900000 0 255 0
0.180000 -13.690000 -5.510000 0 255 255
0.500000 -12.250000 -4.810000 0 255 255
0.480000 -12.810000 17.969999 255 0 0
0.475000 -12.220000 4.922500 0 255 0
0.488900 -12.116700 11.404400 0 255 0
0.450000 -12.870000 17.330000 255 0 0
0.435000 -12.920000 14.170000 0 255 0
0.430000 -13.030000 20.650000 0 255 0
0.070000 -12.010000 14.520000 0 255 0
0.105000 -12.311700 -5.031700 0 255 0
