-6.706400 -8.819300 2.368600 0 255 0
-7.077500 -8.420000 5.807500 255 0 0
-7.051400 -8.526200 -0.690500 0 255 0
-7.060000 -8.310000 12.370000 0 255 0
-7.067500 -8.463800 2.457500 255 0 0
-6.670000 -9.330000 18.540001 0 255 0
-6.663600 -8.778100 2.457800 0 255 0
-7.111700 -8.555000 -2.590000 255 0 0
-7.120000 -8.430000 12.130000 0 255 0
-7.090000 -8.310000 18.870001 0 255 0
-7.123300 -8.376700 8.870000 255 0 0
-7.110000 -8.520000 5.830000 255 0 0
-7.105300 -8.472100 2.561100 255 0 0
-7.130000 -8.390000 9.170000 255 0 0
-7.122900 -8.554300 -2.694300 0 255 0
-7.123300 -8.423300 12.403300 255 0 0
-7.107500 -8.473800 2.668800 255 0 0
-7.113300 -8.560000 -2.780000 0 255 0
-7.100000 -8.350000 9.070000 255 0 0
-7.120000 -8.520000 6.020000 255 0 0
-7.120000 -8.340000 18.639999 0 255 0
-7.112000 -8.418000 12.320000 0 255 0
-7.105000 -8.476300 2.766200 255 0 0
-7.130000 -8.390000 9.540000 255 0 0
-7.090000 -8.610000 0.170000 255 0 0
-7.090000 -8.590000 -3.090000 0 255 0
-7.130000 -8.530000 6.300000 255 0 0
-7.100600 -8.467600 3.060000 255 0 0
-7.090000 -8.390000 9.440000 255 0 0
-7.130000 -8.500000 6.420000 255 0 0
-7.110000 -8.610000 0.050000 255 0 0
-7.100000 -8.468700 3.164700 255 0 0
-6.580000 -8.970000 16.350000 0 255 0
-6.562500 -8.857500 10.010000 0 255 0
-6.560300 -8.772700 3.703900 0 255 0
-6.510000 -7.990000 23.180000 0 255 0
-6.511000 -8.671400 3.812400 0 255 0
-8.110000 -8.050000 20.910000 0 255 0
-8.130000 -8.090000 17.500000 0 255 0
-8.118000 -8.020000 14.260000 0 255 0
-6.840000 -9.220000 22.100000 0 255 0
-6.930000 -8.580000 1.570000 255 0 0
-6.897500 -8.920000 23.597500 0 255 0
-6.909800 -8.469200 7.863800 0 255 0
-6.764000 -8.356000 7.862000 0 255 0
-6.610000 -9.276700 23.256701 0 255 0
-6.613100 -8.219000 7.860600 0 255 0
-8.250000 -8.260000 17.770000 0 255 0
-6.560000 -8.670000 20.549999 0 255 0
-6.550000 -8.585000 14.250000 0 255 0
-6.552500 -8.522500 17.405001 0 255 0
-7.290000 -8.560000 7.120000 255 0 0
-7.295000 -8.505000 3.875000 255 0 0
-7.307500 -8.762500 19.762501 255 0 0
-7.303300 -8.716700 16.513300 255 0 0
-7.327500 -8.815000 9.997500 0 255 0
-7.250000 -8.710000 13.370000 255 0 0
-7.243300 -8.586700 -2.546700 255 0 0
-7.247100 -8.508600 0.710000 255 0 0
-7.264300 -8.768900 10.113600 0 255 0
-7.170000 -8.660000 13.320000 255 0 0
-7.170000 -8.505000 23.590000 0 255 0
-7.163700 -8.719500 10.161600 0 255 0
-6.870000 -8.790000 16.350000 0 255 0
-6.865200 -8.581300 3.708100 0 255 0
-6.862500 -8.468000 10.013000 0 255 0
-6.860000 -8.700000 22.809999 0 255 0
-6.855000 -8.425000 16.450001 0 255 0
-6.864400 -8.517200 10.154400 0 255 0
-6.766700 -8.413300 10.248300 0 255 0
-8.361800 -8.771400 12.012500 0 255 0
-7.126700 -8.570000 14.760000 255 0 0
-7.120000 -8.540000 23.670000 0 255 0
-7.113700 -8.615000 17.901300 255 0 0
-7.112500 -8.718800 11.419400 0 255 0
-8.305700 -7.967100 12.168600 0 255 0
-7.412100 -8.164700 11.613200 0 255 0
-6.930000 -8.410000 -0.200000 255 0 0
-6.930000 -8.590000 -3.220000 0 255 0
-6.927500 -8.485000 3.067500 0 255 0
-6.912000 -8.620000 12.058000 0 255 0
-8.062500 -9.317500 18.257500 0 255 0
-7.240000 -9.320000 24.320000 0 255 0
-8.150000 -8.550000 16.379999 0 255 0
-8.166000 -9.070000 -2.648000 0 255 255
-8.154000 -8.662000 22.664000 0 255 0
-6.506200 -8.321700 12.257900 0 255 0
-7.780000 -8.515000 23.655001 0 255 0
-7.758200 -8.473600 14.210900 0 255 0
-6.109200 -8.867100 12.965400 0 255 0
-6.390000 -9.220000 10.510000 0 255 0
-6.750000 -9.774000 23.209999 0 255 0
-6.758700 -9.668700 16.715300 0 255 0
-8.464300 -8.671400 12.020000 0 255 0
-8.260000 -8.780000 22.379999 0 255 0
-8.266700 -8.803300 19.120001 0 255 0
-6.980000 -8.920000 22.209999 0 255 0
-6.962000 -8.971000 19.056999 0 255 0
-6.602300 -7.673100 18.313101 0 255 0
-6.980000 -8.420000 17.110001 0 255 0
-6.954900 -8.278900 0.913100 255 0 0
-7.711700 -8.680000 19.111700 0 255 0
-8.065900 -8.167500 12.314400 0 255 0
-7.620000 -9.610000 23.573299 0 255 0
-7.430000 -9.490000 23.580000 0 255 0
-6.960000 -9.120000 22.959999 0 255 0
-6.210000 -8.380000 12.350000 0 255 0
-6.190000 -8.510000 21.360001 0 255 0
-7.016100 -8.722800 10.260000 0 255 0
-7.016100 -8.517400 -1.586300 255 0 0
-7.000000 -8.910000 22.990000 0 255 0
-7.013800 -8.516500 -1.491300 255 0 0
-7.100000 -8.700000 17.680000 255 0 0
-7.096700 -8.813300 11.513300 0 255 0
-7.110000 -8.625000 24.174999 0 255 0
-7.110000 -8.673300 14.412200 255 0 0
-6.900000 -8.705000 3.476200 0 255 0
-6.913600 -8.618200 9.962700 0 255 0
-7.000000 -8.662500 10.015000 0 255 0
-7.012500 -8.517400 -1.190500 255 0 0
-7.406800 -8.064500 12.113200 0 255 0
-7.530000 -8.210000 15.300000 0 255 0
-7.511200 -8.160000 12.156200 0 255 0
-6.708900 -7.714400 20.557800 0 255 0
-7.460000 -8.285000 -3.045000 0 255 0
-7.060000 -8.613300 11.763300 0 255 0
-7.053900 -8.773300 2.261100 0 255 0
-6.910000 -9.127500 18.320000 0 255 0
-6.905200 -8.672800 2.458900 0 255 0
-6.990000 -8.740000 2.670000 0 255 0
-7.230000 -8.600000 9.480000 255 0 0
-7.222500 -8.715000 15.955000 255 0 0
-7.200000 -8.663300 12.700000 255 0 0
-7.216700 -8.566700 6.200000 255 0 0
-7.216700 -8.921000 2.911000 0 255 0
-6.956500 -8.124300 2.905500 0 255 0
-7.122300 -8.321700 6.312300 255 0 0
-7.099100 -8.255200 3.160700 255 0 0
-6.961200 -8.165000 3.208700 0 255 0
-7.120600 -8.326200 6.613100 255 0 0
-7.110000 -8.114000 20.058001 0 255 0
-7.103000 -8.264000 3.461800 0 255 0
-6.810000 -8.970000 -3.045000 0 255 255
-6.817100 -8.771400 10.017900 0 255 0
-6.810000 -9.350000 22.250000 0 255 0
-6.811600 -8.669600 3.512400 0 255 0
-7.104900 -8.257100 0.609000 255 0 0
-7.097100 -8.317100 3.859300 255 0 0
-7.112600 -8.513500 1.809600 255 0 0
-7.112000 -8.266000 11.612000 0 255 0
-7.116500 -8.417100 8.112400 255 0 0
-7.103300 -8.374200 4.859500 255 0 0
-7.120000 -8.190000 14.870000 0 255 0
-7.110000 -8.290000 8.360000 0 255 0
-7.105300 -8.416700 4.958300 255 0 0
-7.110000 -8.180000 14.540000 0 255 0
-7.110000 -8.273300 8.250000 0 255 0
-7.116700 -8.416200 5.060000 255 0 0
-7.100000 -8.260000 8.100000 0 255 0
-7.110000 -8.370000 1.960000 255 0 0
-7.105000 -8.505000 -1.280000 255 0 0
-7.115900 -8.420000 5.204400 255 0 0
-7.060000 -8.530000 9.080000 255 0 0
-7.063300 -8.362200 18.812201 0 255 0
-7.058700 -8.473700 12.305000 0 255 0
-6.373300 -8.213300 16.309999 0 255 0
-6.358600 -8.470000 12.308600 0 255 0
-7.168100 -8.256200 0.809400 255 0 0
-7.158900 -8.309500 -2.340000 255 0 0
-6.610500 -8.361800 7.910000 0 255 0
-6.575000 -8.510000 21.004999 0 255 0
-6.564100 -8.316700 7.953500 0 255 0
-6.850000 -8.440000 15.060000 0 255 0
-6.840000 -8.770000 17.780001 0 255 0
-6.752500 -7.821700 8.305000 0 255 0
-6.405000 -8.560000 11.572500 0 255 0
-6.410000 -8.670000 17.857401 0 255 0
-7.306500 -8.465400 3.763800 0 255 0
-7.294700 -8.412400 0.508800 255 0 0
-7.290000 -8.305000 7.030000 255 0 0
-7.311200 -8.365000 10.260900 255 0 0
-6.760000 -8.718200 10.158600 0 255 0
-7.296000 -8.279300 1.067300 255 0 0
-7.314700 -8.470700 13.710000 255 0 0
-7.304000 -8.404000 10.562000 255 0 0
-6.610300 -9.409700 10.455500 0 255 0
-7.272200 -8.481100 4.157800 255 0 0
-7.258100 -8.370600 10.660600 255 0 0
-7.280000 -7.810000 23.900000 0 255 0
-7.265500 -8.321800 17.170900 0 255 0
-7.250000 -8.410000 10.860000 255 0 0
-6.313600 -9.213900 10.611400 0 255 0
-8.395000 -8.425000 12.025000 0 255 0
-7.920000 -7.955000 15.130000 0 255 0
-7.908400 -8.117100 12.058000 0 255 0
-6.840000 -8.770000 11.810000 0 255 0
-7.820000 -8.140000 15.340000 0 255 0
-7.809400 -8.070000 12.306800 0 255 0
-6.480000 -8.960000 21.100000 0 255 0
-6.468000 -8.712000 11.704000 0 255 0
-6.280000 -8.570000 12.340000 0 255 0
-7.158200 -7.672700 12.311500 0 255 0
-8.362900 -8.521800 14.111200 0 255 0
-8.260000 -8.390000 20.770000 0 255 0
-8.248800 -8.415000 17.501200 0 255 0
-8.257100 -8.478600 14.211400 0 255 0
-7.168600 -8.668600 19.754299 255 0 0
-7.162500 -8.555800 13.264200 255 0 0
-7.170000 -8.720000 16.719999 255 0 0
-7.158000 -8.622500 10.215500 255 0 0
-7.164000 -8.664000 19.952000 255 0 0
-7.159400 -8.570600 13.457500 255 0 0
-6.158300 -8.665000 12.808300 0 255 0
-8.056700 -9.363300 16.706699 0 255 0
-8.276700 -8.663300 14.460000 0 255 0
-6.340000 -9.330000 17.180000 0 255 0
-7.520000 -8.150000 23.600000 0 255 0
-7.504000 -8.265500 17.069000 0 255 0
-6.610000 -8.550000 16.260000 0 255 0
-7.316700 -8.223300 10.760000 0 255 0
-7.314600 -8.116900 17.066900 0 255 0
-6.419200 -8.617500 3.760800 0 255 0
-6.406500 -8.418800 16.414101 0 255 0
-8.362200 -8.421700 12.263900 0 255 0
-6.740000 -9.010000 10.520000 0 255 0
-6.763300 -8.676700 20.403299 0 255 0
-6.755000 -8.722500 17.242500 0 255 0
-7.120000 -9.070000 18.422501 0 255 0
-8.309300 -8.917900 20.058599 0 255 0
-6.611400 -8.712100 17.814301 0 255 0
-8.040000 -8.540000 11.940000 0 255 0
-7.100000 -9.150000 19.000000 0 255 0
-8.310000 -8.180000 -2.760000 0 255 255
-6.910000 -8.172000 15.204000 0 255 0
-6.907200 -8.122300 12.064400 0 255 0
-6.915000 -8.019000 18.363001 0 255 0
-8.430000 -8.780000 12.210000 0 255 0
-6.055000 -8.405000 17.809999 0 255 0
-7.213300 -9.430000 21.110001 0 255 0
-6.350000 -8.320000 -3.230000 0 255 255
-6.365000 -8.065000 13.045000 0 255 0
-7.260000 -8.620000 24.540001 0 255 0
-7.213300 -8.753300 21.520000 255 0 0
-6.845000 -7.635000 7.865000 0 255 0
-7.200000 -8.620000 8.580000 0 255 0
-7.215000 -8.375000 17.168301 0 255 0
-7.200000 -8.440000 20.400000 0 255 0
-7.190000 -8.550000 5.290000 255 0 0
-7.198300 -8.675000 11.606700 0 255 0
-7.023100 -8.456900 1.905400 255 0 0
-7.015000 -8.627500 10.207500 0 255 0
-7.006500 -8.418600 -1.241900 255 0 0
-7.405000 -8.560000 18.900000 0 255 0
-7.140000 -9.100000 -2.610000 0 255 0
-7.167500 -8.620000 16.215000 255 0 0
-7.270000 -8.878000 19.068001 255 0 0
-7.261300 -8.510000 15.658800 255 0 0
-7.270000 -8.820000 22.195000 255 0 0
-7.023300 -8.470000 2.556700 255 0 0
-7.006000 -8.722000 19.059999 0 255 0
-7.000300 -8.417300 -0.686500 255 0 0
-6.973800 -8.419500 -0.491000 255 0 0
-6.960000 -8.440000 3.030000 0 255 0
-6.971000 -8.457000 -0.134000 255 0 0
-6.940000 -8.600000 16.950001 0 255 0
-6.963000 -8.431000 3.112000 255 0 0
-6.967800 -8.460000 -0.043300 255 0 0
-7.010000 -8.885000 24.565001 0 255 0
-7.000000 -8.410000 -3.200000 0 255 0
-6.990000 -8.665000 11.915000 0 255 0
-7.020000 -8.500000 3.290000 255 0 0
-7.008400 -8.472700 0.060400 255 0 0
-7.030000 -8.750000 18.290001 255 0 0
-6.990000 -8.420000 -3.105000 0 255 0
-7.007500 -8.665000 12.015000 0 255 0
-6.999100 -8.471100 0.160300 255 0 0
-7.010000 -8.790000 18.200001 0 255 0
-6.990000 -8.680000 11.720000 0 255 0
-6.990000 -8.510000 3.510000 255 0 0
-7.030000 -8.400000 -3.000000 0 255 0
-7.006000 -8.470000 0.264800 255 0 0
-7.015000 -8.516400 0.364100 255 0 0
-7.240000 -8.160000 8.310000 0 255 0
-7.256200 -8.475400 14.661500 255 0 0
-7.262600 -8.218300 5.162800 255 0 0
-7.268900 -8.258200 2.009300 0 255 0
-7.064300 -8.562900 11.611400 255 0 0
-7.080000 -8.460000 18.780001 0 255 0
-7.060000 -8.714600 2.162500 0 255 0
-6.965000 -9.078000 18.207001 0 255 0
-6.959600 -8.717200 2.553700 0 255 0
-7.112400 -8.227500 2.656500 255 0 0
-7.120000 -8.690000 15.820000 255 0 0
-7.113300 -8.720000 19.063299 255 0 0
-7.113900 -8.871100 2.765000 0 255 0
-6.995000 -8.460000 22.410000 0 255 0
-7.009600 -8.164300 2.811300 0 255 0
-7.010000 -8.220000 3.212000 255 0 0
-7.040000 -8.370000 0.410000 255 0 0
-7.065700 -8.423000 -2.836700 0 255 0
-7.067500 -8.072500 20.012501 0 255 0
-7.055600 -8.315800 3.306800 255 0 0
-7.262000 -8.257700 6.560500 255 0 0
-6.830000 -8.170000 2.720000 0 255 0
-6.770000 -7.820000 3.110000 0 255 0
-6.412500 -8.315000 -3.295000 0 255 0
-7.161700 -8.183300 3.903300 255 0 0
-7.164800 -8.319000 7.259000 255 0 0
-7.160600 -8.227200 0.759600 255 0 0
-7.165000 -8.165000 20.165001 0 255 0
-7.170000 -8.468300 14.008300 255 0 0
-7.160000 -8.520700 10.756400 255 0 0
-7.161100 -8.363800 7.509500 255 0 0
-7.160000 -8.710000 -2.770000 0 255 0
-7.140000 -8.425000 4.355000 255 0 0
-7.159300 -8.478600 13.912900 255 0 0
-7.158600 -8.369000 7.609800 255 0 0
-7.164500 -8.505500 10.651800 255 0 0
-7.419500 -7.919100 7.813600 0 255 0
-7.120000 -8.460000 -1.730000 255 0 0
-7.112400 -8.520600 1.504100 255 0 0
-7.130000 -8.190000 17.430000 0 255 0
-7.104700 -8.371200 4.756200 255 0 0
-7.112100 -8.420000 8.011400 255 0 0
-7.130000 -8.550000 1.410000 255 0 0
-7.115000 -8.382500 14.447500 0 255 0
-7.121400 -8.530000 11.401400 255 0 0
-7.112000 -8.458000 8.160000 255 0 0
-6.553300 -7.963300 -3.093300 0 255 255
-6.560400 -8.272500 16.259199 0 255 0
-6.715500 -7.820900 7.957300 0 255 0
-6.709700 -8.717200 2.454100 0 255 0
-7.156000 -8.918000 16.370001 0 255 0
-7.150000 -8.855000 19.605000 255 0 0
-7.165000 -8.812500 10.072500 0 255 0
-6.876700 -8.713300 3.470000 0 255 0
-6.860000 -8.620000 9.970000 0 255 0
-6.852500 -8.677500 10.260000 0 255 0
-7.160400 -8.526700 1.207900 255 0 0
-7.165000 -8.350000 -2.135000 255 0 0
-7.180000 -8.240000 7.370000 255 0 0
-7.157500 -8.468300 4.360800 255 0 0
-7.157400 -8.171900 10.513000 0 255 0
-7.050000 -8.790000 17.299999 0 255 0
-7.060000 -8.890000 10.800000 0 255 0
-7.956700 -8.066700 11.970000 0 255 0
-7.413100 -8.416900 8.461500 255 0 0
-7.395600 -8.370000 5.113300 255 0 0
-7.407100 -7.720000 15.014300 0 255 0
-7.404500 -8.464000 11.607500 255 0 0
-6.980000 -9.170000 24.080000 0 255 0
-6.948500 -8.958500 11.404600 0 255 0
-6.904500 -8.915500 11.503600 0 255 0
-7.003300 -8.213300 11.513300 0 255 0
-7.440000 -7.840000 12.120000 0 255 0
-7.020000 -8.360000 15.290000 0 255 0
-6.995000 -8.182500 2.267500 0 255 0
-7.005000 -8.330000 12.070000 0 255 0
-6.861100 -8.265600 12.107800 0 255 0
-8.370000 -8.570000 13.940000 0 255 0
-8.250000 -8.310000 11.830000 0 255 0
-8.250000 -8.980000 21.209999 0 255 0
-7.180000 -8.640000 9.860000 255 0 0
-7.170000 -8.653300 19.490000 255 0 0
-7.166300 -8.715000 16.362499 255 0 0
-7.152200 -8.560000 13.005600 255 0 0
-7.140000 -9.230000 17.900000 0 255 0
-6.700000 -9.680000 22.650000 0 255 0
-6.851500 -8.128000 16.306499 0 255 0
-7.010000 -8.420000 20.049999 0 255 0
-7.043300 -7.470000 -2.893300 0 255 255
-7.013300 -8.263300 10.566700 0 255 0
-7.010000 -8.350000 17.080000 0 255 0
-6.920000 -8.040000 11.450000 0 255 0
-6.903300 -8.210000 23.706699 0 255 0
-6.910000 -8.050000 14.610000 0 255 0
-6.904000 -8.172000 8.112000 0 255 0
-6.904400 -8.325600 17.203300 0 255 0
-6.558600 -9.007100 17.117100 0 255 0
-7.210000 -8.620000 21.100000 255 0 0
-7.213300 -8.653300 24.250000 0 255 0
-7.213300 -8.580000 17.950001 255 0 0
-8.346700 -8.426700 19.616699 0 255 0
-7.260000 -8.550000 24.860001 0 255 0
-7.253300 -8.920000 2.820000 0 255 0
-7.262500 -8.662500 18.344999 255 0 0
-8.306700 -8.425000 19.805000 0 255 0
-7.200000 -8.570000 12.060000 255 0 0
-7.214300 -8.671400 18.559999 255 0 0
-7.200000 -8.790000 -3.330000 0 255 0
-7.203300 -8.666700 15.606700 255 0 0
-7.196000 -8.624000 12.554000 255 0 0
-7.211100 -8.564400 9.306700 255 0 0
-7.215600 -8.874400 2.959400 0 255 0
-7.202500 -8.725000 18.855000 255 0 0
-7.120000 -8.120000 24.000000 0 255 0
-7.092500 -8.530000 -2.085000 255 0 0
-7.090000 -8.220000 17.080000 0 255 0
-7.112000 -8.324000 10.550000 0 255 0
-7.108600 -8.414500 4.408600 255 0 0
-7.005600 -7.880000 18.400000 0 255 0
-7.054600 -7.672500 18.413300 0 255 0
-7.195000 -8.815000 22.270000 255 0 0
-7.210000 -8.763300 19.120001 255 0 0
-6.903300 -7.623300 18.370001 0 255 0
-7.177500 -8.770000 22.855000 255 0 0
-7.155700 -8.821400 19.712900 255 0 0
-6.300000 -8.870000 14.350000 0 255 0
-7.270000 -7.350000 -2.850000 0 255 255
-6.640000 -9.120000 23.205000 0 255 0
-6.106700 -9.060000 24.253300 0 255 0
-6.710000 -9.660000 18.665001 0 255 0
-6.970000 -9.780000 18.240000 0 255 0
-7.060000 -9.025000 18.240000 0 255 0
-7.250000 -8.280000 9.190000 255 0 0
-6.780000 -7.970000 11.950000 0 255 0
-6.760000 -8.540000 15.050000 0 255 0
-7.053600 -8.080000 2.968200 0 255 0
-6.860000 -7.840000 12.450000 0 255 0
-6.859200 -7.970200 3.015800 0 255 0
-7.140000 -8.530000 -2.960000 0 255 0
-7.164000 -8.310000 9.708000 255 0 0
-7.156200 -7.967500 20.118799 0 255 0
-7.160800 -8.220300 3.410800 255 0 0
-7.103500 -8.252900 0.857100 255 0 0
-7.106000 -8.108000 16.260000 0 255 0
-7.095800 -8.312300 4.008800 0 255 0
-7.105300 -8.581200 -1.694100 255 0 0
-7.115000 -8.525000 8.108800 255 0 0
-7.117300 -8.463600 4.863600 255 0 0
-6.130000 -9.115000 23.605000 0 255 0
-6.105000 -8.825000 17.270000 0 255 0
-6.110000 -8.870000 20.520000 0 255 0
-7.260000 -7.740000 20.080000 0 255 0
-7.280000 -8.410000 0.110000 255 0 0
-7.250000 -7.877500 10.407500 0 255 0
-7.270000 -8.300000 6.590000 255 0 0
-7.275700 -8.421300 0.413500 255 0 0
-7.265000 -8.300000 6.707500 255 0 0
-7.180000 -8.510000 4.520000 255 0 0
-7.155800 -8.170800 14.407500 0 255 0
-7.156800 -8.465000 7.655000 255 0 0
-7.107500 -7.822500 7.765000 0 255 0
-6.808000 -7.722000 7.964500 0 255 0
-6.808100 -7.823700 14.459300 0 255 0
-7.109700 -8.216300 2.851700 255 0 0
-7.260000 -8.190000 0.730000 255 0 0
-7.246700 -8.466700 7.056700 255 0 0
-7.252900 -8.410000 10.217100 255 0 0
-7.204400 -8.511100 13.665600 255 0 0
-7.206000 -8.170700 17.262699 0 255 0
-7.205000 -8.461000 10.509000 255 0 0
-6.590000 -8.880000 16.389999 0 255 0
-6.619400 -8.768800 10.106300 0 255 0
-7.168800 -8.482500 13.958800 255 0 0
-7.155000 -8.369000 7.461400 255 0 0
-7.163300 -8.513300 10.808900 255 0 0
-8.459000 -8.669800 12.103900 0 255 0
-6.760000 -8.660000 17.070000 0 255 0
-6.753500 -8.963900 10.712200 0 255 0
-7.305000 -8.023600 11.621400 0 255 0
-6.968900 -8.422200 -1.395600 255 0 0
-6.980000 -8.610000 11.650000 0 255 0
-6.700000 -9.020000 22.969999 0 255 0
-6.710000 -8.414400 11.518800 0 255 0
-6.970000 -8.120000 18.530001 0 255 0
-6.963300 -8.010000 12.205000 0 255 0
-6.858100 -8.667800 12.210000 0 255 0
-6.507800 -8.525100 12.206800 0 255 0
-6.313600 -8.468200 12.363600 0 255 0
-7.008000 -9.358000 -3.092000 0 255 255
-6.655000 -9.065000 23.110001 0 255 0
-7.463300 -8.416700 17.070000 0 255 0
-8.120000 -8.915000 18.340000 0 255 0
-6.460000 -8.625000 16.155001 0 255 0
-7.223300 -8.480000 1.020000 255 0 0
-7.208000 -8.515000 4.160000 255 0 0
-7.202000 -8.232000 10.708000 0 255 0
-7.196700 -8.023300 23.760000 0 255 0
-7.217000 -8.320900 17.211300 0 255 0
-7.600000 -9.606700 18.193300 0 255 0
-6.447500 -8.717500 16.415001 0 255 0
-6.560000 -8.960000 13.915000 0 255 0
-6.568900 -8.910000 17.162201 0 255 0
-7.080000 -8.540000 15.000000 0 255 0
-7.058300 -8.573300 12.208300 0 255 0
-7.057900 -8.716900 2.761000 0 255 0
-6.564000 -8.774000 14.248000 0 255 0
-7.770000 -8.910000 19.000000 0 255 0
-6.697500 -8.427500 9.920000 0 255 0
-6.695000 -8.325000 16.225000 0 255 0
-7.014000 -9.316000 18.118000 0 255 0
-7.553300 -8.763300 22.156700 0 255 0
-7.580000 -8.830000 19.000000 0 255 0
-8.106700 -8.270000 19.817801 0 255 0
-7.000000 -8.230000 2.610000 255 0 0
-7.005700 -8.362900 12.258600 0 255 0
-7.020000 -8.470000 18.420000 0 255 0
-6.720000 -9.235000 18.272499 0 255 0
-7.210000 -9.272000 -3.276000 0 255 255
-7.215000 -8.755000 16.514999 255 0 0
-7.190000 -8.870000 22.820000 255 0 0
-7.217100 -8.814300 19.654301 255 0 0
-6.370000 -8.850000 -3.250000 0 255 255
-8.110800 -8.283800 12.353100 0 255 0
-7.170000 -7.375000 -2.845000 0 255 255
-6.315000 -9.390000 23.270000 0 255 0
-7.675000 -9.365000 -2.555000 0 255 255
-7.650000 -9.780000 23.540001 0 255 0
-6.960000 -8.910000 2.325000 0 255 0
-6.940000 -9.200000 22.090000 0 255 0
-7.540000 -9.770000 23.740000 0 255 0
-6.940000 -8.965000 -3.125000 0 255 0
-6.961800 -9.271800 16.450001 0 255 0
-6.960000 -9.380000 22.959999 0 255 0
-8.405000 -8.478300 12.815000 0 255 0
-6.854800 -7.966200 3.265200 0 255 0
-6.561700 -8.520000 16.219999 0 255 0
-7.440000 -8.350000 5.520000 255 0 0
-7.480000 -8.250000 11.790000 0 255 0
-7.440000 -8.390000 6.520000 255 0 0
-6.155000 -9.125000 23.775000 0 255 0
-6.660000 -8.620000 11.563300 0 255 0
-7.013800 -8.121500 14.411500 0 255 0
-7.016700 -8.020000 7.926700 0 255 0
-6.870000 -7.680000 -2.700000 0 255 0
-6.860400 -7.819800 14.407200 0 255 0
-6.861400 -7.916400 7.915000 0 255 0
-7.226700 -8.605000 -2.438300 255 0 0
-7.213300 -8.510000 15.306700 255 0 0
-7.193300 -8.468300 12.058300 255 0 0
-7.200000 -8.413300 9.002200 255 0 0
-7.175000 -8.685000 15.845000 255 0 0
-7.160000 -8.420000 17.740000 0 255 0
-7.166000 -8.562000 9.564000 255 0 0
-7.156200 -8.867900 2.807900 0 255 0
-7.316700 -8.756700 19.703300 255 0 0
-7.305000 -8.700000 16.549999 255 0 0
-7.290000 -8.565000 7.065000 255 0 0
-7.312200 -8.813300 10.057800 0 255 0
-7.549300 -8.265300 10.356000 0 255 0
-7.553300 -8.140000 19.853300 0 255 0
-7.200000 -8.860000 16.395000 0 255 0
-7.216000 -8.964000 -2.942000 0 255 0
-7.208900 -8.766300 10.115300 0 255 0
-7.414500 -8.366800 17.122299 0 255 0
-7.410000 -8.267800 10.560000 0 255 0
-7.858700 -9.368100 -2.031900 0 255 255
-8.416400 -8.468200 12.306800 0 255 0
-7.310000 -8.190000 5.165000 255 0 0
-7.305000 -8.465000 11.295000 255 0 0
-7.810000 -8.270000 12.300000 0 255 0
-7.461800 -8.076400 12.115000 0 255 0
-6.756900 -8.673100 10.261900 0 255 0
-7.263300 -7.968300 12.063300 0 255 0
-7.130000 -8.560000 8.860000 255 0 0
-7.105000 -8.520000 19.969999 0 255 0
-7.105900 -8.673500 2.558800 0 255 0
-7.120000 -8.615000 12.020000 255 0 0
-6.540000 -8.910000 11.450000 0 255 0
-7.630000 -9.460000 16.010000 0 255 0
-7.110000 -8.280000 19.780001 0 255 0
-7.107500 -8.575000 -0.638200 255 0 0
-7.120000 -8.460000 7.119100 255 0 0
-7.103300 -8.623300 2.513300 0 255 0
-7.110000 -8.518700 10.263300 0 255 0
-8.354000 -8.176000 14.208000 0 255 0
-8.000000 -8.210000 11.960000 0 255 0
-8.005000 -8.275000 15.095000 0 255 0
-8.000000 -8.240000 12.010000 0 255 0
-7.210500 -9.716300 18.162100 0 255 0
-8.266200 -8.270000 12.313800 0 255 0
-6.611900 -8.368100 17.261299 0 255 0
-6.507100 -8.915700 12.001400 0 255 0
-6.810000 -9.570000 18.120001 0 255 0
-7.100000 -8.850000 21.610001 255 0 0
-7.102700 -9.022700 19.010901 0 255 0
-6.660000 -7.825600 18.313101 0 255 0
-6.355700 -8.865700 -3.004300 0 255 255
-7.040000 -9.350000 20.290001 0 255 0
-7.915000 -8.255000 22.855000 0 255 0
-6.100000 -8.960000 19.950001 0 255 0
-6.570000 -8.885000 13.920000 0 255 0
-8.030000 -9.090000 21.280001 0 255 0
-6.220000 -9.070000 24.090000 0 255 0
-6.115000 -9.080000 24.295000 0 255 0
-7.605700 -8.068600 11.664300 0 255 0
-7.603300 -8.210000 21.299999 0 255 0
-8.400000 -8.600000 19.879999 0 255 0
-8.406000 -8.578000 16.708000 0 255 0
-7.260000 -8.753300 18.766701 255 0 0
-7.280000 -8.580000 5.730000 255 0 0
-7.240000 -8.730000 21.910000 255 0 0
-7.260000 -9.125000 -3.390000 0 255 0
-7.252500 -8.530000 8.845000 255 0 0
-6.230000 -8.780000 23.059999 0 255 0
-7.250000 -8.670000 23.160000 0 255 0
-6.365000 -8.720000 16.415001 0 255 0
-7.515000 -8.280000 19.867500 0 255 0
-8.153300 -9.070000 19.963301 0 255 0
-7.506700 -8.163300 20.107800 0 255 0
-7.509100 -8.423600 10.303600 0 255 0
-7.700000 -8.220000 11.660000 0 255 0
-7.590000 -8.215000 11.740000 0 255 0
-7.200000 -8.430000 17.250000 0 255 0
-7.200000 -8.720000 11.530000 0 255 0
-7.110000 -7.790000 24.230000 0 255 0
-7.115000 -8.226000 2.161700 255 0 0
-7.105700 -7.977100 11.565700 0 255 0
-7.008900 -7.970000 11.659600 0 255 0
-6.566100 -8.866100 14.108900 0 255 0
-6.560800 -8.825800 17.255800 0 255 0
-7.412000 -8.874000 -2.780000 0 255 0
-7.407500 -8.312500 12.265000 0 255 0
-6.860000 -8.020000 15.255000 0 255 0
-6.870000 -8.310000 21.410000 0 255 0
-6.858300 -8.066700 12.018300 0 255 0
-6.814500 -8.761800 12.001800 0 255 0
-6.615000 -7.920000 15.030000 0 255 0
-6.610000 -8.680000 12.007000 0 255 0
-7.330000 -9.260000 -2.760000 0 255 255
-7.304000 -8.576000 16.218000 255 0 0
-7.310000 -8.520000 12.950000 255 0 0
-7.090000 -8.700000 15.140000 255 0 0
-6.105200 -8.820900 12.957800 0 255 0
-7.757900 -7.820700 15.168600 0 255 0
-7.160000 -8.480900 13.761800 255 0 0
-7.152000 -8.529000 10.607000 255 0 0
-7.153700 -8.367000 7.260500 0 255 0
-7.158000 -8.222000 17.160000 0 255 0
-6.970000 -8.010000 10.500000 0 255 0
-6.756700 -8.890000 10.656700 0 255 0
-6.758900 -8.974400 17.161100 0 255 0
-6.907500 -8.010000 8.210000 0 255 0
-6.912500 -8.372500 17.202499 0 255 0
-6.916000 -8.224000 20.452000 0 255 0
-6.910000 -8.080000 11.480000 0 255 0
-7.854300 -8.672900 19.071400 0 255 0
-7.190000 -8.560000 15.280000 255 0 0
-7.204300 -8.762100 2.615000 0 255 0
-7.211100 -8.616100 18.408899 255 0 0
-7.095000 -7.720000 18.375000 0 255 0
-6.145000 -8.810000 20.610001 0 255 0
-6.151700 -8.860800 17.360001 0 255 0
-7.210500 -8.469000 13.407100 255 0 0
-7.219200 -8.530800 16.556700 0 255 0
-7.207200 -8.412800 10.064000 255 0 0
-7.207300 -8.720700 2.708000 0 255 0
-7.210000 -8.163800 19.962500 0 255 0
-7.130000 -9.380000 21.040001 0 255 0
-7.880000 -9.240000 23.530001 0 255 0
-7.261300 -7.513700 -2.537500 0 255 255
-7.203300 -8.460000 8.406700 255 0 0
-7.193300 -8.426700 5.063300 255 0 0
-7.196000 -8.516000 11.554000 255 0 0
-7.800000 -8.060000 23.730000 0 255 0
-6.495000 -8.720000 23.325001 0 255 0
-6.507800 -9.323400 10.658800 0 255 0
-6.108500 -8.571100 12.910400 0 255 0
-8.230000 -8.430000 14.240000 0 255 0
-8.213300 -8.990000 -2.053300 0 255 255
-8.208000 -8.470000 17.510000 0 255 0
-6.370000 -9.380000 20.400000 0 255 0
-6.430000 -9.030000 -3.190000 0 255 255
-7.910000 -9.580000 23.959999 0 255 0
-7.920000 -8.070000 15.100000 0 255 0
-7.930000 -7.960000 21.620001 0 255 0
-7.911900 -8.221300 12.207500 0 255 0
-7.362500 -8.027500 12.012500 0 255 0
-7.354200 -8.071600 12.202100 0 255 0
-7.170000 -7.330000 -2.940000 0 255 255
-6.500000 -8.955000 13.965000 0 255 0
-6.793300 -9.620000 22.463301 0 255 0
-7.301700 -8.270000 0.665000 255 0 0
-7.290000 -8.370000 19.820000 0 255 0
-7.316700 -8.471100 13.312200 255 0 0
-8.320000 -8.590000 -2.570000 0 255 255
-8.290000 -8.330000 19.920000 0 255 0
-6.680000 -9.770000 23.190001 0 255 0
-6.758800 -9.172500 18.056200 0 255 0
-6.857700 -7.618800 18.415400 0 255 0
-7.210000 -8.770000 19.059999 255 0 0
-7.330000 -8.475000 -2.180000 255 0 0
-7.330000 -8.385000 4.110000 255 0 0
-7.305000 -7.815000 8.110000 0 255 0
-7.300300 -8.318900 0.961900 255 0 0
-7.703300 -8.463300 23.510000 0 255 0
-6.152900 -8.812900 19.910000 0 255 0
-7.870000 -9.460000 24.180000 0 255 0
-6.745000 -9.710000 22.350000 0 255 0
-7.670000 -8.080000 22.690001 0 255 0
-6.475000 -9.280000 14.295000 0 255 0
-6.470000 -9.120000 23.940001 0 255 0
-6.365000 -8.340000 20.000000 0 255 0
-7.800000 -9.465000 23.917500 0 255 0
-7.805000 -9.405000 20.754999 0 255 0
-6.259000 -8.669500 17.866699 0 255 0
-6.330000 -8.300000 17.865000 0 255 0
-7.130000 -9.860000 21.430000 0 255 0
-6.970000 -8.423300 18.493299 0 255 0
-6.964600 -8.319200 12.158500 0 255 0
-6.963000 -8.270500 2.713000 255 0 0
-6.316700 -8.368300 16.360001 0 255 0
-7.366700 -9.216700 23.920000 0 255 0
-6.312500 -8.432500 20.052500 0 255 0
-7.075000 -8.527500 8.160000 0 255 0
-7.510000 -8.710000 16.450001 0 255 0
-7.330000 -9.620000 19.670000 0 255 0
-7.610000 -8.470000 23.360001 0 255 0
-7.312500 -9.370000 -2.843700 0 255 255
-7.158500 -7.666900 8.211900 0 255 0
-7.953300 -9.463300 16.260000 0 255 0
-6.840000 -9.690000 23.150000 0 255 0
-7.393300 -8.363300 12.351700 0 255 0
-7.397500 -8.277500 5.807500 255 0 0
-7.401300 -8.328800 9.115000 255 0 0
-7.414500 -8.457300 18.852699 0 255 0
-6.970000 -8.150000 11.860000 0 255 0
-6.957800 -8.117200 15.008300 0 255 0
-6.970000 -8.261700 18.411699 0 255 0
-7.264000 -8.504000 6.452000 255 0 0
-7.253300 -8.760000 16.356701 255 0 0
-7.253300 -8.713300 19.510000 255 0 0
-7.160000 -8.815000 16.450001 0 255 0
-7.156700 -8.764200 19.708300 255 0 0
-7.907500 -8.078700 22.862499 0 255 0
-7.773300 -7.983300 22.760000 0 255 0
-6.990000 -8.520000 4.560000 255 0 0
-7.020000 -8.730000 17.190001 0 255 0
-7.010000 -8.765700 20.354300 0 255 0
-7.014400 -8.466100 1.210600 255 0 0
-7.018400 -8.419600 -1.939400 255 0 0
-7.740000 -9.220000 22.360001 0 255 0
-8.230000 -9.190000 21.100000 0 255 0
-6.844300 -8.812900 3.611400 0 255 0
-6.507600 -8.619100 3.801200 0 255 0
-7.580000 -8.930000 17.230000 0 255 0
-7.566700 -9.680000 16.023300 0 255 0
-7.567500 -9.355000 -2.775000 0 255 255
-6.815000 -8.313600 8.062300 0 255 0
-6.570000 -7.940000 8.323300 0 255 0
-6.604400 -9.563100 16.510599 0 255 0
-7.470000 -9.435000 17.995001 0 255 0
-7.450000 -9.350000 21.280001 0 255 0
-7.480000 -9.340000 24.330000 0 255 0
-6.950000 -8.665000 3.510000 0 255 0
-6.980000 -8.510000 0.515000 255 0 0
-6.956200 -8.781300 10.013800 0 255 0
-7.010000 -9.460000 21.990000 0 255 0
-7.330000 -8.350000 8.860000 255 0 0
-7.301300 -8.458800 2.356300 255 0 0
-7.302600 -8.421900 -0.888400 255 0 0
-6.560000 -8.571100 14.164400 0 255 0
-6.562200 -8.517000 17.308701 0 255 0
-6.702000 -8.726000 12.018000 0 255 0
-6.712000 -9.410000 18.558001 0 255 0
-6.708700 -8.764800 2.365000 0 255 0
-6.066000 -8.914000 24.018000 0 255 0
-6.965000 -9.165000 23.040001 0 255 0
-6.950000 -9.020000 19.799999 0 255 0
-6.461200 -9.067500 10.465000 0 255 0
-7.512500 -8.760000 22.207500 0 255 0
-6.520000 -9.130000 17.200001 0 255 0
-6.506200 -9.222300 10.697700 0 255 0
-6.300000 -8.530000 20.459999 0 255 0
-7.000000 -8.630000 23.059999 0 255 0
-7.027700 -8.286900 1.810800 255 0 0
-6.180000 -8.790000 17.280001 0 255 0
-6.815000 -8.470000 3.695000 0 255 0
-6.804500 -8.574500 10.016000 0 255 0
-6.465000 -9.140000 -2.840000 0 255 255
-7.520000 -8.110000 -2.940000 0 255 0
-7.670000 -8.820000 17.690001 0 255 0
-7.510000 -9.367500 23.612499 0 255 0
-6.705000 -9.560000 18.715000 0 255 0
-8.270000 -8.622400 12.107600 0 255 0
-7.500000 -9.330000 23.780001 0 255 0
-6.630000 -8.430000 23.290001 0 255 0
-6.590000 -8.310000 17.030001 0 255 0
-7.346700 -8.626700 14.160000 255 0 0
-7.357000 -8.519000 7.861000 255 0 0
-6.762500 -8.765800 11.761700 0 255 0
-6.861500 -8.867700 10.105400 0 255 0
-7.060000 -8.520000 5.310000 255 0 0
-7.070000 -8.630000 -0.450000 255 0 0
-7.070000 -8.565000 2.695000 0 255 0
-8.154000 -8.828000 -2.834000 0 255 255
-6.550000 -8.720000 17.780001 0 255 0
-6.910000 -8.230000 20.205000 0 255 0
-7.759600 -9.463600 15.965000 0 255 0
-6.530000 -9.685000 22.299999 0 255 0
-8.220000 -8.023300 17.516701 0 255 0
-8.225000 -7.965000 14.355000 0 255 0
-6.464700 -9.514700 20.310699 0 255 0
-7.616700 -9.822200 19.901100 0 255 0
-6.615000 -7.855000 18.459999 0 255 0
-7.015000 -8.360000 20.065001 0 255 0
-7.040000 -7.530000 -2.640000 0 255 255
-7.012900 -8.227100 10.405700 0 255 0
-6.105000 -8.470000 20.004999 0 255 0
-6.762000 -7.669300 18.410700 0 255 0
-6.760000 -7.730000 15.180000 0 255 0
-8.265000 -8.275000 -3.100000 0 255 255
-8.259100 -8.763600 16.703600 0 255 0
-6.515000 -8.975000 24.049999 0 255 0
-7.810000 -8.860000 -3.083300 0 255 255
-7.754000 -8.656000 -2.790000 0 255 255
-6.262500 -8.030000 12.762500 0 255 0
-6.960000 -9.390000 20.260000 0 255 0
-6.955000 -9.315000 23.389999 0 255 0
-6.870000 -9.510000 24.139999 0 255 0
-6.580000 -8.170000 11.410000 0 255 0
-6.567300 -8.037300 8.102700 0 255 0
-6.568300 -8.233300 21.160000 0 255 0
-8.360000 -8.570000 14.105600 0 255 0
-6.780000 -8.750000 3.790000 0 255 0
-7.666000 -9.264000 -2.692000 0 255 255
-8.212500 -8.517500 -2.880000 0 255 255
-6.215000 -8.935000 10.505000 0 255 0
-6.662500 -8.410000 7.862500 0 255 0
-7.855000 -8.119000 12.312000 0 255 0
-7.153300 -8.476700 2.923300 255 0 0
-7.175000 -8.235000 6.406700 255 0 0
-7.260000 -8.373300 11.750000 255 0 0
-7.260000 -8.486000 5.458000 255 0 0
-7.380000 -8.370000 6.850000 255 0 0
-7.360000 -8.135000 -3.045000 0 255 0
-7.343300 -8.326700 10.006700 255 0 0
-7.355000 -8.280000 0.115000 255 0 0
-7.366200 -8.473800 13.168700 255 0 0
-7.340000 -8.240000 3.260000 255 0 0
-8.195000 -8.520000 20.000000 0 255 0
-7.300000 -9.005000 14.150000 0 255 0
-7.209800 -8.672400 10.156700 0 255 0
-6.230000 -9.290000 21.570000 0 255 0
-6.830000 -8.000000 3.240000 0 255 0
-7.111100 -9.072200 18.461100 0 255 0
-6.566700 -8.426700 -3.036700 0 255 0
-8.240000 -8.800000 18.450001 0 255 0
-7.210000 -8.812500 22.152500 255 0 0
-7.206700 -8.778300 19.010000 255 0 0
-6.561300 -8.318100 12.304700 0 255 0
-6.550000 -8.505000 19.764999 0 255 0
-6.500000 -8.340000 23.209999 0 255 0
-7.907500 -8.557500 12.925000 0 255 0
-6.280000 -8.730000 14.260000 0 255 0
-6.390000 -9.130000 22.600000 0 255 0
-7.520000 -8.980000 17.190001 0 255 0
-6.200000 -8.810000 17.790001 0 255 0
-6.200000 -8.940000 24.100000 0 255 0
-8.310000 -8.115000 12.170000 0 255 0
-8.315700 -8.170000 12.214300 0 255 0
-6.170000 -9.270000 22.466700 0 255 0
-7.604000 -8.120000 23.468000 0 255 0
-7.440000 -8.200000 12.230000 0 255 0
-6.520000 -8.875000 11.805000 0 255 0
-7.819100 -8.022700 15.215500 0 255 0
-6.400000 -8.688000 11.422000 0 255 0
-7.170000 -8.400000 -0.200000 255 0 0
-7.165000 -8.500000 6.115000 255 0 0
-7.155700 -8.469300 9.258900 255 0 0
-7.172500 -8.510000 8.658700 255 0 0
-7.167100 -8.471400 11.898600 255 0 0
-7.147800 -8.367800 5.612200 255 0 0
-7.770000 -8.823300 -3.346700 0 255 255
-6.709200 -7.967100 8.060000 0 255 0
-7.314700 -8.267900 3.657100 255 0 0
-7.301700 -8.435000 13.560000 255 0 0
-6.660000 -8.400000 23.690001 0 255 0
-6.650000 -8.590000 14.320000 0 255 0
-6.657500 -8.512500 17.352501 0 255 0
-6.664400 -7.872900 7.956000 0 255 0
-6.705000 -8.970000 16.280001 0 255 0
-6.710000 -8.337500 11.755000 0 255 0
-6.223300 -8.923300 10.476700 0 255 0
-7.360000 -9.610000 19.600000 0 255 0
-7.340000 -9.380000 -2.910000 0 255 255
-7.530000 -9.100000 -3.090000 0 255 255
-7.270000 -8.670000 14.955000 255 0 0
-7.246700 -8.626700 18.206699 255 0 0
-8.240000 -9.120000 16.540001 0 255 0
-7.755000 -8.512500 23.612499 0 255 0
-7.930000 -8.940000 21.040001 0 255 0
-7.900000 -7.590000 -1.980000 0 255 255
-7.793300 -9.113300 22.346701 0 255 0
-8.230000 -7.850000 -2.700000 0 255 255
-7.090000 -8.465000 18.815001 0 255 0
-7.114500 -8.611800 16.406401 255 0 0
-7.107500 -8.560000 13.255000 255 0 0
-7.108200 -8.730000 10.111800 0 255 0
-7.267400 -8.315500 0.762400 255 0 0
-7.730000 -7.880000 15.450000 0 255 0
-7.302700 -8.375400 -1.242200 255 0 0
-8.350000 -8.863300 16.693300 0 255 0
-8.220000 -9.030000 16.420000 0 255 0
-7.570000 -9.160000 -2.700000 0 255 255
-6.700000 -8.770000 12.006700 0 255 0
-7.690000 -8.310000 21.030001 0 255 0
-7.421200 -7.970000 20.162500 0 255 0
-7.420000 -7.930000 16.910000 0 255 0
-7.280000 -8.540000 -2.160000 255 0 0
-7.260000 -8.173300 20.013300 0 255 0
-7.248000 -8.511000 1.362000 255 0 0
-7.261000 -8.572400 -1.784300 255 0 0
-7.715700 -8.267100 12.112100 0 255 0
-8.007500 -8.517500 17.517500 0 255 0
-6.364000 -8.369000 12.226000 0 255 0
-6.868300 -8.631700 3.470000 0 255 0
-6.863700 -8.821300 16.113100 0 255 0
-6.906700 -7.713300 8.210000 0 255 0
-6.930000 -7.780000 10.425000 0 255 0
-7.150000 -8.488000 4.018000 255 0 0
-7.161800 -8.531200 0.758800 255 0 0
-7.264400 -8.477200 2.657800 255 0 0
-7.253300 -8.356700 8.966700 255 0 0
-7.300000 -9.560000 22.360001 0 255 0
-7.303400 -8.371600 -0.339400 0 255 0
-7.600000 -7.670000 7.790000 0 255 0
-7.714300 -8.224300 12.054300 0 255 0
-7.708900 -8.273000 15.207000 0 255 0
-7.310000 -9.360000 -2.970000 0 255 255
-7.374000 -8.572000 10.368000 255 0 0
-7.340000 -8.660000 16.879999 255 0 0
-7.358000 -8.517000 13.612000 255 0 0
-6.656700 -9.061700 10.321700 0 255 0
-8.000000 -9.050000 23.820000 0 255 0
-6.902200 -8.983300 -2.993300 0 255 255
-7.550000 -8.875000 -2.700000 0 255 255
-7.554000 -7.876000 10.770000 0 255 0
-7.170000 -8.670000 10.590000 0 255 0
-7.150000 -8.390000 16.540001 0 255 0
-7.180000 -8.420000 13.400000 255 0 0
-7.115000 -8.600000 -0.795000 255 0 0
-7.109100 -8.462700 4.010000 255 0 0
-7.130000 -8.390000 10.310000 255 0 0
-7.105000 -8.510000 7.157500 255 0 0
-7.103300 -8.311700 19.809999 0 255 0
-7.006500 -7.971500 8.155000 0 255 0
-7.010000 -8.200000 23.799999 0 255 0
-7.058600 -7.580000 8.164300 0 255 0
-7.013300 -8.273300 8.246700 0 255 0
-7.280000 -8.470000 -0.336700 255 0 0
-7.263300 -8.322600 9.108100 255 0 0
-7.010000 -9.620000 23.219999 0 255 0
-7.265000 -8.635000 21.000000 255 0 0
-7.262000 -8.574000 24.250000 0 255 0
-6.565000 -7.920000 15.115000 0 255 0
-8.107500 -8.865000 16.507500 0 255 0
-6.603600 -8.527300 12.211800 0 255 0
-6.495000 -8.560000 19.955000 0 255 0
-6.455000 -8.640000 3.510000 0 255 0
-7.715000 -8.315000 23.420000 0 255 0
-6.540000 -9.190000 10.190000 0 255 0
-8.310000 -8.670000 12.460000 0 255 0
-7.701700 -8.010000 10.700000 0 255 0
-8.160000 -8.220000 15.190000 0 255 0
-7.160000 -7.673300 20.450001 0 255 0
-7.696700 -9.206700 -2.653300 0 255 255
-8.153300 -8.803300 19.200001 0 255 0
-6.845000 -8.220000 8.247500 0 255 0
-7.211300 -7.672500 7.821300 0 255 0
-6.870000 -8.165000 20.465000 0 255 0
-6.856200 -7.966300 7.813800 0 255 0
-6.716700 -8.933300 10.754700 0 255 0
-7.130000 -8.110000 12.030000 0 255 0
-7.118800 -8.228700 5.065000 255 0 0
-7.102800 -8.305700 -1.439700 255 0 0
-7.863000 -9.412000 -1.938000 0 255 255
-7.270000 -8.480000 10.960000 255 0 0
-7.270000 -8.440000 14.130000 0 255 0
-7.260000 -8.186700 4.811700 255 0 0
-7.264300 -8.111400 7.965700 0 255 0
-7.251600 -8.229800 1.458600 255 0 0
-7.247500 -8.286200 -1.698700 255 0 0
-6.558500 -7.820300 18.305799 0 255 0
-7.475000 -7.550000 -2.645000 0 255 255
-7.907500 -9.317500 -2.240000 0 255 255
-7.556000 -8.214000 19.945000 0 255 0
-8.367600 -8.770500 16.611401 0 255 0
-8.354700 -8.870600 -2.342400 0 255 255
-8.362300 -8.419200 14.155400 0 255 0
-6.345000 -8.070000 13.110000 0 255 0
-6.365000 -8.300000 -3.085000 0 255 255
-7.395000 -8.505000 8.010000 255 0 0
-7.407100 -8.570000 11.154300 255 0 0
-7.390000 -8.660000 17.660000 0 255 0
-7.360000 -8.930000 24.350000 0 255 0
-7.580000 -7.290000 -2.870000 0 255 255
-7.052900 -9.222900 20.317101 0 255 0
-8.055300 -8.069400 15.169400 0 255 0
-6.368300 -8.821700 11.605000 0 255 0
-7.212500 -8.518700 1.609600 255 0 0
-7.200000 -8.320000 14.280000 0 255 0
-7.212500 -7.985000 17.177500 0 255 0
-7.206700 -8.183300 4.513300 255 0 0
-6.520000 -8.760000 21.049999 0 255 0
-6.510000 -8.723300 17.896700 0 255 0
-6.507300 -8.823000 11.412300 0 255 0
-7.965000 -8.177500 15.111300 0 255 0
-7.170000 -8.080000 -2.860000 0 255 0
-7.912000 -8.070000 22.823999 0 255 0
-6.500800 -9.362300 10.654600 0 255 0
-8.080000 -9.060000 -2.590000 0 255 255
-8.047500 -8.682500 22.725000 0 255 0
-7.257700 -9.016900 10.173100 0 255 0
-6.870000 -8.580000 22.105000 0 255 0
-6.870000 -8.075000 3.095000 0 255 0
-7.310000 -8.750000 2.490000 0 255 0
-7.305500 -8.231000 7.113000 255 0 0
-6.820000 -8.810000 10.350000 0 255 0
-7.160000 -8.226700 -0.543300 255 0 0
-7.160000 -8.188000 2.614000 255 0 0
-7.147400 -8.318400 5.759500 255 0 0
-7.320000 -8.450000 11.572500 255 0 0
-7.303300 -8.186700 5.013300 255 0 0
-6.914000 -8.120000 -2.880000 0 255 0
-6.920000 -8.210000 17.056700 0 255 0
-7.130000 -8.200000 20.450001 0 255 0
-7.120000 -8.080000 23.760000 0 255 0
-7.111700 -8.526700 0.905800 255 0 0
-7.096700 -8.273300 10.690000 0 255 0
-7.120000 -8.420000 7.406400 255 0 0
-7.110000 -8.175700 17.205200 0 255 0
-7.094000 -8.356000 4.154000 255 0 0
-7.162500 -8.560000 -2.937500 0 255 0
-7.158500 -8.522000 14.161000 255 0 0
-7.140000 -8.390000 10.900000 0 255 0
-7.156800 -8.419600 7.661400 255 0 0
-7.090000 -8.440000 -2.710000 0 255 0
-7.115000 -8.215000 10.355000 0 255 0
-7.106700 -8.133300 16.309999 0 255 0
-7.102500 -8.255500 0.812000 255 0 0
-7.097400 -8.312100 4.058500 0 255 0
-7.167100 -9.107100 -2.678600 0 255 0
-7.165000 -8.613300 16.306700 255 0 0
-6.656000 -8.478000 3.662000 0 255 0
-6.808600 -8.567500 3.610800 0 255 0
-6.820000 -8.430000 19.799999 0 255 0
-7.157700 -8.232700 0.308500 0 255 0
-7.157500 -8.319000 6.810700 255 0 0
-7.172500 -8.183700 3.555000 255 0 0
-6.816500 -8.427000 3.208000 0 255 0
-7.240000 -8.370000 16.450001 0 255 0
-7.257000 -8.426000 13.110000 255 0 0
-7.246700 -8.220000 0.063300 255 0 0
-7.265000 -8.183000 3.412000 255 0 0
-6.900000 -8.080000 16.280001 0 255 0
-6.920000 -8.310000 18.750000 0 255 0
-6.905700 -7.875700 3.204700 0 255 0
-7.290000 -8.020000 3.005000 0 255 0
-7.240000 -8.780000 15.920000 0 255 0
-7.260000 -8.550000 2.840000 255 0 0
-7.256400 -8.512900 6.102900 255 0 0
-6.815000 -8.805000 12.020000 0 255 0
-6.790000 -9.320000 18.559999 0 255 0
-6.809400 -8.681500 2.361800 0 255 0
-6.957800 -8.771800 2.306600 0 255 0
-7.013300 -7.620000 20.611700 0 255 0
-7.055000 -7.875000 23.862499 0 255 0
-7.075000 -8.290000 -2.245000 255 0 0
-7.057500 -8.021500 14.461000 0 255 0
-7.070700 -8.235000 1.006100 255 0 0
-7.000000 -8.628300 12.005000 0 255 0
-7.015700 -8.378600 -3.037100 0 255 0
-6.997700 -8.420700 0.158100 0 255 0
-7.197500 -8.240000 -0.492500 255 0 0
-7.250000 -8.460000 12.460000 255 0 0
-7.258900 -8.221300 2.559200 255 0 0
-7.247400 -8.280000 -0.586300 255 0 0
-7.263300 -8.183300 5.706700 255 0 0
-8.310000 -7.970000 12.130000 0 255 0
-7.161200 -7.817500 8.058700 0 255 0
-7.155000 -7.926700 14.550000 0 255 0
-7.140000 -7.860000 23.680000 0 255 0
-7.156300 -8.070500 10.598400 0 255 0
-7.162300 -8.283400 -1.640000 255 0 0
-8.315000 -8.065000 12.465000 0 255 0
-7.712500 -9.522500 18.053699 0 255 0
-7.810000 -9.280000 -2.210000 0 255 255
-7.180000 -8.820000 14.350000 0 255 0
-7.155000 -8.875000 24.125000 0 255 0
-6.967800 -8.764400 2.217800 0 255 0
-6.256700 -9.226700 23.860001 0 255 0
-6.220000 -9.330000 20.299999 0 255 0
-6.210000 -9.370000 23.462500 0 255 0
-6.208300 -8.977500 -2.650000 0 255 255
-6.706700 -8.410000 11.323300 0 255 0
-6.325000 -8.970000 14.445000 0 255 0
-6.303300 -8.920000 23.860001 0 255 0
-6.555900 -8.818600 3.700000 0 255 0
-7.370000 -9.400000 23.670000 0 255 0
-7.863000 -8.519000 23.465000 0 255 0
-6.730000 -7.710000 14.350000 0 255 0
-6.715000 -7.821700 8.063300 0 255 0
-7.200000 -8.772000 20.260000 255 0 0
-6.215000 -8.770000 17.995001 0 255 0
-7.240000 -8.650000 12.820000 255 0 0
-7.257900 -9.114800 10.209100 0 255 0
-7.251800 -8.923600 -2.848200 0 255 0
-7.265000 -8.575000 19.315001 0 255 0
-7.496700 -9.816700 20.040001 0 255 0
-6.820000 -9.080000 18.165001 0 255 0
-7.017000 -9.221000 18.212999 0 255 0
-6.607200 -8.771100 17.207199 0 255 0
-6.770000 -9.320000 23.110001 0 255 0
-6.750000 -8.775000 20.315001 0 255 0
-6.777100 -8.821400 17.161400 0 255 0
-8.175000 -7.805000 -2.695000 0 255 255
-8.256700 -8.563300 -2.586700 0 255 255
-8.258000 -8.077000 14.214000 0 255 0
-6.970000 -8.300000 14.470000 0 255 0
-6.950000 -8.230000 7.980000 0 255 0
-6.890000 -8.400000 18.590000 0 255 0
-6.918300 -8.518300 12.297500 0 255 0
-7.050000 -7.780000 12.023300 0 255 0
-7.011800 -7.765500 12.006400 0 255 0
-6.555000 -8.030000 22.504999 0 255 0
-7.107500 -7.819600 7.907500 0 255 0
-7.276700 -8.403300 -0.930000 255 0 0
-7.255600 -7.821100 11.706700 0 255 0
-7.859000 -8.119300 15.300700 0 255 0
-7.863400 -8.168000 12.012000 0 255 0
-6.303700 -9.168700 10.706300 0 255 0
-7.212500 -8.610000 -1.735800 255 0 0
-7.198000 -8.374000 8.056000 255 0 0
-7.206700 -8.470800 14.565800 255 0 0
-7.211200 -8.421200 11.312400 255 0 0
-7.208000 -8.520000 17.808001 255 0 0
-6.356000 -9.116000 10.559500 0 255 0
-6.580000 -9.330000 20.320000 0 255 0
-6.569100 -9.272700 10.615500 0 255 0
-6.910000 -9.040000 23.030001 0 255 0
-6.912400 -8.820900 10.766200 0 255 0
-6.810000 -8.310000 19.730000 0 255 0
-6.824000 -8.474500 3.908500 0 255 0
-6.815000 -8.575000 10.203700 0 255 0
-7.080000 -8.640000 13.320000 255 0 0
-7.073300 -8.560000 16.559999 0 255 0
-7.050000 -8.680000 10.056700 0 255 0
-8.015000 -8.380000 17.415001 0 255 0
-7.310000 -8.965000 19.790001 0 255 0
-7.415700 -9.425700 -2.350700 0 255 255
-7.200000 -8.535000 18.495001 255 0 0
-7.203300 -8.586700 -2.496700 255 0 0
-7.212900 -8.423500 12.208800 255 0 0
-7.217500 -8.477500 15.257500 255 0 0
-7.207800 -8.360600 8.962800 255 0 0
-6.726700 -7.824400 8.006700 0 255 0
-7.209000 -7.479000 8.013000 0 255 0
-7.202500 -8.455000 10.397500 255 0 0
-7.220000 -8.410000 7.080000 255 0 0
-7.208300 -8.510000 13.554200 255 0 0
-7.220000 -8.270000 3.750000 255 0 0
-7.201800 -8.314100 6.912400 255 0 0
-7.204400 -8.232800 0.613000 255 0 0
-6.390000 -8.410000 23.030001 0 255 0
-6.410000 -8.380000 19.865000 0 255 0
-6.420000 -8.720000 16.260000 0 255 0
-7.220000 -8.540000 -2.850000 0 255 0
-7.200000 -8.190000 0.170000 255 0 0
-7.223700 -8.332500 9.811300 255 0 0
-7.207200 -8.264200 6.658400 0 255 0
-7.207900 -8.212100 3.310000 255 0 0
-6.245000 -8.365000 -3.080000 0 255 255
-6.252500 -8.117500 12.763300 0 255 0
-6.460000 -8.528500 12.166900 0 255 0
-6.790000 -8.140000 15.290000 0 255 0
-6.805300 -8.068000 12.062000 0 255 0
-7.405000 -8.830000 -2.930000 0 255 0
-7.400000 -8.190000 6.180000 255 0 0
-7.156700 -8.480000 1.906700 255 0 0
-7.150000 -8.280000 14.540000 0 255 0
-7.165900 -8.234100 5.011400 255 0 0
-7.350000 -8.180000 4.520000 255 0 0
-7.120000 -8.236900 -0.439200 0 255 0
-7.106700 -8.060000 3.060000 0 255 0
-7.252500 -8.172500 11.555000 0 255 0
-7.266000 -8.368000 24.209999 0 255 0
-7.250000 -8.230000 8.310000 255 0 0
-7.263300 -8.263300 5.043300 255 0 0
-7.253600 -8.720000 2.952700 0 255 0
-7.160000 -8.072000 3.004000 0 255 0
-7.211800 -7.822700 12.200000 0 255 0
-7.211100 -8.078200 2.911300 0 255 0
-7.250000 -8.030000 2.805000 0 255 0
-6.758300 -8.767000 2.455700 0 255 0
-7.164000 -8.162000 12.302000 0 255 0
-7.159700 -8.468500 5.762100 255 0 0
-7.153200 -8.519000 2.611000 255 0 0
-6.790000 -9.430000 18.540001 0 255 0
-6.803200 -8.764600 2.364100 0 255 0
-7.200000 -8.270000 12.310000 0 255 0
-7.230000 -8.190000 6.000000 255 0 0
-7.207600 -8.506500 2.514100 255 0 0
-7.130000 -8.140000 24.379999 0 255 0
-7.100000 -8.540000 -0.960000 255 0 0
-7.095000 -8.365000 2.395000 255 0 0
-7.115600 -8.420600 5.558300 255 0 0
-7.105000 -8.175000 15.045000 0 255 0
-7.114400 -8.316100 11.711100 0 255 0
-7.044200 -8.469200 -2.084200 255 0 0
-7.065000 -8.270000 10.565000 0 255 0
-7.071600 -8.368800 4.408400 255 0 0
-7.056700 -8.426700 1.160000 255 0 0
-7.070000 -8.230800 2.661300 255 0 0
-7.067800 -8.282400 -0.687000 255 0 0
-7.770000 -7.630000 15.380000 0 255 0
-7.760000 -7.680000 -2.730000 0 255 255
-7.380000 -8.490000 8.540000 255 0 0
-7.345800 -8.370000 2.256700 255 0 0
-7.368300 -8.314300 5.409600 255 0 0
-7.357500 -8.416200 11.712500 0 255 0
-7.520000 -8.180000 12.030000 0 255 0
-7.510000 -8.221200 15.246200 0 255 0
-7.230000 -8.770000 18.260000 255 0 0
-7.218000 -8.828000 21.502001 255 0 0
-6.650000 -7.910000 22.370001 0 255 0
-6.210000 -8.630000 12.700000 0 255 0
-6.450000 -9.590000 21.480000 0 255 0
-7.275000 -8.685000 20.525000 255 0 0
-6.420000 -8.890000 21.270000 0 255 0
-6.653300 -7.961300 15.256700 0 255 0
-6.658100 -7.919000 18.309299 0 255 0
-6.920000 -8.820000 2.224500 0 255 0
-6.911700 -9.066700 18.910000 0 255 0
-7.750000 -7.770000 15.070000 0 255 0
-7.096000 -9.176000 10.018000 0 255 0
-7.980000 -8.010000 15.060000 0 255 0
-8.240000 -8.850000 19.780001 0 255 0
-6.970000 -8.050000 23.540001 0 255 0
-6.975000 -7.735000 10.330000 0 255 0
-8.000000 -8.325000 23.455000 0 255 0
-6.757700 -7.773100 8.203800 0 255 0
-8.063300 -7.676700 15.266700 0 255 0
-6.910000 -7.790000 8.400000 0 255 0
-6.905000 -7.970000 23.879999 0 255 0
-7.175000 -8.820000 21.370001 255 0 0
-8.040000 -8.140000 14.080000 0 255 0
-8.280000 -8.690000 18.650000 0 255 0
-6.463300 -8.378900 15.260000 0 255 0
-6.455000 -8.416200 12.221300 0 255 0
-8.392500 -8.752500 12.160000 0 255 0
-6.590000 -8.500000 15.105000 0 255 0
-6.615000 -8.665000 24.865000 0 255 0
-6.610000 -8.480000 12.210000 0 255 0
-6.760000 -7.960000 8.400000 0 255 0
-6.773300 -8.520000 12.206700 0 255 0
-6.957000 -7.870500 12.113500 0 255 0
-7.145000 -8.090000 8.155000 0 255 0
-7.163300 -7.823300 11.753300 0 255 0
-6.310000 -9.168300 10.612100 0 255 0
-7.720000 -8.030000 11.620000 0 255 0
-6.560000 -9.330000 20.370001 0 255 0
-6.560000 -9.260000 10.565000 0 255 0
-6.660000 -9.085000 23.174999 0 255 0
-6.655000 -9.280000 10.515000 0 255 0
-6.803600 -7.820000 8.207300 0 255 0
-6.809200 -7.767400 8.112800 0 255 0
-6.666200 -7.575000 -2.733800 0 255 255
-6.649000 -8.121000 14.372000 0 255 0
-6.655100 -8.227200 7.860000 0 255 0
-7.230000 -8.250000 4.140000 255 0 0
-7.207700 -8.230400 1.009900 0 255 0
-7.209100 -8.023200 14.462300 0 255 0
-7.206500 -8.315400 7.312300 255 0 0
-6.250000 -8.400000 12.370000 0 255 0
-6.370000 -8.150000 16.230000 0 255 0
-6.363300 -8.208900 12.955600 0 255 0
