-12.468300 -12.065000 16.111700 0 255 0
-11.514000 -10.522000 19.864000 0 255 0
-11.157500 -12.127500 -2.327500 0 255 255
-11.490000 -11.600000 -3.150000 255 0 0
-12.203700 -12.135000 -3.083800 0 255 255
-12.230000 -12.390000 13.090000 0 255 0
-12.460000 -11.560000 8.140000 0 255 0
-11.215000 -11.725000 -2.945000 0 255 0
-11.062700 -12.521800 -2.078200 0 255 255
-12.262500 -11.365000 12.066300 0 255 0
-10.680000 -12.020000 16.350000 0 255 0
-11.560000 -11.290000 18.490000 0 255 0
-11.270000 -12.770000 -2.960000 0 255 255
-12.050000 -11.500000 21.160000 0 255 0
-10.656200 -11.320000 20.047501 0 255 0
-12.170000 -11.530000 15.980000 0 255 0
-12.130000 -11.590000 19.690001 0 255 0
-12.546700 -11.936700 16.263300 0 255 0
-11.725600 -12.110900 -0.478300 0 255 0
-12.360000 -11.790000 23.000000 0 255 0
-12.050000 -12.720000 -2.930000 0 255 255
-10.760000 -12.250000 4.480000 0 255 0
-10.760000 -12.370000 17.709999 0 255 0
-11.905000 -12.410000 -2.240000 0 255 255
-12.520000 -11.520000 -2.555000 0 255 255
-12.050000 -11.140000 21.290001 0 255 0
-10.807500 -11.670000 23.907499 0 255 0
-12.550000 -11.160000 8.210000 0 255 0
-12.546700 -11.926700 16.373301 0 255 0
-12.215000 -11.230000 19.160000 0 255 0
-12.206700 -11.168300 16.010000 0 255 0
-11.180000 -10.800000 18.910000 0 255 0
-11.160000 -11.040000 5.860000 0 255 0
-11.175000 -10.770000 22.155001 0 255 0
-11.764400 -12.511100 16.052200 0 255 0
-11.290000 -11.520000 24.459999 0 255 0
-11.306700 -12.071700 -3.641700 0 255 255
-11.317500 -12.158700 15.708800 0 255 0
-11.330000 -11.930000 -0.470000 0 255 0
-11.566300 -12.378900 -3.296300 0 255 255
-10.412000 -11.214000 -3.036000 0 255 255
-11.863300 -10.910000 17.963301 0 255 0
-11.790000 -11.880000 21.215000 0 255 0
-11.870000 -10.800000 24.459999 0 255 0
-10.990000 -11.230000 14.120000 0 255 0
-10.810000 -12.210000 -2.780000 0 255 255
-12.080000 -11.620000 22.820000 0 255 0
-12.045000 -12.025000 -2.510000 0 255 255
-11.470000 -10.730000 21.690001 0 255 0
-11.460000 -10.750000 18.650000 0 255 0
-12.019200 -11.766200 7.562300 0 255 0
-12.006700 -12.014400 -2.340000 0 255 255
-11.660000 -11.715000 9.250000 255 0 0
-11.663800 -11.766300 6.013700 255 0 0
-11.654200 -11.537500 -3.397500 0 255 0
-11.656000 -11.674000 12.296000 255 0 0
-12.263300 -12.013300 16.173300 0 255 0
-12.045000 -12.015000 -2.430000 0 255 255
-10.830000 -12.090000 -3.360000 0 255 255
-11.005000 -11.017500 17.157499 0 255 0
-11.446700 -10.770000 18.596701 0 255 0
-11.440000 -10.780000 18.049999 0 255 0
-12.240000 -12.230000 -3.680000 0 255 255
-11.710000 -12.780000 7.460000 0 255 0
-11.725000 -12.665000 13.765000 0 255 0
-11.710000 -12.430000 -2.425000 0 255 255
-11.712200 -12.760000 7.800000 0 255 0
-11.312500 -10.717500 22.207500 0 255 0
-11.220500 -12.076500 4.754500 0 255 0
-10.610000 -11.205000 22.254999 0 255 0
-12.115000 -11.930000 -3.420000 0 255 255
-12.420000 -11.780000 -2.900000 0 255 255
-12.615000 -11.380000 19.280001 0 255 0
-10.761700 -11.472800 -3.683300 0 255 255
-11.760000 -11.290000 21.200001 0 255 0
-11.680000 -11.810000 13.590000 0 255 0
-11.659100 -11.667700 -2.692000 255 0 0
-11.675000 -12.120000 20.365000 0 255 0
-12.280000 -12.150000 -2.910000 0 255 255
-10.720000 -11.070000 24.820000 0 255 0
-11.000000 -10.655000 21.900000 0 255 0
-10.660000 -11.010000 -3.570000 0 255 255
-10.666200 -11.017500 -3.542500 0 255 255
-10.650000 -11.370000 24.915001 0 255 0
-11.756200 -10.863700 18.011299 0 255 0
-11.512500 -12.065000 15.500000 0 255 0
-11.520000 -11.990000 21.639999 0 255 0
-11.490000 -11.460000 2.060000 0 255 0
-11.516800 -11.607600 -1.290300 0 255 0
-11.650000 -12.330000 -0.410000 0 255 0
-11.815000 -12.005000 16.110001 0 255 0
-11.853800 -10.719200 16.104601 0 255 0
-11.820000 -11.980000 13.020000 0 255 0
-10.670000 -11.460000 22.309999 0 255 0
-10.656700 -11.066700 -3.535000 0 255 255
-12.659100 -11.409100 8.058200 0 255 0
-12.000000 -11.713300 17.116699 0 255 0
-12.390000 -11.300000 -2.790000 0 255 255
-11.690000 -11.630000 -2.970000 255 0 0
-12.116700 -10.820000 7.521700 0 255 0
-11.940000 -11.875000 17.004999 0 255 0
-11.950000 -12.080000 7.680000 0 255 0
-11.980000 -12.020000 -2.330000 0 255 255
-12.170000 -10.877500 7.405000 0 255 0
-10.630000 -12.290000 15.200000 0 255 0
-11.930000 -10.840000 21.250000 0 255 0
-10.607500 -12.327500 -3.127500 0 255 255
-10.613300 -11.826700 16.201700 0 255 0
-10.596700 -12.073300 20.160000 0 255 0
-11.267000 -12.117000 -3.849000 0 255 255
-11.260000 -11.710000 21.480000 0 255 0
-10.600000 -12.120000 19.990000 0 255 0
-12.014000 -12.008000 15.820000 0 255 0
-11.606200 -11.324400 -3.385600 0 255 0
-12.450000 -12.120000 17.700001 0 255 0
-11.246700 -12.320000 -3.886700 0 255 255
-11.110000 -11.470000 24.910000 0 255 0
-11.020000 -12.330000 17.459999 0 255 0
-11.210000 -10.580000 22.205000 0 255 0
-12.030000 -12.400000 -2.710000 0 255 255
-12.155000 -10.855000 -3.035000 0 255 255
-10.410000 -11.250000 20.299999 0 255 0
-10.410000 -11.270000 20.350000 0 255 0
-12.290000 -10.970000 8.240000 0 255 0
-12.304400 -10.913300 17.911100 0 255 0
-10.772000 -10.862000 21.170000 0 255 0
-12.040000 -11.780000 22.170000 0 255 0
-10.720000 -12.235000 -3.290000 0 255 255
-10.490000 -11.220000 17.799999 0 255 0
-11.816700 -12.676700 -2.330000 0 255 255
-11.055000 -12.376700 17.459999 0 255 0
-11.063600 -10.722300 17.356400 0 255 0
-12.210000 -12.120000 -2.535000 0 255 255
-11.200000 -11.125000 17.445000 0 255 0
-11.461700 -12.058300 -3.493300 0 255 0
-11.480000 -11.930000 6.290000 255 0 0
-11.462000 -11.864000 9.564000 255 0 0
-11.440000 -12.050000 -2.460000 0 255 0
-11.440000 -11.900000 7.480000 255 0 0
-11.455000 -11.875000 10.610000 255 0 0
-11.660000 -12.565000 14.050000 0 255 0
-12.240000 -11.230000 18.969999 0 255 0
-12.240000 -10.770000 -3.110000 0 255 255
-11.280000 -11.660000 3.750000 0 255 0
-11.240000 -12.180000 -2.370000 0 255 255
-11.905000 -12.285000 7.765000 0 255 0
-11.920000 -12.240000 16.180000 0 255 0
-10.970000 -11.763300 -3.376700 0 255 255
-12.420000 -11.460000 -2.780000 0 255 255
-12.250000 -11.790000 -2.630000 0 255 255
-12.110000 -11.121700 15.961700 0 255 0
-12.600000 -11.950000 16.520000 0 255 0
-12.610000 -11.660000 -3.040000 0 255 255
-12.230000 -11.360000 21.129999 0 255 0
-11.158800 -12.665300 14.008800 0 255 0
-10.960000 -10.867500 17.562500 0 255 0
-11.110000 -12.150000 18.580000 0 255 0
-12.010000 -11.822000 -2.194000 0 255 255
-11.670000 -10.540000 16.080000 0 255 0
-11.968300 -12.168300 -3.585000 0 255 255
-10.592500 -10.972500 -2.797500 0 255 255
-11.150000 -12.670000 -1.910000 0 255 255
-11.426000 -12.520000 13.260000 0 255 0
-11.405000 -12.572500 15.847500 0 255 0
-11.720000 -12.505000 -2.580000 0 255 255
-12.356500 -12.462400 13.005300 0 255 0
-10.950000 -11.300000 21.980000 0 255 0
-10.950000 -11.460000 25.549999 0 255 0
-10.964000 -11.170900 5.766300 0 255 0
-12.230000 -11.100000 19.870001 0 255 0
-12.156900 -10.925400 -3.350000 0 255 255
-11.762500 -10.875000 -3.347500 0 255 255
-11.450000 -10.890000 -3.435000 0 255 255
-11.460000 -11.323300 18.469999 0 255 0
-11.100000 -11.570000 18.500000 0 255 0
-11.290000 -11.200000 5.940000 0 255 0
-11.330000 -11.410000 18.590000 0 255 0
-10.595000 -12.061700 -3.035000 0 255 255
-11.630000 -11.710000 13.840000 255 0 0
-11.613600 -11.660900 10.714500 255 0 0
-11.620000 -11.780000 17.200001 0 255 0
-11.600000 -11.710000 14.490000 255 0 0
-11.615000 -11.805000 20.995001 0 255 0
-11.615300 -11.669300 11.262000 255 0 0
-11.790000 -10.580000 -3.270000 0 255 255
-11.820000 -10.860000 16.290001 0 255 0
-11.820000 -10.990000 20.170000 0 255 0
-10.490000 -11.620000 24.270000 0 255 0
-10.520000 -11.317500 17.504999 0 255 0
-10.525000 -12.365000 -3.240000 0 255 255
-10.711700 -11.216700 20.010000 0 255 0
-10.490000 -11.980000 22.330000 0 255 0
-11.180000 -10.890000 23.760000 0 255 0
-11.165600 -10.767800 17.262199 0 255 0
-12.215000 -10.825000 16.014999 0 255 0
-12.269000 -10.965000 16.059000 0 255 0
-12.260000 -11.010000 22.719999 0 255 0
-12.261500 -11.124600 15.961500 0 255 0
-11.390000 -11.660000 20.660000 255 0 0
-11.425000 -11.625000 17.545000 255 0 0
-11.059100 -11.578200 16.861799 0 255 0
-12.263900 -11.975200 8.002600 0 255 0
-12.280000 -11.810000 17.430000 0 255 0
-11.630000 -11.280000 21.260000 0 255 0
-11.610000 -10.840000 18.139999 0 255 0
-12.370000 -11.136700 12.160000 0 255 0
-11.190000 -11.080000 21.020000 0 255 0
-11.580000 -12.440000 19.780001 0 255 0
-10.880000 -12.180000 -3.580000 0 255 255
-10.840000 -12.270000 15.540000 0 255 0
-10.872000 -12.226000 18.712000 0 255 0
-10.758300 -12.016700 19.063299 0 255 0
-10.780000 -11.730000 25.430000 0 255 0
-11.800000 -10.790000 17.809999 0 255 0
-11.810000 -10.870000 24.805000 0 255 0
-11.817500 -10.775000 18.047501 0 255 0
-11.811700 -10.831700 21.653299 0 255 0
-12.330000 -11.680000 18.440001 0 255 0
-10.700000 -10.920000 21.379999 0 255 0
-10.713000 -11.066000 5.812000 0 255 0
-10.820000 -11.040000 18.510000 0 255 0
-10.810000 -11.490000 22.129999 0 255 0
-12.260000 -10.930000 23.799999 0 255 0
-12.253300 -11.168300 7.713300 0 255 0
-12.610000 -11.280000 8.340000 0 255 0
-12.211800 -11.970900 15.810000 0 255 0
-12.256200 -12.458800 -3.038800 0 255 255
-11.920000 -12.510000 -3.351700 0 255 255
-11.908300 -12.175000 12.445000 0 255 0
-11.910000 -12.090000 20.180000 0 255 0
-12.560000 -11.790000 17.870001 0 255 0
-10.808000 -12.368000 14.810000 0 255 0
-11.690000 -12.480000 7.830000 0 255 0
-11.710000 -12.510000 -2.490000 0 255 255
-11.040000 -12.350000 15.550000 0 255 0
-11.055000 -12.690000 -3.605000 0 255 255
-10.810000 -12.370000 -3.320000 0 255 255
-11.061000 -11.121000 17.504000 0 255 0
-12.510000 -11.336700 18.520000 0 255 0
-12.466700 -11.756700 18.266701 0 255 0
-11.810000 -12.115000 16.719999 0 255 0
-11.250000 -12.170000 25.250000 0 255 0
-11.250000 -12.240000 21.895000 0 255 0
-11.270000 -11.933300 15.740000 0 255 0
-11.258300 -12.065000 15.655000 0 255 0
-11.600000 -11.070000 24.900000 0 255 0
-11.623100 -11.717300 2.011500 255 0 0
-11.612300 -11.668700 -1.239600 255 0 0
-10.870000 -12.185000 14.825000 0 255 0
-12.550000 -11.350000 -3.470000 0 255 255
-12.210000 -11.240000 21.030001 0 255 0
-12.263300 -10.976700 -3.356700 0 255 255
-12.360000 -12.010000 17.430000 0 255 0
-12.057300 -11.859100 -3.640000 0 255 255
-12.080000 -11.730000 5.930000 0 255 0
-11.810000 -12.632500 13.760000 0 255 0
-11.814400 -12.522000 7.556800 0 255 0
-11.821400 -12.370000 -2.341400 0 255 255
-11.167500 -10.761300 -3.040000 0 255 255
-12.204500 -10.962700 -3.297300 0 255 255
-10.715000 -11.520000 24.740000 0 255 0
-10.708000 -11.464000 22.066000 0 255 0
-10.730000 -11.510000 25.330000 0 255 0
-10.712500 -11.020000 5.766900 0 255 0
-10.530000 -11.940000 -3.790000 0 255 255
-12.061700 -12.680000 -2.885000 0 255 255
-12.525000 -11.140000 -3.195000 0 255 255
-12.462100 -12.216400 -2.939300 0 255 255
-11.652500 -10.570000 19.707500 0 255 0
-11.675000 -10.760000 25.070000 0 255 0
-10.810000 -12.270000 14.915000 0 255 0
-11.640000 -12.380000 -2.585000 0 255 255
-11.070000 -12.530000 -3.700000 0 255 255
-10.445000 -11.750000 24.170000 0 255 0
-10.980000 -11.490000 19.889999 0 255 0
-12.610000 -11.570000 19.013300 0 255 0
-12.430000 -11.670000 12.100000 0 255 0
-12.400000 -11.760000 18.417999 0 255 0
-10.562500 -12.215000 -2.830000 0 255 255
-10.545600 -12.231100 -3.490000 0 255 255
-10.559000 -11.720000 16.313000 0 255 0
-11.956700 -11.263300 19.106701 0 255 0
-11.940000 -11.300000 15.850000 0 255 0
-11.690000 -11.705000 11.525000 255 0 0
-11.720000 -11.663300 21.260000 0 255 0
-10.950000 -12.126700 14.856700 0 255 0
-12.453300 -11.176700 12.213300 0 255 0
-10.480000 -11.490000 17.590000 0 255 0
-11.390000 -11.590000 1.870000 255 0 0
-11.410000 -11.760000 14.520000 255 0 0
-11.420700 -11.678600 8.162100 255 0 0
-11.418600 -11.721400 11.355700 255 0 0
-10.950000 -12.580000 24.670000 0 255 0
-12.260000 -11.540000 22.990000 0 255 0
-12.260000 -11.570000 19.655001 0 255 0
-10.420000 -11.310000 20.100000 0 255 0
-10.870000 -10.726700 17.466700 0 255 0
-11.440000 -12.020000 7.660000 0 255 0
-11.560000 -11.140000 25.559999 0 255 0
-11.110400 -10.720400 -3.082200 0 255 255
-12.040000 -11.490000 7.500000 0 255 0
-12.080000 -11.620000 23.700001 0 255 0
-10.861700 -10.675000 21.213301 0 255 0
-11.402500 -11.707500 14.757500 255 0 0
-11.425000 -11.670000 11.155000 255 0 0
-11.400000 -11.830000 21.070000 0 255 0
-12.290000 -10.930000 12.360000 0 255 0
-12.450000 -11.420000 8.250000 0 255 0
-12.451200 -11.769400 11.958100 0 255 0
-12.455700 -11.661400 18.464300 0 255 0
-10.865000 -11.615000 16.920000 0 255 0
-10.697800 -11.116700 -3.351100 0 255 255
-10.706000 -11.626000 16.441999 0 255 0
-12.056700 -11.020000 16.146700 0 255 0
-10.422500 -12.072500 -3.342500 0 255 255
-10.608000 -11.420000 17.143999 0 255 0
-10.606700 -11.425000 17.498301 0 255 0
-10.522500 -12.117500 15.252500 0 255 0
-10.907300 -11.409300 -3.348700 0 255 255
-12.450000 -11.121700 8.021700 0 255 0
-11.215000 -12.825000 11.808300 0 255 0
-12.397500 -11.785000 -3.400000 0 255 255
-12.005000 -11.420000 18.715000 0 255 0
-12.352000 -12.114000 15.816000 0 255 0
-10.859000 -12.629000 -2.534000 0 255 255
-11.420000 -11.620000 11.870000 0 255 0
-11.420000 -11.740000 18.010000 255 0 0
-11.400000 -11.680000 15.120000 255 0 0
-11.400000 -12.230000 -2.546700 0 255 255
-11.430000 -11.700000 17.059999 255 0 0
-11.420000 -11.690000 13.650000 255 0 0
-11.410000 -11.640000 10.530000 255 0 0
-11.416000 -12.170000 -3.534000 0 255 255
-11.410000 -11.640000 12.970000 255 0 0
-11.420000 -11.673300 16.213301 255 0 0
-10.400000 -11.410000 22.410000 0 255 0
-11.914200 -10.922500 17.964199 0 255 0
-11.854000 -12.177300 16.057301 0 255 0
-11.870000 -12.490000 -2.430000 0 255 255
-11.857500 -12.328500 7.461500 0 255 0
-11.850000 -12.115000 21.320000 0 255 0
-10.603300 -11.020000 -3.290000 0 255 255
-12.550000 -11.760000 16.809999 0 255 0
-10.940000 -11.000000 21.420000 0 255 0
-12.416000 -11.966000 8.160000 0 255 0
-12.210000 -10.826000 12.164000 0 255 0
-11.761100 -11.174400 -3.341100 0 255 255
-11.710000 -11.525000 18.895000 0 255 0
-12.466700 -11.166700 18.646700 0 255 0
-12.514300 -11.368600 12.201400 0 255 0
-12.500000 -11.286700 18.523300 0 255 0
-11.416700 -11.633300 17.716700 255 0 0
-11.400000 -11.570000 14.350000 0 255 0
-12.512100 -11.517100 12.060800 0 255 0
-12.530000 -11.420000 18.355000 0 255 0
-11.190000 -12.275000 -2.790000 0 255 255
-11.220000 -11.780000 16.809999 0 255 0
-11.210000 -12.290000 -2.260000 0 255 255
-12.313600 -11.013600 15.860900 0 255 0
-10.910000 -11.820000 22.043301 0 255 0
-10.910000 -11.930000 15.561700 0 255 0
-10.355000 -11.705000 -3.400000 0 255 255
-12.180000 -11.710000 18.770000 0 255 0
-12.150000 -12.290000 -2.610000 0 255 255
-11.992500 -12.427500 -2.137500 0 255 255
-11.490000 -12.170000 19.570000 0 255 0
-11.505000 -11.670000 0.780000 255 0 0
-11.514400 -11.627200 10.562800 255 0 0
-11.490000 -11.730000 4.240000 255 0 0
-11.500000 -11.835000 -2.050000 255 0 0
-11.520000 -11.560000 7.860000 255 0 0
-11.515200 -11.627600 11.010000 255 0 0
-11.500000 -12.230000 24.059999 0 255 0
-11.525000 -11.655000 1.105000 255 0 0
-11.466700 -11.870000 10.060000 255 0 0
-11.470000 -12.060000 -2.610000 0 255 0
-11.105700 -10.611400 21.170000 0 255 0
-12.220000 -11.870000 21.570000 0 255 0
-12.212500 -12.282500 -3.747500 0 255 255
-12.210000 -11.920000 24.580000 0 255 0
-11.240000 -12.330000 11.430000 0 255 0
-11.664600 -11.527700 7.653100 0 255 0
-11.550000 -11.580000 10.230000 255 0 0
-11.580000 -12.070000 16.780001 0 255 0
-11.563100 -11.634600 7.063800 255 0 0
-11.545000 -11.775000 -3.490000 0 255 0
-11.564000 -11.623200 5.907600 0 255 0
-12.410000 -11.480000 19.115000 0 255 0
-11.800000 -11.280000 20.797501 0 255 0
-11.950000 -11.300000 20.959999 0 255 0
-11.056600 -12.373400 4.615400 0 255 0
-11.662700 -12.870000 -2.591800 0 255 255
-11.640000 -12.850000 -1.950000 0 255 255
-11.300000 -11.600000 24.340000 255 0 0
-11.290000 -12.060000 4.840000 0 255 0
-10.810000 -11.180000 -3.500000 0 255 255
-10.800000 -10.910000 5.990000 0 255 0
-11.507100 -11.886500 0.609400 255 0 0
-11.500000 -11.905000 3.870000 255 0 0
-11.500000 -12.000000 -2.440000 0 255 0
-11.512500 -11.871700 2.866700 255 0 0
-11.510000 -11.900000 5.990000 255 0 0
-11.880000 -11.790000 -1.940000 0 255 255
-11.880000 -11.580000 11.120000 0 255 0
-11.040000 -11.500000 22.170000 0 255 0
-12.100900 -12.725500 -2.889100 0 255 255
-12.106000 -12.416000 16.112000 0 255 0
-11.110000 -10.627500 17.400000 0 255 0
-10.557800 -12.463300 4.561100 0 255 0
-10.563300 -11.830000 21.153299 0 255 0
-12.070000 -11.720000 16.320000 0 255 0
-11.045000 -10.565000 21.302500 0 255 0
-12.575000 -11.780000 14.565000 0 255 0
-12.416000 -11.066000 19.808001 0 255 0
-10.858000 -12.160000 18.955999 0 255 0
-10.813300 -12.268900 -3.546700 0 255 255
-11.030000 -10.870000 21.020000 0 255 0
-10.810000 -12.150000 15.430000 0 255 0
-10.830000 -12.210000 18.660000 0 255 0
-11.415000 -11.625000 11.650000 255 0 0
-11.397500 -12.160000 -3.832500 0 255 255
-11.417500 -11.677500 14.912500 255 0 0
-11.406200 -11.718800 18.206301 255 0 0
-12.568300 -11.426700 19.115000 0 255 0
-12.611000 -11.468000 12.154000 0 255 0
-12.595000 -11.580000 18.680000 0 255 0
-11.913300 -10.930000 -2.983300 0 255 255
-11.910000 -10.622200 16.160601 0 255 0
-11.910000 -10.930000 -3.330000 0 255 255
-10.408500 -11.427300 16.265400 0 255 0
-10.407200 -11.428300 16.303301 0 255 0
-12.115000 -10.640000 -3.150000 0 255 255
-12.095000 -10.722500 16.202499 0 255 0
-12.060000 -10.810000 15.966000 0 255 0
-12.521000 -11.677000 8.046000 0 255 0
-12.503300 -11.816700 17.573299 0 255 0
-10.900000 -11.976700 18.870001 0 255 0
-10.907100 -11.925700 15.611400 0 255 0
-12.171400 -11.865700 16.152901 0 255 0
-11.156700 -11.416700 14.405000 0 255 0
-11.366700 -11.666700 14.346700 255 0 0
-12.658700 -11.970700 7.959700 0 255 0
-12.660000 -11.921100 8.054400 0 255 0
-12.665600 -11.813300 14.562200 0 255 0
-12.530000 -11.460000 18.370001 0 255 0
-12.513300 -11.565600 12.065000 0 255 0
-11.403300 -11.630000 15.256700 255 0 0
-11.400000 -11.650000 18.490000 255 0 0
-11.410000 -12.120000 -3.753300 0 255 255
-11.426700 -11.663300 17.963301 255 0 0
-11.424000 -11.734000 11.320000 255 0 0
-11.419200 -11.675000 8.208300 255 0 0
-12.276700 -10.966700 19.956699 0 255 0
-12.170000 -11.980000 15.940000 0 255 0
-12.167000 -12.481000 -2.837000 0 255 255
-11.762500 -12.578800 7.698700 0 255 0
-11.746700 -12.376700 -3.896700 0 255 255
-12.210000 -11.110000 8.240000 0 255 0
-12.658000 -11.530000 12.164000 0 255 0
-12.610000 -11.365000 18.549999 0 255 0
-11.263600 -11.315800 5.761200 0 255 0
-11.470000 -11.905000 1.395000 255 0 0
-11.457400 -11.866500 4.663900 255 0 0
-11.464300 -11.970000 -0.797900 255 0 0
-11.460000 -11.910000 2.560000 255 0 0
-11.454000 -11.860500 5.711500 255 0 0
-11.314300 -12.607900 -1.628600 0 255 255
-11.762500 -10.615000 16.157499 0 255 0
-11.106300 -12.112500 -2.200000 0 255 255
-11.012500 -12.670000 -2.682500 0 255 255
-10.750000 -11.880000 22.200001 0 255 0
-10.770000 -11.923300 18.956699 0 255 0
-11.570000 -11.840000 2.830000 255 0 0
-11.560000 -11.615000 15.861700 255 0 0
-11.576100 -11.658200 -0.543900 0 255 0
-11.208000 -11.222000 5.956000 0 255 0
-11.880000 -12.430000 14.620000 0 255 0
-11.500000 -11.170000 21.190001 0 255 0
-11.500000 -11.180000 20.920000 0 255 0
-11.510000 -11.230000 23.405001 0 255 0
-11.920000 -11.785000 -2.210000 0 255 255
-11.760000 -12.713300 -2.186700 0 255 255
-11.753300 -12.706700 -2.341700 0 255 255
-12.190000 -11.830000 -2.900000 0 255 255
-12.119100 -11.420900 7.750000 0 255 0
-11.220000 -12.650000 15.910000 0 255 0
-11.640000 -11.380000 20.690001 0 255 0
-10.660000 -12.570000 4.374000 0 255 0
-11.996700 -12.513300 -3.296700 0 255 255
-11.990000 -12.140000 21.190001 0 255 0
-11.495000 -11.770000 13.915000 255 0 0
-11.490000 -11.670000 20.400000 255 0 0
-10.625700 -12.167100 -3.037100 0 255 255
-10.630000 -11.790000 22.280001 0 255 0
-12.390000 -11.850000 8.320000 0 255 0
-12.405000 -11.715000 24.500000 0 255 0
-11.207500 -11.220000 21.160000 0 255 0
-12.067500 -10.667500 21.600000 0 255 0
-12.305000 -11.755000 -3.480000 0 255 255
-11.090000 -11.290000 25.760000 0 255 0
-11.125000 -11.370000 19.605000 0 255 0
-11.600000 -10.810000 25.250000 0 255 0
-10.859200 -11.068000 5.708000 0 255 0
-10.856700 -11.270000 18.770000 0 255 0
-10.680000 -12.070000 22.090000 0 255 0
-10.663300 -12.116700 18.950001 0 255 0
-10.660000 -11.660000 -3.730000 0 255 255
-10.655000 -12.165000 15.075000 0 255 0
-11.425000 -11.620000 12.265000 255 0 0
-11.410000 -11.780000 21.639999 0 255 0
-11.410000 -11.740000 18.430000 255 0 0
-11.410000 -11.525000 5.765000 0 255 0
-11.417800 -11.667800 15.514400 255 0 0
-11.420000 -11.666700 14.960000 255 0 0
-11.420000 -11.715000 18.165001 255 0 0
-12.558300 -11.425000 19.160000 0 255 0
-11.015000 -11.710000 23.344999 0 255 0
-11.014500 -11.616400 16.865000 0 255 0
-12.500000 -11.508000 18.506001 0 255 0
-12.160000 -10.916700 21.593300 0 255 0
-12.230000 -12.380000 -2.950000 0 255 255
-11.675000 -11.575000 2.970000 255 0 0
-11.670000 -11.413300 15.403300 0 255 0
-12.210500 -11.722700 16.061800 0 255 0
-12.520000 -11.800000 22.549999 0 255 0
-12.501700 -11.921700 16.063299 0 255 0
-11.665000 -12.576700 13.923300 0 255 0
-12.130000 -12.700000 -2.920000 0 255 255
-11.250000 -11.550000 21.620001 0 255 0
-12.515000 -11.830000 12.075000 0 255 0
-11.620000 -11.380000 19.040001 0 255 0
-11.520000 -11.670000 -0.480000 255 0 0
-11.517100 -11.628900 9.409600 255 0 0
-12.255000 -12.470700 -2.635000 0 255 255
-12.280000 -11.410000 12.100000 0 255 0
-12.151700 -11.163300 7.565000 0 255 0
-12.511600 -11.963700 8.064200 0 255 0
-12.615200 -12.072200 8.016300 0 255 0
-11.558900 -11.660600 6.565000 255 0 0
-11.440000 -11.920000 2.280000 255 0 0
-11.460000 -11.961100 -0.874400 255 0 0
-11.456500 -11.860900 5.410900 255 0 0
-11.107500 -11.185000 21.247499 0 255 0
-11.140000 -12.550000 11.520000 0 255 0
-11.158200 -12.769800 -1.531400 0 255 255
-11.263200 -12.815300 -1.595800 0 255 255
-11.362500 -12.910000 -1.455000 0 255 255
-11.250000 -12.340000 11.620000 0 255 0
-11.700000 -12.790000 -2.760000 0 255 255
-11.701500 -12.762300 -2.386900 0 255 255
-11.656800 -11.720700 -2.539800 0 255 0
-11.666200 -11.811200 16.813801 0 255 0
-11.640000 -12.175000 20.320000 0 255 0
-11.656000 -11.630000 3.756000 255 0 0
-11.665000 -11.665000 0.525000 255 0 0
-11.660000 -11.640000 2.730000 255 0 0
-11.644000 -11.678000 -0.456000 255 0 0
-11.651100 -11.720200 -2.442700 255 0 0
-11.653300 -11.673300 0.816700 255 0 0
-11.655000 -11.632500 4.057500 255 0 0
-11.665000 -11.805000 16.705000 0 255 0
-11.664900 -11.714700 -2.688700 255 0 0
-11.660000 -11.820000 16.853300 0 255 0
-11.647500 -11.672500 0.665000 0 255 0
-11.656700 -12.166700 20.260000 0 255 0
-11.680000 -11.640000 3.790000 255 0 0
-10.645000 -11.785000 21.219999 0 255 0
-11.570000 -10.560000 18.219999 0 255 0
-11.303300 -12.003300 15.316700 0 255 0
-11.390000 -11.290000 19.875000 0 255 0
-11.818000 -12.583000 -2.147000 0 255 255
-11.810000 -12.576700 -3.490000 0 255 255
-11.806400 -12.827700 13.160000 0 255 0
-10.700000 -11.640000 24.040001 0 255 0
-10.655000 -11.270000 -3.100000 0 255 255
-12.106700 -11.313300 21.026699 0 255 0
-10.720000 -12.170000 20.240000 0 255 0
-10.910000 -11.115000 20.165001 0 255 0
-11.010000 -10.967500 -3.482500 0 255 255
-11.005000 -11.120000 5.900000 0 255 0
-11.020000 -11.400000 24.910000 0 255 0
-11.007500 -11.320000 18.557501 0 255 0
-11.055000 -11.021300 17.365000 0 255 0
-11.170000 -10.790000 23.770000 0 255 0
-11.143300 -11.086700 16.996700 0 255 0
-12.258500 -10.766900 17.958500 0 255 0
-12.350000 -11.700000 18.580000 0 255 0
-12.212900 -10.922900 15.957100 0 255 0
-12.262400 -11.816500 16.055901 0 255 0
-12.606700 -12.033300 16.073299 0 255 0
-12.510000 -12.008000 15.202000 0 255 0
-11.360000 -10.690000 17.350000 0 255 0
-11.490000 -11.800000 -0.310000 255 0 0
-11.512500 -11.626700 12.360400 255 0 0
-11.500000 -11.707500 6.210000 255 0 0
-11.500000 -11.650000 2.950000 255 0 0
-11.510000 -11.540000 19.090000 255 0 0
-11.490000 -11.780000 -2.980000 255 0 0
-11.496700 -11.716700 6.460000 255 0 0
-11.509400 -11.620300 12.810000 255 0 0
-11.516700 -11.676700 3.303300 255 0 0
-11.510000 -11.570000 9.640000 255 0 0
-12.090000 -10.870000 21.809999 0 255 0
-12.209500 -11.361000 11.452500 0 255 0
-12.466700 -12.126700 15.056700 0 255 0
-12.308500 -11.174900 8.159800 0 255 0
-11.715000 -11.528000 7.706000 0 255 0
-11.730000 -11.580000 10.860000 0 255 0
-11.716700 -11.780000 21.353300 0 255 0
-12.410000 -11.870000 17.230000 0 255 0
-12.415000 -11.305000 7.720000 0 255 0
-12.660000 -12.065300 7.960000 0 255 0
-11.500000 -12.515000 19.709999 0 255 0
-11.490000 -11.890000 5.010000 255 0 0
-11.490000 -11.900000 7.190000 255 0 0
-11.515000 -12.465000 17.495001 0 255 0
-11.502700 -11.871800 4.060900 255 0 0
-11.598200 -11.626400 2.553600 0 255 0
-11.511000 -11.615400 2.262300 0 255 0
-11.507900 -11.585000 -0.990800 255 0 0
-11.413300 -11.616700 -3.240000 255 0 0
-11.419600 -11.768700 6.756100 255 0 0
-11.406700 -11.812200 9.804400 255 0 0
-11.412600 -11.720600 3.510700 0 255 0
-11.404300 -11.661200 0.009800 255 0 0
-11.407500 -12.732500 16.020000 0 255 0
-11.399000 -11.661000 -0.636100 255 0 0
-11.402400 -11.720200 2.559000 255 0 0
-11.412500 -11.805000 8.862500 255 0 0
-11.419300 -11.770300 5.711000 255 0 0
-11.406700 -12.715000 16.066700 0 255 0
-11.417600 -11.770000 5.460700 255 0 0
-11.395500 -11.715000 2.220500 255 0 0
-11.406700 -11.828300 8.721700 255 0 0
-11.401100 -11.661900 -1.090700 255 0 0
-11.430000 -11.770000 20.400000 255 0 0
-11.407500 -11.710000 17.267500 255 0 0
-11.411500 -11.670000 14.251500 255 0 0
-10.430000 -11.770000 17.400000 0 255 0
-10.420000 -11.870000 23.920000 0 255 0
-10.595000 -11.335000 22.059999 0 255 0
-10.390000 -11.840000 20.299999 0 255 0
-11.057500 -11.585000 16.817499 0 255 0
-11.730000 -10.710000 19.500000 0 255 0
-11.353100 -12.318100 -2.540600 0 255 255
-11.370000 -12.550000 7.600000 0 255 0
-11.355900 -12.325900 -2.196400 0 255 255
-10.907900 -12.677100 -2.730700 0 255 255
-10.780000 -11.860000 21.150000 0 255 0
-11.560000 -12.530000 24.000000 0 255 0
-11.544300 -11.861400 15.320000 255 0 0
-11.540000 -11.860000 19.570000 0 255 0
-11.550000 -11.570000 -0.240000 0 255 0
-11.653300 -10.770000 -3.338300 0 255 255
-11.640000 -10.870000 15.830000 0 255 0
-11.740000 -11.390000 24.490000 0 255 0
-11.459000 -12.371000 7.564300 0 255 0
-11.608800 -12.315800 7.656300 0 255 0
-12.100000 -11.670000 24.950001 0 255 0
-11.080000 -11.220000 25.469999 0 255 0
-11.710000 -12.864000 -3.339000 0 255 255
-11.861100 -12.860000 7.806700 0 255 0
-12.501100 -12.074400 15.017800 0 255 0
-12.515000 -12.162500 8.505000 0 255 0
-10.800000 -11.935000 21.815001 0 255 0
-11.314300 -11.130000 21.305700 0 255 0
-11.070000 -10.620000 -3.470000 0 255 255
-12.620000 -11.575000 -2.805000 0 255 255
-12.420000 -11.465000 19.225000 0 255 0
-12.566700 -11.268700 -3.424700 0 255 255
-12.560000 -11.510000 19.167500 0 255 0
-12.104200 -10.909200 -3.291700 0 255 255
-12.563300 -11.410000 12.203300 0 255 0
-12.552900 -11.522900 18.504299 0 255 0
-12.206700 -11.726700 22.303301 0 255 0
-12.556700 -11.226700 7.821100 0 255 0
-12.575000 -11.405000 20.860001 0 255 0
-12.562500 -11.462500 17.605000 0 255 0
-10.913300 -11.476700 14.396700 0 255 0
-12.552700 -11.317700 12.155000 0 255 0
-11.700000 -11.770000 21.323299 0 255 0
-12.005800 -11.716900 7.609600 0 255 0
-11.171900 -11.327500 5.850600 0 255 0
-11.151700 -11.278300 5.716700 0 255 0
-11.554700 -11.468700 -3.399300 0 255 0
-11.565000 -11.586700 2.913300 255 0 0
-11.560200 -11.627100 -0.241800 255 0 0
-11.513300 -11.620000 5.516700 255 0 0
-11.490000 -11.730000 -0.660000 255 0 0
-11.512900 -11.587100 2.351400 255 0 0
-11.466700 -12.870000 -3.390000 0 255 255
-10.955000 -12.222500 -3.477500 0 255 255
-10.900000 -12.640000 -3.660000 0 255 255
-11.620000 -11.050000 21.670000 0 255 0
-11.030000 -11.770000 16.840000 0 255 0
-10.780000 -11.490000 17.010000 0 255 0
-11.660000 -11.870000 21.010000 0 255 0
-11.645000 -11.775000 1.265000 255 0 0
-11.650500 -11.711500 4.407000 255 0 0
-11.661200 -11.677500 7.553700 255 0 0
-11.657500 -11.617500 10.720000 255 0 0
-11.559600 -11.580400 -1.541900 0 255 0
-11.540000 -12.030000 21.650000 0 255 0
-11.550000 -11.921700 15.361700 0 255 0
-11.555700 -11.582400 -1.286700 0 255 0
-11.860000 -12.320000 -2.270000 0 255 255
-11.810000 -12.390000 -2.780000 0 255 255
-11.820000 -12.660000 16.020000 0 255 0
-11.940000 -11.480000 20.760000 0 255 0
-11.615000 -12.215000 16.775000 0 255 0
-11.600000 -11.520000 -2.595000 255 0 0
-11.600000 -11.570000 0.560000 255 0 0
-11.600000 -11.630800 3.703800 255 0 0
-11.600900 -11.629500 3.960900 255 0 0
-11.603300 -11.580000 0.710000 255 0 0
-11.460000 -12.520000 -3.690000 0 255 255
-11.056200 -12.574100 -1.934700 0 255 255
-10.910000 -12.630000 -1.740000 0 255 255
-12.380000 -11.890000 -2.300000 0 255 255
-12.420000 -11.610000 24.570000 0 255 0
-12.120000 -12.180000 20.250000 0 255 0
-10.725700 -11.260000 -3.482900 0 255 255
-11.666700 -10.570000 21.816700 0 255 0
-12.410000 -11.985000 17.405001 0 255 0
-12.614400 -11.313300 16.401100 0 255 0
-10.618600 -11.272900 -3.090400 0 255 255
-12.150000 -11.560000 23.700001 0 255 0
-11.620000 -11.930000 23.379999 0 255 0
-11.590000 -11.570000 0.300000 255 0 0
-11.600800 -11.632300 3.557700 255 0 0
-11.180000 -12.370000 15.960000 0 255 0
-12.250000 -11.520000 19.600000 0 255 0
-10.970000 -12.180000 22.040001 0 255 0
-10.980000 -12.040000 18.830000 0 255 0
-10.945000 -12.050000 15.580000 0 255 0
-11.350000 -12.630000 21.200001 0 255 0
-11.360800 -12.367700 -1.304600 0 255 255
-11.350000 -12.566000 11.750000 0 255 0
-11.380000 -12.660000 17.400000 0 255 0
-10.815000 -12.237500 -3.930000 0 255 255
-11.010000 -11.225000 14.447500 0 255 0
-10.980000 -11.120000 14.370000 0 255 0
-10.511300 -11.766200 -3.690000 0 255 255
-11.523300 -10.906700 -3.123300 0 255 255
-11.500000 -11.420000 16.680000 0 255 0
-11.440000 -10.610000 17.799999 0 255 0
-10.800000 -11.635000 -3.540000 0 255 255
-10.772500 -12.015000 -3.545000 0 255 255
-11.110000 -11.590000 -3.310000 0 255 255
-11.260000 -12.490000 -1.890000 0 255 255
-11.256700 -12.606700 13.916700 0 255 0
-11.660000 -10.610000 22.193300 0 255 0
-12.440000 -12.040000 17.990000 0 255 0
-12.470000 -12.190000 8.260000 0 255 0
-12.710000 -11.840000 8.320000 0 255 0
-11.080000 -11.390000 21.620001 0 255 0
-12.420000 -11.220000 20.059999 0 255 0
-11.980000 -10.700000 23.910000 0 255 0
-11.405000 -12.655000 -3.545000 0 255 255
-11.670000 -12.462500 -3.432500 0 255 255
-11.670000 -12.880000 -2.170000 0 255 255
-11.610000 -11.464500 -3.488200 0 255 0
-11.597500 -11.637500 6.270000 0 255 0
-11.615000 -11.570000 3.020000 255 0 0
-11.622500 -11.625000 6.547500 255 0 0
-11.601700 -11.585000 3.320000 255 0 0
-11.590000 -11.570000 0.480000 255 0 0
-11.604600 -11.627700 3.611500 255 0 0
-11.246700 -12.316700 17.416700 0 255 0
-10.600000 -11.424400 16.508900 0 255 0
-10.430000 -12.050000 -3.275000 0 255 255
-10.602500 -11.417500 17.206301 0 255 0
-10.418000 -12.064000 -3.536000 0 255 255
-11.560000 -11.250000 24.520000 0 255 0
-11.540000 -10.760000 18.170000 0 255 0
-10.710000 -12.170000 19.160000 0 255 0
-11.710000 -11.180000 21.240000 0 255 0
-11.705000 -11.040000 24.415001 0 255 0
-10.810000 -11.330000 20.150000 0 255 0
-10.790000 -11.610000 14.440000 0 255 0
-11.166700 -11.570000 18.456699 0 255 0
-10.695000 -11.135000 17.495001 0 255 0
-10.690000 -10.960000 21.010000 0 255 0
-10.710000 -10.960000 21.160000 0 255 0
-12.570000 -11.240000 16.290001 0 255 0
-11.270000 -12.540000 24.920000 0 255 0
-10.923300 -10.770000 -3.340000 0 255 255
-10.858900 -12.510000 11.720000 0 255 0
-12.601900 -11.317500 7.863700 0 255 0
-11.460000 -12.320000 -3.920000 0 255 255
-11.610000 -12.335000 -3.180000 0 255 255
-12.140000 -11.360000 -2.770000 0 255 255
-11.490000 -10.610000 17.260000 0 255 0
-11.510900 -10.615500 17.108200 0 255 0
-12.215400 -11.720000 16.114599 0 255 0
-12.665800 -11.664200 -2.643100 0 255 255
-12.157900 -12.168200 -3.038600 0 255 255
-12.150000 -12.470000 16.115000 0 255 0
-12.156700 -11.773300 22.264999 0 255 0
-11.600000 -11.350000 14.400000 0 255 0
-12.000000 -12.230000 -3.890000 0 255 255
-12.280000 -12.590000 8.400000 0 255 0
-12.570000 -11.790000 18.440001 0 255 0
-12.558000 -11.669000 11.959000 0 255 0
-12.160000 -11.615000 22.860001 0 255 0
-12.200000 -10.906700 23.953300 0 255 0
-11.220000 -12.572500 -3.235000 0 255 255
-10.850000 -12.450000 -3.805000 0 255 255
-10.920000 -12.400000 -3.983300 0 255 255
-10.670000 -12.200000 15.030000 0 255 0
-10.670000 -11.710000 -3.800000 0 255 255
-11.380000 -10.690000 22.129999 0 255 0
-11.460000 -11.530000 -2.045000 255 0 0
-11.965000 -10.723300 12.346700 0 255 0
-11.560000 -11.520000 16.600000 255 0 0
-11.540000 -11.790000 13.110000 255 0 0
-11.557200 -11.659700 6.811000 255 0 0
-11.580000 -11.823300 10.616700 255 0 0
-11.560900 -11.660900 7.261300 255 0 0
-11.550000 -11.515000 16.760000 255 0 0
-11.540000 -11.700000 4.100000 255 0 0
-11.810000 -12.660000 -2.796700 0 255 255
-11.600000 -10.705000 22.254999 0 255 0
-11.348000 -12.656000 -3.582000 0 255 255
-10.760000 -11.050000 -3.510000 0 255 255
-10.756000 -10.918000 5.902000 0 255 0
-10.760000 -11.475000 21.969999 0 255 0
-10.763200 -10.918900 5.757900 0 255 0
-10.761200 -10.919600 5.811000 0 255 0
-10.760000 -11.465000 22.115000 0 255 0
-11.810000 -12.600000 -2.590000 0 255 255
-11.970000 -12.060000 21.209999 0 255 0
-10.770000 -11.360000 25.280001 0 255 0
-10.758300 -11.415000 22.004999 0 255 0
-12.270000 -12.280000 16.280001 0 255 0
-12.260000 -10.900000 22.690001 0 255 0
-11.460000 -10.600000 22.530001 0 255 0
-11.450000 -12.700000 -3.470000 0 255 255
-10.710000 -12.020000 24.629999 0 255 0
-10.695000 -11.970000 21.924999 0 255 0
-11.610000 -12.080000 24.219999 0 255 0
-11.610000 -11.620000 20.420000 0 255 0
-11.624500 -11.668600 -1.888300 0 255 0
-11.600000 -11.580000 17.270000 255 0 0
-11.617900 -11.715500 1.259800 255 0 0
-11.630000 -11.820000 5.220000 255 0 0
-11.610000 -11.630000 18.254999 255 0 0
-11.626100 -11.718800 -1.287600 255 0 0
-11.627200 -11.771700 1.956100 255 0 0
-11.600000 -11.570000 15.020000 255 0 0
-11.630000 -11.840000 7.060000 255 0 0
-11.620000 -11.775000 3.915000 255 0 0
-11.610000 -11.600000 20.120001 255 0 0
-11.620400 -11.713200 0.759600 255 0 0
-11.625000 -11.660000 -2.405000 255 0 0
-11.630000 -11.773300 4.463300 255 0 0
-11.623000 -11.666700 -1.838700 255 0 0
-11.621300 -11.712100 1.410400 255 0 0
-11.371300 -12.728700 -2.951300 0 255 255
-11.770000 -12.370000 15.930000 0 255 0
-11.755000 -12.015000 -0.345000 0 255 0
-11.460000 -12.873000 -1.527000 0 255 255
-12.500000 -12.075000 17.825001 0 255 0
-12.509400 -12.118200 8.070600 0 255 0
-11.705000 -10.720000 21.815001 0 255 0
-11.703300 -10.716700 22.350000 0 255 0
-11.710000 -10.700000 22.306700 0 255 0
-11.270000 -11.375000 25.270000 0 255 0
-11.268000 -11.268700 5.716000 0 255 0
-11.450000 -11.390000 -2.870000 0 255 0
-11.715000 -12.720000 -3.640000 0 255 255
-11.360000 -12.220000 16.856701 0 255 0
-11.346600 -11.766800 -0.441600 0 255 0
-11.375700 -11.732900 2.715700 255 0 0
-11.375000 -11.860000 5.855000 255 0 0
-11.358300 -11.771500 -1.090500 255 0 0
-11.376700 -11.823300 8.456700 255 0 0
-11.365900 -11.719200 2.158200 255 0 0
-11.380000 -11.870000 5.350000 255 0 0
-11.380000 -11.820000 8.500000 255 0 0
-11.373700 -11.719500 2.010000 255 0 0
-11.356000 -12.760000 11.506000 0 255 0
-11.359000 -11.771100 -1.140700 0 255 0
-11.710000 -11.710000 11.660000 0 255 0
-11.710000 -11.430000 5.880000 0 255 0
-11.700000 -11.430000 5.990000 0 255 0
-11.710000 -11.590000 3.290000 255 0 0
-12.351300 -11.417500 15.818800 0 255 0
-10.521000 -12.270000 4.315000 0 255 0
-12.110000 -11.720000 -2.470000 0 255 255
-12.105500 -11.960900 13.315500 0 255 0
-12.430000 -12.140000 17.980000 0 255 0
-12.450000 -11.173300 8.066700 0 255 0
-11.710000 -10.555000 15.970000 0 255 0
-11.103300 -12.453300 11.846700 0 255 0
-11.951700 -10.878300 -3.201700 0 255 255
-12.430000 -11.770000 -2.990000 0 255 255
-11.915000 -12.820000 -2.995000 0 255 255
-12.070000 -12.260000 -1.900000 0 255 255
-12.200000 -11.780000 19.950001 0 255 0
-12.050000 -11.920000 21.440001 0 255 0
-12.120000 -12.030000 20.920000 0 255 0
-12.153300 -10.786700 7.506700 0 255 0
-10.830000 -11.470000 25.500000 0 255 0
-10.797600 -11.165200 5.713600 0 255 0
-11.665000 -10.825000 20.325001 0 255 0
-11.390000 -11.890000 -2.970000 0 255 0
-11.200000 -12.080000 18.570000 0 255 0
-11.200000 -12.030000 15.415000 0 255 0
-11.200000 -12.090000 18.719999 0 255 0
-11.205000 -12.021700 15.658300 0 255 0
-11.560000 -10.573300 22.306700 0 255 0
-11.980000 -10.840000 -3.150000 0 255 255
-11.960000 -10.715000 16.200001 0 255 0
-11.675000 -10.730000 16.070000 0 255 0
-11.090000 -11.750000 18.420000 0 255 0
-12.065000 -11.685000 15.897500 0 255 0
-11.880000 -11.910000 15.600000 0 255 0
-11.750000 -12.500000 7.270000 0 255 0
-11.775700 -12.632900 13.814300 0 255 0
-12.656700 -11.973300 8.106700 0 255 0
-12.625000 -11.385000 18.219999 0 255 0
-12.390000 -11.560000 12.170000 0 255 0
-11.767500 -11.617500 16.763800 0 255 0
-11.750000 -11.650000 10.880000 0 255 0
-11.761800 -11.517600 7.655300 0 255 0
-11.975000 -12.010000 15.820000 0 255 0
-10.517500 -12.273300 15.066700 0 255 0
-11.380000 -12.220000 15.450000 0 255 0
-11.350000 -12.050000 -0.850000 0 255 0
-11.380000 -12.160000 -3.360000 0 255 255
-11.860000 -12.319000 -2.190000 0 255 255
-11.860900 -12.169100 7.572700 0 255 0
-11.872500 -12.032500 16.912500 0 255 0
-11.990000 -10.590000 21.370001 0 255 0
-11.508400 -11.874200 1.654700 255 0 0
-11.510600 -11.913300 4.813900 255 0 0
-12.620000 -11.920000 -2.890000 0 255 255
-12.055700 -12.254300 7.467100 0 255 0
-10.760000 -12.478500 4.313800 0 255 0
-10.750000 -12.520000 4.230000 0 255 0
-10.390000 -12.035000 -3.590000 0 255 255
-11.590000 -11.660000 15.463300 255 0 0
-11.675000 -11.010000 -3.055000 0 255 255
-11.606700 -11.656700 16.016701 255 0 0
-10.706700 -11.615000 -3.646700 0 255 255
-11.350000 -12.610000 22.480000 0 255 0
-12.110000 -11.957500 -3.552500 0 255 255
-12.110000 -11.672500 16.051201 0 255 0
-10.350000 -11.730000 20.205000 0 255 0
-11.980000 -12.340000 -3.500000 0 255 255
-11.711500 -12.869200 7.760800 0 255 0
-11.708300 -12.908300 -2.241700 0 255 255
-11.566700 -11.360000 7.496700 0 255 0
-11.280000 -11.020000 20.920000 0 255 0
-11.590000 -12.300000 14.290000 0 255 0
-11.606700 -12.613300 7.755000 0 255 0
-11.865000 -11.350000 7.745000 0 255 0
-12.220000 -11.380000 -3.530000 0 255 255
-10.760000 -11.316700 14.175000 0 255 0
-11.580000 -11.730000 -1.320000 255 0 0
-11.570000 -11.510000 11.730000 0 255 0
-11.573000 -11.662000 1.916000 255 0 0
-11.565000 -11.610000 18.205000 255 0 0
-11.580000 -11.700000 -0.790000 255 0 0
-11.540000 -11.640000 18.549999 255 0 0
-11.569000 -11.656000 2.358000 255 0 0
-11.953500 -10.873500 -3.241200 0 255 255
-10.675000 -11.630000 24.730000 0 255 0
-11.900000 -12.530000 22.410000 0 255 0
-11.900000 -12.655000 7.465000 0 255 0
-10.759000 -11.523000 -3.292000 0 255 255
-10.770000 -11.410000 16.610001 0 255 0
-11.268000 -12.072000 -3.684000 0 255 255
-10.705000 -11.775000 22.295000 0 255 0
-10.703800 -11.922500 19.004999 0 255 0
-10.500000 -12.060000 21.170000 0 255 0
-10.570000 -11.950000 17.450001 0 255 0
-11.646700 -11.366700 14.316700 0 255 0
-11.720000 -12.420000 -2.530000 0 255 255
-11.707000 -12.765000 7.553000 0 255 0
-11.710700 -12.423700 -3.203700 0 255 255
-11.740000 -12.453300 -3.306700 0 255 255
-11.760000 -12.450000 -2.730000 0 255 255
-11.205000 -12.030000 -2.457500 0 255 255
-11.200000 -11.570000 20.943300 0 255 0
-11.260000 -10.870000 -3.290000 0 255 255
-11.265000 -10.920000 18.645000 0 255 0
-11.710000 -12.540000 7.180000 0 255 0
-11.720000 -12.540000 7.330000 0 255 0
-10.658300 -12.316700 18.851700 0 255 0
-11.315000 -11.935000 8.355000 0 255 0
-10.760000 -10.900000 -3.460000 0 255 255
-10.757500 -11.312500 21.865000 0 255 0
-11.465000 -10.775000 18.215000 0 255 0
-11.470000 -10.740000 17.510000 0 255 0
-10.560000 -12.176700 19.910000 0 255 0
-11.430000 -11.685000 20.450001 255 0 0
-11.415000 -11.620000 17.315001 255 0 0
-11.390000 -12.000000 2.140000 255 0 0
-11.646600 -11.624800 -2.541400 255 0 0
-11.655000 -12.065000 20.320000 0 255 0
-11.730000 -12.580000 16.040001 0 255 0
-11.712700 -12.068200 -3.748200 0 255 0
-11.730000 -12.550000 16.090000 0 255 0
-11.758600 -10.980000 -3.081400 0 255 255
-12.330000 -11.700000 25.139999 0 255 0
-12.320000 -11.260000 -3.410000 0 255 255
-10.375000 -11.425000 24.930000 0 255 0
-10.360000 -11.670000 21.590000 0 255 0
-11.540000 -12.300000 17.120001 0 255 0
-11.560000 -11.980000 -0.060000 255 0 0
-11.566700 -12.453300 7.310000 0 255 0
-11.550000 -12.590000 13.830000 0 255 0
-11.572500 -12.272500 20.365000 0 255 0
-11.560000 -12.040000 -3.280000 0 255 0
-11.870000 -11.170000 19.639999 0 255 0
-10.780000 -11.140000 24.850000 0 255 0
-10.766000 -11.804000 -3.400000 0 255 255
-10.410000 -11.664300 17.205700 0 255 0
-11.317500 -11.927500 15.607500 0 255 0
-11.310000 -11.930000 15.560000 0 255 0
-11.350000 -10.981000 -2.626000 0 255 255
-11.593600 -11.631100 -0.439300 255 0 0
-11.610000 -12.220000 13.015000 0 255 0
-11.620900 -11.609300 -2.586700 255 0 0
-11.630000 -11.980000 20.340000 0 255 0
-11.610000 -11.618500 -0.334600 255 0 0
-12.560000 -12.130000 15.210000 0 255 0
-12.370000 -11.770000 18.350000 0 255 0
-12.359400 -11.671100 11.864400 0 255 0
-12.517000 -11.274000 7.864000 0 255 0
-10.960000 -12.120000 14.978300 0 255 0
-11.550000 -10.740000 21.570000 0 255 0
-10.915000 -11.830000 22.020000 0 255 0
-10.914000 -11.914000 15.512000 0 255 0
-10.960000 -11.720000 23.370001 0 255 0
-10.961300 -11.616300 16.863701 0 255 0
-11.460000 -10.805000 18.510000 0 255 0
-11.470000 -10.750000 21.740000 0 255 0
-11.570000 -10.580000 18.049999 0 255 0
-11.580000 -10.590000 17.900000 0 255 0
-10.616700 -11.416700 -2.840000 0 255 255
-11.214700 -11.660600 16.765900 0 255 0
-11.963300 -10.813300 -3.326700 0 255 255
-11.980000 -10.720000 16.240000 0 255 0
-10.650000 -11.085000 17.600000 0 255 0
-11.775000 -11.432500 -3.530000 0 255 255
-11.750000 -11.670000 5.950000 0 255 0
-10.870000 -11.863300 19.760000 0 255 0
-10.967100 -12.112900 -2.548600 0 255 255
-10.910000 -12.490000 4.400000 0 255 0
-10.895000 -12.575000 -2.082500 0 255 255
-11.315000 -12.772500 7.510000 0 255 0
-11.305000 -12.805000 -2.575000 0 255 255
-11.315000 -12.817500 -2.541900 0 255 255
-11.417000 -12.869000 -1.390000 0 255 255
-11.107700 -11.066900 5.913100 0 255 0
-11.115000 -10.905000 22.105000 0 255 0
-11.510000 -11.876800 4.256300 255 0 0
-11.525000 -11.915000 7.410000 255 0 0
-11.500700 -11.867300 3.610000 0 255 0
-11.505000 -11.900000 6.860000 255 0 0
-11.520000 -11.960000 -2.700000 0 255 0
-11.520000 -11.588000 2.454000 0 255 0
-11.522000 -11.638000 5.606000 255 0 0
-11.557400 -11.619400 5.864400 255 0 0
-11.580000 -11.530000 -0.660000 255 0 0
-12.090000 -11.060000 20.100000 0 255 0
-12.057600 -11.614100 7.464100 0 255 0
-11.570000 -11.790000 -0.800000 255 0 0
-11.550000 -11.575000 12.265000 255 0 0
-11.557400 -11.628700 9.012200 255 0 0
-12.420000 -11.815000 12.175000 0 255 0
-12.553300 -11.705000 11.901700 0 255 0
-11.293800 -12.517500 11.467500 0 255 0
-12.255000 -11.021700 19.963301 0 255 0
-12.663300 -11.713300 12.356700 0 255 0
-11.120000 -12.333300 11.756700 0 255 0
-12.112000 -10.882000 21.662001 0 255 0
-11.013300 -12.206700 -3.280000 0 255 255
-11.207900 -10.675500 17.264099 0 255 0
-12.019000 -12.519000 14.664000 0 255 0
-11.508500 -12.017700 15.402300 0 255 0
-11.103300 -12.570000 15.953300 0 255 0
-11.740000 -12.070000 20.254999 0 255 0
-11.765600 -11.918900 16.865601 0 255 0
-11.480000 -11.810000 13.490000 255 0 0
-11.456700 -11.763300 16.656700 255 0 0
-11.460000 -11.740000 20.010000 255 0 0
-10.410000 -11.955000 16.202499 0 255 0
-12.556300 -11.175000 18.557501 0 255 0
-12.105000 -11.680000 19.907499 0 255 0
-12.056700 -11.422200 20.998899 0 255 0
-10.511400 -12.018600 -3.144300 0 255 255
-11.340000 -11.020000 18.600000 0 255 0
-11.310000 -11.950000 21.629999 0 255 0
-11.295000 -11.905000 18.360001 0 255 0
-11.465600 -12.473000 -2.031100 0 255 255
-11.458600 -12.315700 7.474300 0 255 0
-11.407500 -12.280000 -2.782500 0 255 255
-11.411700 -11.780000 16.799999 255 0 0
-11.417500 -11.716300 13.657500 255 0 0
-11.420900 -11.671800 10.660900 255 0 0
-11.420000 -11.720000 15.910000 255 0 0
-11.400000 -11.790000 19.139999 255 0 0
-11.410000 -11.610000 9.140000 255 0 0
-11.410000 -12.200000 -3.070000 0 255 255
-11.422000 -11.676000 12.404000 255 0 0
-10.480000 -11.710000 16.120001 0 255 0
-10.840000 -11.960000 23.040001 0 255 0
-11.365000 -11.570000 22.965000 255 0 0
-11.345000 -12.260000 16.799999 0 255 0
-11.311300 -12.420000 -2.890000 0 255 255
-11.310000 -12.425000 -3.140000 0 255 255
-10.780000 -12.115000 -2.750000 0 255 255
-10.757500 -12.112500 -3.392500 0 255 255
-10.955000 -12.675000 -2.597900 0 255 255
-11.160000 -12.827500 -2.447500 0 255 255
-11.500000 -10.665000 24.045000 0 255 0
-11.400000 -12.750000 14.060000 0 255 0
-11.399100 -11.769100 1.017300 255 0 0
-11.416700 -11.812900 4.359600 255 0 0
-11.398100 -11.713100 -2.145600 255 0 0
-11.430000 -11.864000 7.522000 255 0 0
-10.805000 -12.240000 4.500000 0 255 0
-11.060700 -12.372100 -2.900000 0 255 255
-11.062300 -10.628500 5.798500 0 255 0
-11.650000 -12.760000 19.959999 0 255 0
-11.654700 -12.564700 7.308000 0 255 0
-11.520000 -12.140000 -2.830000 0 255 0
-11.502200 -11.867800 7.058900 255 0 0
-11.503800 -11.871500 6.858500 255 0 0
-11.520000 -12.525000 24.275000 0 255 0
-11.490000 -12.560000 14.270000 0 255 0
-11.500000 -12.640000 17.500000 0 255 0
-11.510000 -11.910000 10.550000 255 0 0
-11.520000 -12.500000 24.010000 0 255 0
-11.514300 -12.131400 -2.098600 0 255 0
-11.504400 -11.862200 7.304400 255 0 0
-12.605000 -12.075000 15.195000 0 255 0
-11.490000 -11.700000 12.810000 255 0 0
-11.510000 -11.480000 22.610001 0 255 0
-11.520000 -11.610000 19.379999 255 0 0
-11.567500 -11.230000 -2.683800 0 255 0
-11.493300 -11.806700 6.316700 255 0 0
-11.505200 -11.660500 9.555200 255 0 0
-11.516400 -11.577300 16.106400 255 0 0
-11.510000 -11.525000 22.900000 255 0 0
-11.514000 -11.590000 13.466000 255 0 0
-11.508500 -11.665300 6.708900 0 255 0
-11.516400 -11.616400 16.606400 255 0 0
-11.492000 -11.710000 9.858000 255 0 0
-12.150000 -10.726700 -3.200000 0 255 255
-12.161100 -12.274400 16.015600 0 255 0
-11.910000 -10.722000 20.200001 0 255 0
-11.930000 -11.290000 15.540000 0 255 0
-10.764200 -11.568800 14.365400 0 255 0
-10.850000 -12.240000 24.680000 0 255 0
-10.855000 -12.373700 15.103700 0 255 0
-10.960000 -12.440000 15.820000 0 255 0
-11.860000 -11.030000 -2.810000 0 255 255
-11.814300 -12.017100 16.799999 0 255 0
-11.330000 -11.840000 10.210000 255 0 0
-11.310000 -11.526700 3.653300 0 255 0
-11.312900 -11.724300 16.708599 0 255 0
-11.320000 -11.800000 11.540000 0 255 0
-10.980000 -10.820000 -3.170000 0 255 255
-10.980000 -11.290000 19.680000 0 255 0
-10.830000 -12.080000 -2.640000 0 255 255
-11.000000 -11.070000 20.230000 0 255 0
-11.010000 -11.000000 17.070000 0 255 0
-11.005000 -12.170000 -3.800000 0 255 255
-11.250000 -12.135000 -2.955000 0 255 255
-10.516700 -12.210000 4.613300 0 255 0
-11.390000 -11.700000 -3.190000 255 0 0
-11.425000 -11.865000 6.545000 255 0 0
-11.395000 -11.771700 0.051700 255 0 0
-11.409700 -11.821500 3.306900 255 0 0
-11.396700 -11.773300 -0.970000 255 0 0
-11.408800 -11.815900 2.360900 255 0 0
-11.420000 -11.860000 5.523300 255 0 0
-11.457100 -11.864700 2.308200 255 0 0
-11.450000 -12.380000 21.120001 0 255 0
-11.470000 -12.520000 11.400000 0 255 0
-11.469200 -11.924000 -0.846500 255 0 0
-11.455600 -11.877800 1.257000 255 0 0
-11.456500 -11.864100 2.355300 255 0 0
-11.469600 -11.910600 -0.883900 255 0 0
-11.452400 -11.884700 0.212100 255 0 0
-11.467100 -12.475700 13.245700 0 255 0
-10.362100 -11.617900 16.212099 0 255 0
-11.618000 -11.706000 4.212000 255 0 0
-11.604400 -11.677900 0.960500 255 0 0
