-12.800000 7.190000 26.840000 0 255 0
-12.980000 7.070000 19.290001 0 255 0
-12.965000 7.015000 16.165001 0 255 0
-13.250000 7.574000 15.872000 0 255 0
-13.260000 7.285000 22.615000 0 255 0
-12.860000 8.385000 2.203700 0 255 255
-11.750000 7.000000 2.490000 0 255 0
-11.761400 6.682900 22.065701 0 255 0
-12.668800 7.422900 2.913800 0 255 0
-13.207600 7.944100 3.659000 0 255 255
-11.880000 7.740000 20.580000 0 255 0
-11.862500 7.787500 23.615000 0 255 0
-13.154300 8.181300 2.117000 0 255 255
-12.630000 6.700000 18.520000 0 255 0
-12.304200 7.078500 1.720800 0 255 0
-12.320000 6.600000 21.490000 0 255 0
-12.520000 6.700000 20.549999 0 255 0
-12.765000 6.242500 2.462500 0 255 255
-12.758600 6.371400 12.348600 0 255 0
-11.720000 8.290000 2.890000 0 255 255
-11.066700 7.280000 2.310000 0 255 255
-11.057800 7.275600 2.566100 0 255 255
-12.375000 8.250000 4.945000 0 255 255
-12.760000 6.310000 13.550000 0 255 0
-11.600000 7.970000 1.930000 0 255 255
-12.006700 7.333300 2.466700 255 0 0
-11.460000 7.630000 25.105000 0 255 0
-11.303300 7.231700 19.405001 0 255 0
-11.410000 8.230000 2.340000 0 255 255
-11.350000 6.950000 28.309999 0 255 0
-11.412500 8.180000 2.765000 0 255 255
-11.410000 8.221200 2.706300 0 255 255
-12.400000 6.700000 25.430000 0 255 0
-12.360000 7.422500 10.700000 255 0 0
-12.340000 7.520000 4.210000 255 0 0
-13.440000 7.210000 1.880000 0 255 255
-12.960000 6.670000 2.040000 0 255 255
-11.590000 6.500000 23.250000 0 255 0
-12.830000 8.340000 2.190000 0 255 255
-12.966700 6.833300 12.360000 0 255 0
-12.560000 6.060000 19.059999 0 255 0
-13.390000 7.490000 3.355000 0 255 255
-12.755400 6.427500 1.764600 0 255 255
-13.311700 7.381700 2.160000 0 255 255
-12.390000 8.270000 5.240000 0 255 255
-12.350000 6.050000 24.420000 0 255 0
-12.448000 6.992000 1.728000 0 255 0
-12.505000 7.680000 19.709999 0 255 0
-12.357500 8.335000 5.070000 0 255 255
-12.290000 7.600000 27.860001 0 255 0
-11.230000 7.500000 1.800000 0 255 255
-13.170000 7.420000 18.260000 0 255 0
-12.710000 7.690000 27.240000 0 255 0
-13.240000 7.310000 24.559999 0 255 0
-12.860000 7.640000 23.770000 0 255 0
-12.970000 6.985000 26.760000 0 255 0
-12.914000 8.384000 2.308000 0 255 255
-12.920000 7.110000 27.400000 0 255 0
-11.051100 7.683300 2.713300 0 255 255
-11.990000 7.240000 20.450001 0 255 0
-12.830000 7.490000 1.970000 0 255 255
-13.090000 7.390000 2.140000 0 255 255
-13.090000 7.750000 18.180000 0 255 0
-13.020000 7.400000 2.160000 0 255 255
-12.610000 7.466700 2.416700 0 255 0
-12.610000 7.225000 18.225000 0 255 0
-12.914300 7.832900 18.397100 0 255 0
-12.563100 8.370800 2.966700 0 255 255
-12.810000 7.480000 2.210000 0 255 255
-12.560600 6.678300 1.706700 0 255 255
-12.550000 7.915000 17.245001 0 255 0
-12.290000 7.385000 17.809999 255 0 0
-12.310000 7.170000 5.180000 255 0 0
-12.310000 7.410000 14.663300 255 0 0
-12.212500 7.070000 23.462500 255 0 0
-12.305000 7.172500 14.912500 255 0 0
-11.655700 7.340000 2.114300 0 255 255
-11.640000 6.900000 24.040001 0 255 0
-11.650000 6.920000 27.420000 0 255 0
-12.550000 6.930000 25.969999 0 255 0
-12.560000 6.972500 29.112499 0 255 0
-11.870000 7.700000 25.490000 0 255 0
-11.858300 7.340000 2.668300 0 255 0
-11.850000 7.070000 2.330000 0 255 0
-11.590000 6.830000 2.300000 0 255 255
-12.370000 6.475000 2.060000 0 255 255
-12.363300 6.573300 21.406700 0 255 0
-12.610000 6.482900 2.100000 0 255 255
-11.666000 7.028000 1.708000 0 255 255
-12.420000 7.070000 18.540001 255 0 0
-12.410000 6.540000 28.379999 0 255 0
-12.410000 7.133300 15.316700 255 0 0
-12.390000 7.020000 21.799999 0 255 0
-12.710000 8.180000 20.959999 0 255 0
-12.700000 8.060000 14.450000 0 255 0
-12.654000 8.278000 2.500000 0 255 255
-12.790000 8.170000 2.360000 0 255 255
-12.811400 7.631400 2.404300 0 255 255
-13.216700 7.560000 2.603300 0 255 255
-13.190000 7.350000 18.450001 0 255 0
-12.740000 7.180000 21.959999 0 255 0
-12.566700 8.230000 2.770000 0 255 255
-12.063300 6.133300 16.161100 0 255 0
-12.870000 6.710000 12.310000 0 255 0
-12.370000 7.670000 22.000000 0 255 0
-12.380000 7.590000 28.299999 0 255 0
-11.503300 7.730000 2.760000 0 255 255
-13.120000 7.880000 14.320000 0 255 0
-11.300000 7.390000 26.860001 0 255 0
-12.502000 8.132000 14.120000 0 255 0
-11.300000 7.115000 19.520000 0 255 0
-11.550000 6.823300 28.846701 0 255 0
-11.565000 6.875000 19.663300 0 255 0
-11.757500 8.342500 3.252500 0 255 255
-11.750000 7.950000 28.570000 0 255 0
-11.407500 6.425000 23.457500 0 255 0
-12.930000 6.970000 26.730000 0 255 0
-13.210000 7.500000 2.010000 0 255 255
-13.210000 7.630000 18.316700 0 255 0
-12.465000 6.145000 1.920000 0 255 255
-12.445000 5.990000 17.420000 0 255 0
-12.660000 8.050000 2.090000 0 255 255
-12.405000 7.585000 28.315001 0 255 0
-12.764300 8.431200 2.202200 0 255 255
-12.754000 8.178000 2.216000 0 255 255
-12.820000 7.910000 2.770000 0 255 255
-12.847500 8.228800 2.556300 0 255 255
-12.605000 8.177500 2.520000 0 255 255
-12.230000 7.580000 2.390000 0 255 0
-12.770000 8.110000 21.879999 0 255 0
-12.740000 7.900000 26.030001 0 255 0
-12.710000 6.490000 23.660000 0 255 0
-12.670000 8.060000 22.020000 0 255 0
-11.970000 6.630000 29.040001 0 255 0
-13.057300 7.872700 2.019100 0 255 255
-13.270000 7.630000 19.705000 0 255 0
-11.440000 7.780000 2.310000 0 255 255
-12.302500 7.037500 17.857500 255 0 0
-12.290000 7.130000 24.150000 255 0 0
-12.330000 6.990000 20.995001 0 255 0
-11.880000 6.735000 21.209999 0 255 0
-12.420000 7.130000 17.440001 255 0 0
-13.008200 8.236700 5.005300 0 255 255
-12.520000 6.610000 1.770000 0 255 255
-12.500000 6.580000 17.740000 0 255 0
-12.550000 6.930000 1.930000 0 255 255
-13.004000 8.126000 2.148000 0 255 255
-13.010000 8.110000 2.220000 0 255 255
-13.110000 7.450000 2.270000 0 255 255
-12.580000 7.860000 19.940001 0 255 0
-12.570000 7.800000 26.129999 0 255 0
-12.657000 8.431000 2.560000 0 255 255
-12.714000 8.382300 2.661700 0 255 255
-11.200000 7.870000 2.965000 0 255 255
-11.366700 7.876700 3.096700 0 255 255
-11.360000 7.340000 28.469999 0 255 0
-12.980000 6.295000 11.310000 0 255 0
-13.420000 7.172500 16.742500 0 255 0
-12.766900 6.290600 13.022500 0 255 0
-12.320000 6.940000 28.605000 0 255 0
-12.715000 6.815000 21.295000 0 255 0
-11.363300 6.586700 23.423300 0 255 0
-12.611100 6.083300 13.406700 0 255 0
-13.020000 6.610000 2.120000 0 255 255
-12.370000 8.377500 2.455000 0 255 255
-12.380000 8.440000 5.690000 0 255 255
-11.210000 6.682000 23.760000 0 255 0
-12.260000 7.735000 2.200000 0 255 0
-12.250000 7.176000 17.757999 255 0 0
-12.120000 8.036700 1.956700 0 255 255
-12.900000 8.070000 20.240000 0 255 0
-13.020700 7.132100 2.412100 0 255 255
-13.030000 7.920000 2.290000 0 255 255
-12.510000 6.950000 18.360001 0 255 0
-12.499200 7.183100 2.456900 255 0 0
-12.515000 6.627500 25.504999 0 255 0
-13.115000 7.410000 18.605000 0 255 0
-13.090000 8.060000 15.600000 0 255 0
-13.350000 7.682500 18.469999 0 255 0
-12.750000 7.220000 2.810000 0 255 0
-11.925000 7.240000 24.750000 0 255 0
-11.556700 7.233300 19.416700 0 255 0
-13.310000 6.919400 12.404400 0 255 0
-12.800000 8.283300 4.830000 0 255 255
-12.910000 6.315000 13.000000 0 255 0
-12.505000 7.970000 17.245001 0 255 0
-12.365000 7.815000 26.815001 0 255 0
-12.350000 7.940000 20.320000 0 255 0
-12.370000 7.900000 17.165001 0 255 0
-12.840000 7.340000 26.910000 0 255 0
-12.471600 8.436300 4.562600 0 255 255
-12.465000 8.285000 20.770000 0 255 0
-12.455500 8.277100 3.053400 0 255 255
-12.475000 8.190000 22.025000 0 255 0
-11.720000 8.500000 2.620000 0 255 255
-11.470000 8.410000 2.700000 0 255 255
-11.262500 7.585000 2.570000 0 255 255
-13.120000 8.186700 2.353300 0 255 255
-11.215700 8.187100 2.905700 0 255 255
-13.470000 7.080000 16.950001 0 255 0
-11.461000 7.684000 3.057000 0 255 255
-12.540000 7.170000 18.959999 0 255 0
-12.040000 6.130000 17.559999 0 255 0
-13.000000 6.340000 11.330000 0 255 0
-12.790000 7.980000 2.130000 0 255 255
-12.830000 6.640000 12.425000 0 255 0
-12.540000 7.130000 16.090000 0 255 0
-11.854000 7.824000 20.510000 0 255 0
-11.880000 7.780000 17.350000 0 255 0
-12.920000 6.740000 21.420000 0 255 0
-12.313300 6.233300 24.371700 0 255 0
-13.240000 7.463300 19.846701 0 255 0
-12.630000 6.670000 13.080000 0 255 0
-11.060000 7.650000 2.060000 0 255 255
-12.430000 7.860000 28.260000 0 255 0
-12.410000 7.570000 21.920000 0 255 0
-12.413300 6.698300 2.163300 0 255 255
-11.330000 7.810000 2.380000 0 255 255
-11.405000 8.170000 2.655000 0 255 255
-11.406700 7.476700 2.861300 0 255 255
-12.309300 7.490400 3.761800 255 0 0
-12.956400 6.328800 11.367800 0 255 0
-12.910000 7.830000 20.070000 0 255 0
-13.365000 7.550000 18.400000 0 255 0
-13.260900 8.023600 2.159100 0 255 255
-13.118000 7.528000 18.323999 0 255 0
-13.217100 7.041400 19.815701 0 255 0
-11.517500 7.985000 3.010000 0 255 255
-12.813300 8.236700 2.151300 0 255 255
-12.725000 7.335000 27.040001 0 255 0
-11.415000 7.135000 19.607500 0 255 0
-11.100000 7.478600 21.207100 0 255 0
-11.101700 7.186700 2.415000 0 255 255
-12.260000 8.376700 2.210000 0 255 255
-12.268000 8.418000 5.354000 0 255 255
-12.240000 8.380000 2.740000 0 255 255
-11.215000 6.785000 23.555000 0 255 0
-11.675000 6.475000 23.010000 0 255 0
-12.440000 8.020000 26.129999 0 255 0
-11.216700 7.533300 2.993300 0 255 255
-12.690000 7.790000 26.969999 0 255 0
-13.402500 7.245000 1.962500 0 255 255
-12.850000 8.310000 5.200000 0 255 255
-12.490000 6.820000 29.180000 0 255 0
-12.495000 7.035000 16.520000 0 255 0
-12.665000 7.750000 2.010000 0 255 255
-12.312700 7.440000 7.109500 255 0 0
-12.570000 8.145000 3.440000 0 255 255
-13.070000 6.986700 17.603300 0 255 0
-11.772000 8.282000 14.414000 0 255 0
-12.966700 6.826700 12.296700 0 255 0
-12.400000 7.480000 2.470000 255 0 0
-12.401300 7.417900 5.712100 255 0 0
-12.416000 7.388000 8.962000 255 0 0
-13.105700 6.925700 16.057899 0 255 0
-13.250000 8.033300 2.213300 0 255 255
-12.600000 8.500000 5.570000 0 255 255
-12.605000 8.215000 21.375000 0 255 0
-11.210000 8.000000 2.640000 0 255 255
-12.495000 7.285000 16.355000 255 0 0
-13.030000 6.385000 12.025000 0 255 0
-12.514000 8.238000 14.160700 0 255 0
-12.453500 8.487100 4.913900 0 255 255
-12.462000 7.486000 2.962000 255 0 0
-12.470000 7.260000 16.030001 255 0 0
-12.453300 7.235800 12.863300 255 0 0
-12.300000 6.040000 19.280001 0 255 0
-12.364100 8.273700 5.418100 0 255 255
-12.300000 7.160000 13.370000 255 0 0
-12.359800 7.474900 4.161000 255 0 0
-12.350000 7.436700 13.610000 255 0 0
-13.050000 7.430000 18.330000 0 255 0
-12.160000 8.570000 2.713300 0 255 255
-12.140000 8.360000 17.490000 0 255 0
-11.360000 6.650000 28.940001 0 255 0
-12.450000 7.440000 15.750000 255 0 0
-12.480000 7.610000 2.700000 0 255 0
-12.392500 7.149400 4.568700 0 255 0
-12.410000 7.090000 7.720000 255 0 0
-13.308300 7.433300 2.163300 0 255 255
-13.150000 7.350000 19.530001 0 255 0
-12.620000 7.000000 24.389999 0 255 0
-12.460000 8.176700 17.446699 0 255 0
-12.466700 8.127800 14.207200 0 255 0
-12.909400 7.977500 15.950000 0 255 0
-11.670000 6.528000 23.016001 0 255 0
-12.513300 7.832200 17.258900 0 255 0
-13.100000 6.885000 16.400000 0 255 0
-12.368000 7.164000 7.850000 255 0 0
-13.030000 7.080000 26.680000 0 255 0
-12.070000 6.280000 28.490000 0 255 0
-12.270000 6.350000 19.150000 0 255 0
-11.250000 7.580000 21.030001 0 255 0
-12.212200 7.786700 2.762200 0 255 0
-12.556000 7.136000 19.048000 0 255 0
-12.772500 6.282500 16.711300 0 255 0
-11.180000 7.250000 26.370001 0 255 0
-11.460000 6.800000 28.230000 0 255 0
-11.400000 7.060000 23.320000 0 255 0
-11.463300 8.080000 2.906700 0 255 255
-11.395000 6.815000 23.315001 0 255 0
-12.002500 6.377500 19.947500 0 255 0
-12.495000 7.320000 10.965000 255 0 0
-12.160000 7.976700 2.706700 0 255 255
-12.175000 7.990000 2.470000 0 255 255
-13.150000 7.433300 2.013300 0 255 255
-13.130000 6.770000 1.830000 0 255 255
-12.360000 7.942500 17.307501 0 255 0
-12.715000 7.830000 18.309000 0 255 0
-11.210000 6.710000 23.674999 0 255 0
-13.210000 7.460000 22.980000 0 255 0
-13.206700 7.976700 15.993300 0 255 0
-13.230000 7.535000 19.809999 0 255 0
-12.858300 6.230000 23.844999 0 255 0
-13.067500 6.732500 18.707500 0 255 0
-12.660000 8.380000 4.803300 0 255 255
-12.810000 7.490000 2.180000 0 255 255
-13.130000 6.600000 27.809999 0 255 0
-11.808600 8.178600 3.117100 0 255 255
-11.826700 7.830000 25.600000 0 255 0
-11.180000 7.665000 2.780000 0 255 255
-12.990000 7.710000 26.200001 0 255 0
-13.440000 7.210000 1.890000 0 255 255
-12.920000 6.310000 28.219999 0 255 0
-12.502200 6.537800 17.561100 0 255 0
-12.900000 8.290000 4.140000 0 255 255
-12.447500 7.187500 10.305000 255 0 0
-12.466000 6.878000 17.059999 0 255 0
-12.600000 7.910000 26.030001 0 255 0
-12.540000 7.050000 11.280000 0 255 0
-12.970000 7.485000 2.312500 0 255 255
-12.760000 7.620000 18.420000 0 255 0
-12.761700 7.386700 2.621700 0 255 0
-11.540000 7.600000 2.170000 0 255 255
-11.560000 7.200000 28.280001 0 255 0
-12.468000 8.222000 20.959999 0 255 0
-12.370000 6.565000 21.365000 0 255 0
-12.700000 6.775000 27.420000 0 255 0
-12.425000 7.223800 8.411300 255 0 0
-12.422500 7.270000 5.257500 255 0 0
-12.411700 7.180000 11.555000 255 0 0
-12.042500 8.377500 2.560000 0 255 255
-12.990000 8.070000 4.950000 0 255 255
-12.990000 7.320000 2.050000 0 255 255
-12.855000 7.577500 18.417500 0 255 0
-12.380000 7.670000 28.190001 0 255 0
-12.310000 7.440000 4.760000 255 0 0
-11.400000 7.420000 19.813299 0 255 0
-12.560000 6.386700 1.820000 0 255 255
-12.550000 6.690000 1.840000 0 255 255
-12.567500 7.931300 17.497499 0 255 0
-11.146700 7.236700 26.420000 0 255 0
-12.830000 6.880000 28.950001 0 255 0
-13.057500 6.790000 1.772500 0 255 255
-13.030000 6.810000 24.430000 0 255 0
-12.310000 6.900000 12.910000 0 255 0
-12.305000 7.045000 16.010000 255 0 0
-12.775000 7.635000 2.545000 0 255 255
-13.020000 6.436700 12.362200 0 255 0
-13.010000 6.333300 18.840000 0 255 0
-12.770000 6.428300 18.466700 0 255 0
-12.780000 6.150000 12.330000 0 255 0
-13.100000 7.630000 20.010000 0 255 0
-12.430000 7.940000 26.180000 0 255 0
-12.240000 8.410000 3.300000 0 255 255
-12.350000 8.124000 2.562000 0 255 255
-12.357500 7.990000 5.907500 0 255 255
-12.240000 7.400000 8.180000 255 0 0
-12.263000 7.425000 11.317000 255 0 0
-12.460000 8.270000 20.959999 0 255 0
-11.408700 6.986300 19.758699 0 255 0
-12.600000 7.350000 26.820000 0 255 0
-12.630000 7.380000 23.639999 0 255 0
-12.830000 7.100000 27.150000 0 255 0
-12.815000 7.215000 17.405001 0 255 0
-11.370000 7.470000 2.190000 0 255 255
-12.550000 6.530000 17.580000 0 255 0
-11.790000 7.690000 28.950001 0 255 0
-11.850000 7.930000 25.719999 0 255 0
-11.160000 8.000000 2.230000 0 255 255
-12.050000 8.160000 2.710000 0 255 255
-12.060000 8.190000 2.070000 0 255 255
-12.380000 7.170000 20.180000 255 0 0
-12.345000 7.335000 17.125000 255 0 0
-12.257500 8.387500 2.461300 0 255 255
-12.566700 8.241700 20.865000 0 255 0
-12.513600 8.333600 2.059100 0 255 255
-12.463000 6.239000 17.715000 0 255 0
-12.600000 6.290000 28.469999 0 255 0
-12.680000 8.090000 22.150000 0 255 0
-12.456000 7.226000 14.416000 255 0 0
-13.220000 7.590000 19.865000 0 255 0
-13.380000 6.900000 16.209999 0 255 0
-12.708900 8.434200 2.110500 0 255 255
-12.712500 7.442500 18.277500 0 255 0
-13.203300 7.478900 19.755600 0 255 0
-12.500000 6.140000 28.639999 0 255 0
-12.801700 7.590000 2.456700 0 255 255
-13.163300 7.963300 18.226700 0 255 0
-11.560000 7.310000 19.910000 0 255 0
-11.550000 7.220000 26.200001 0 255 0
-12.702800 8.243300 2.897200 0 255 255
-13.256700 7.486700 22.820000 0 255 0
-13.264400 7.432200 19.665600 0 255 0
-13.140000 6.810000 18.680000 0 255 0
-13.163300 6.933300 12.352500 0 255 0
-12.573300 7.966700 26.356701 0 255 0
-11.450000 6.830000 2.580000 0 255 255
-12.480000 7.880000 17.139999 0 255 0
-12.861800 7.482700 2.416400 0 255 255
-12.555300 7.277900 2.308400 255 0 0
-12.490000 6.975000 1.905000 0 255 0
-13.260000 7.085000 2.165000 0 255 255
-12.950000 7.780000 18.230000 0 255 0
-12.670000 6.372500 1.965000 0 255 255
-12.544600 8.146200 5.002300 0 255 255
-12.210000 8.310000 2.110000 0 255 255
-12.200000 6.140000 3.950000 0 255 255
-11.800000 6.740000 23.070000 0 255 0
-11.410000 6.775000 23.655001 0 255 0
-13.340000 7.150000 19.520000 0 255 0
-13.365500 7.280900 16.211800 0 255 0
-11.510000 7.225000 2.395000 0 255 255
-12.803800 7.971300 14.260000 0 255 0
-13.115000 7.290000 22.915001 0 255 0
-13.117500 7.315000 19.757500 0 255 0
-11.516700 7.818300 14.361700 0 255 0
-12.253300 7.176700 12.410000 255 0 0
-12.260000 7.278600 18.908600 255 0 0
-12.253300 7.226700 15.566700 255 0 0
-11.960800 7.326200 19.716200 0 255 0
-12.730000 6.365000 13.010000 0 255 0
-12.909400 6.320600 12.951700 0 255 0
-12.995000 6.325000 12.945000 0 255 0
-13.160000 6.560000 18.809999 0 255 0
-13.154000 6.685000 12.514500 0 255 0
-11.510000 7.280000 26.240000 0 255 0
-11.666000 7.178000 2.824000 0 255 255
-12.730000 7.450000 15.200000 0 255 0
-12.210000 6.550000 28.480000 0 255 0
-11.315000 7.582500 2.717500 0 255 255
-13.240000 7.240000 19.580000 0 255 0
-12.440000 7.220000 18.930000 255 0 0
-12.560000 6.150000 26.730000 0 255 0
-12.510000 8.070000 2.490000 0 255 255
-12.450000 6.280000 17.610001 0 255 0
-12.980000 7.140000 19.200001 0 255 0
-13.325000 7.985000 2.275000 0 255 255
-13.480000 7.590000 2.140000 0 255 255
-12.613300 7.633300 2.220000 0 255 255
-12.440000 6.200000 17.610001 0 255 0
-12.457500 6.182500 17.667500 0 255 0
-11.720000 6.290000 28.080000 0 255 0
-11.010000 7.376700 2.466700 0 255 255
-12.808000 6.374000 13.058000 0 255 0
-12.457700 7.580000 19.710800 0 255 0
-11.503300 8.226700 2.796700 0 255 255
-12.664600 7.922300 2.415400 0 255 255
-12.664600 6.532300 16.651501 0 255 0
-12.857300 7.579100 15.800000 0 255 0
-13.462500 7.120000 16.167500 0 255 0
-13.108600 6.479500 12.412400 0 255 0
-13.264300 6.671400 18.861401 0 255 0
-13.267000 6.979000 12.311000 0 255 0
-11.660000 7.675000 3.360000 0 255 255
-12.260000 7.560000 25.940001 0 255 0
-12.790000 7.890000 25.969999 0 255 0
-12.550000 7.987500 26.299999 0 255 0
-12.190000 6.550000 19.760000 0 255 0
-12.820000 6.670000 2.330000 0 255 255
-12.805000 7.210000 18.170000 0 255 0
-12.710000 6.680000 2.170000 0 255 255
-12.700000 7.090000 27.480000 0 255 0
-13.018900 6.492200 2.165600 0 255 255
-12.366700 6.333300 17.756701 0 255 0
-12.457100 6.685700 1.702900 0 255 255
-12.090000 6.490000 27.360001 0 255 0
-11.905500 6.580900 20.656401 0 255 0
-12.298400 8.032400 3.107200 0 255 255
-13.463800 6.985000 16.657499 0 255 0
-11.970000 7.250000 22.059999 0 255 0
-12.511700 8.080800 20.912500 0 255 0
-11.570000 7.380000 19.900000 0 255 0
-12.968000 8.082000 20.167999 0 255 0
-13.362500 6.680000 19.209999 0 255 0
-11.812000 6.966000 1.750000 0 255 0
-12.900000 6.960000 27.240000 0 255 0
-12.867800 6.271100 12.870000 0 255 0
-12.430000 7.216700 6.713300 255 0 0
-12.400000 7.290000 3.370000 255 0 0
-12.410000 7.181500 9.861500 255 0 0
-12.408300 7.436700 19.758301 0 255 0
-12.823300 6.231700 12.316700 0 255 0
-12.330000 7.330000 12.610000 255 0 0
-12.306000 7.875000 2.701000 0 255 255
-12.303300 7.163300 9.463300 255 0 0
-12.080000 8.100000 27.910000 0 255 0
-12.310000 6.830000 21.280001 0 255 0
-11.920000 7.490000 19.559999 0 255 0
-12.405400 7.415800 6.408800 255 0 0
-12.412500 7.385600 9.661200 255 0 0
-12.397300 7.470900 3.357300 255 0 0
-13.190000 7.490000 15.490000 0 255 0
-13.230000 7.200000 2.420000 0 255 255
-12.802500 8.120000 2.290000 0 255 255
-12.555000 7.283300 2.253300 0 255 0
-13.030000 8.050000 2.140000 0 255 255
-12.400000 7.126700 16.706699 255 0 0
-11.750000 8.023300 14.263300 0 255 0
-11.315000 7.232500 19.504999 0 255 0
-11.680000 7.460000 28.879999 0 255 0
-11.950000 7.620000 19.740000 0 255 0
-12.380000 7.750000 19.590000 0 255 0
-12.710000 7.162500 19.057501 0 255 0
-13.256700 7.396700 19.709999 0 255 0
-12.917100 6.726400 12.563600 0 255 0
-13.254500 6.876800 12.454200 0 255 0
-12.958900 6.324400 11.393300 0 255 0
-13.470000 7.510000 2.010000 0 255 255
-13.413300 6.916700 12.206700 0 255 0
-12.407400 7.179500 10.008900 255 0 0
-12.420000 7.210000 6.760000 255 0 0
-12.516700 8.066700 20.856701 0 255 0
-11.680000 7.850000 22.940001 0 255 0
-11.502500 7.973700 3.063800 0 255 255
-11.406700 7.223300 20.006701 0 255 0
-11.469000 7.984000 2.909000 0 255 255
-11.158200 8.026400 2.813600 0 255 255
-12.460000 8.523300 2.406700 0 255 255
-12.118000 8.229000 17.412001 0 255 0
-11.275000 7.945000 14.250000 0 255 0
-13.202900 7.928600 18.254299 0 255 0
-12.714500 7.476400 2.463600 0 255 0
-12.345000 6.260000 16.225000 0 255 0
-12.370000 6.012500 13.110000 0 255 0
-13.130000 7.170000 24.420000 0 255 0
-13.100000 7.090000 17.660000 0 255 0
-13.420000 7.182000 16.700001 0 255 0
-13.064600 6.485400 12.406500 0 255 0
-12.170000 6.160000 3.960000 0 255 255
-12.117500 6.545000 21.362499 0 255 0
-12.473300 7.733300 2.063300 0 255 0
-12.450000 7.575000 18.264999 0 255 0
-13.310000 7.360000 22.020000 0 255 0
-12.490000 8.100000 4.830000 0 255 255
-12.620000 6.380000 1.712500 0 255 255
-12.290000 7.540000 5.540000 255 0 0
-12.305000 7.465000 8.718800 255 0 0
-12.956700 6.716700 12.113300 0 255 0
-12.280000 8.020000 26.730000 0 255 0
-12.330000 7.660000 19.709999 0 255 0
-13.061000 6.581000 12.464300 0 255 0
-13.080000 6.670000 18.780001 0 255 0
-12.570000 6.930000 27.049999 0 255 0
-12.807500 8.030000 20.107500 0 255 0
-12.357800 7.826700 18.360001 0 255 0
-12.953300 7.073300 17.480000 0 255 0
-12.514000 7.470000 2.318000 0 255 0
-12.370000 8.230000 27.200001 0 255 0
-12.393300 6.730000 1.750000 0 255 255
-11.330000 7.950000 2.580000 0 255 255
-12.600000 8.070000 26.115000 0 255 0
-12.565000 7.995000 3.410000 0 255 255
-12.020000 7.716700 2.710000 0 255 255
-11.190000 7.500000 2.560000 0 255 255
-13.356700 6.930000 19.406700 0 255 0
-12.851800 7.680900 18.350901 0 255 0
-13.153300 6.796700 16.363300 0 255 0
-11.320000 6.730000 23.940001 0 255 0
-12.725000 8.415000 4.760000 0 255 255
-12.610000 8.350000 2.240000 0 255 255
-13.150700 7.880000 3.662100 0 255 255
-12.443300 7.419200 3.305000 255 0 0
-11.454000 8.384000 2.458000 0 255 255
-12.925000 8.230000 14.280000 0 255 0
-12.780000 7.110000 17.320000 0 255 0
-12.561500 8.074600 17.467699 0 255 0
-12.113800 8.487500 14.766900 0 255 0
-12.956700 7.526700 15.810000 0 255 0
-12.470000 7.050000 22.670000 0 255 0
-12.768600 6.291400 2.058600 0 255 255
-12.410000 8.180000 20.961800 0 255 0
-11.170000 7.536700 2.850000 0 255 255
-11.560000 7.400000 19.980000 0 255 0
-13.115000 8.145000 14.415000 0 255 0
-13.160000 7.940000 2.210000 0 255 255
-11.246700 6.621700 2.601700 0 255 255
-11.260000 6.710000 23.680000 0 255 0
-12.704000 8.172000 2.060000 0 255 255
-12.363300 7.173300 14.153300 255 0 0
-11.150000 7.150000 26.440001 0 255 0
-11.180000 7.230000 19.969999 0 255 0
-12.250000 7.026700 17.823299 255 0 0
-11.290000 7.410000 20.000000 0 255 0
-11.450000 6.730000 23.379999 0 255 0
-12.313300 7.590000 2.956700 0 255 0
-12.310000 7.931500 19.150000 0 255 0
-12.305000 7.045000 18.299999 255 0 0
-12.290000 7.130000 24.799999 255 0 0
-13.157500 6.430000 12.327500 0 255 0
-12.095000 6.085000 17.610001 0 255 0
-12.895000 6.875000 19.830000 0 255 0
-11.055900 7.431200 2.606900 0 255 255
-12.393300 8.380000 2.326700 0 255 255
-12.470000 8.060000 2.790000 0 255 255
-12.361700 8.121700 2.852200 0 255 255
-12.710000 7.280000 27.080000 0 255 0
-13.075000 6.630000 19.080000 0 255 0
-12.426300 7.386100 5.161700 0 255 0
-11.466700 7.128300 2.017500 0 255 255
-11.176700 7.583300 1.806700 0 255 255
-11.180000 7.280000 28.309999 0 255 0
-11.140000 6.890000 2.210000 0 255 255
-11.174000 6.874000 2.012000 0 255 255
-12.730000 6.120000 25.750000 0 255 0
-11.155000 8.110000 2.380000 0 255 255
-13.055000 7.275000 20.055000 0 255 0
-13.270000 7.450000 4.110000 0 255 255
-12.720000 7.780000 28.770000 0 255 0
-13.030000 7.530000 2.380000 0 255 255
-12.363300 8.430000 2.243300 0 255 255
-12.680000 8.000000 20.860001 0 255 0
-11.505000 7.085000 1.870000 0 255 255
-12.090000 6.990000 27.250000 0 255 0
-12.121200 6.581300 1.962500 0 255 255
-11.410000 7.530000 2.560000 0 255 255
-12.552500 8.035000 21.017500 0 255 0
-12.550900 8.376200 4.918200 0 255 255
-11.670000 8.030000 2.320000 0 255 255
-11.160000 6.790000 23.924999 0 255 0
-12.259100 8.077300 20.953600 0 255 0
-13.270000 7.285000 1.903300 0 255 255
-12.820000 8.260000 2.290000 0 255 255
-12.680000 8.180000 2.480000 0 255 255
-13.170000 7.740000 14.210000 0 255 0
-12.710000 7.700000 18.440001 0 255 0
-12.570000 6.990000 13.710000 0 255 0
-12.545000 6.745000 23.610001 0 255 0
-12.820000 7.940000 25.639999 0 255 0
-13.315000 6.623300 19.058300 0 255 0
-12.470000 7.740000 19.805000 0 255 0
-11.402000 7.314000 19.952000 0 255 0
-12.450000 8.060000 26.110001 0 255 0
-12.730000 7.045000 17.309999 0 255 0
-11.800000 7.710000 28.959999 0 255 0
-11.548000 7.834000 2.848000 0 255 255
-12.480000 8.060000 26.139999 0 255 0
-12.495000 6.440000 17.562500 0 255 0
-12.450000 7.245000 20.400000 255 0 0
-11.450000 7.310000 19.320000 0 255 0
-12.276700 6.126700 2.063300 0 255 255
-12.030000 6.770000 28.910000 0 255 0
-13.100000 7.560000 2.170000 0 255 255
-13.122000 7.030000 12.357000 0 255 0
-13.220000 7.326700 2.326700 0 255 255
-12.760000 7.860000 2.440000 0 255 255
-12.740000 6.470000 16.719999 0 255 0
-12.355000 7.735000 2.410000 0 255 0
-12.490000 8.180000 22.059999 0 255 0
-12.516800 8.274400 3.097200 0 255 255
-12.860000 6.730000 12.640000 0 255 0
-13.271300 6.591300 8.978800 0 255 0
-12.350000 6.980000 26.450001 0 255 0
-12.805000 7.870000 2.120000 0 255 255
-12.810000 6.537500 12.430000 0 255 0
-11.323300 6.846700 19.763300 0 255 0
-11.460000 7.175000 2.430000 0 255 255
-11.320000 7.150000 20.180000 0 255 0
-11.300000 7.240000 26.450001 0 255 0
-11.920000 7.633300 3.163300 0 255 255
-12.430000 6.950000 11.220000 0 255 0
-12.430000 6.840000 17.500000 0 255 0
-12.816700 6.570000 12.500000 0 255 0
-13.265000 7.886200 18.227501 0 255 0
-12.956700 8.083300 14.354000 0 255 0
-12.605000 7.410000 2.090000 0 255 0
-12.813800 8.386200 2.206200 0 255 255
-13.010000 7.473300 2.260000 0 255 255
-12.401800 7.425300 5.509100 255 0 0
-12.420600 7.382500 8.765000 255 0 0
-13.240000 7.875000 18.365000 0 255 0
-12.810000 7.690000 2.470000 0 255 255
-12.660000 8.332200 2.504400 0 255 255
-12.666700 8.473300 2.503300 0 255 255
-12.622500 8.018700 2.612500 0 255 255
-12.720000 8.350000 2.990000 0 255 255
-12.413900 6.176100 12.960000 0 255 0
-12.706300 6.225000 13.347500 0 255 0
-12.820000 8.077500 2.161200 0 255 255
-12.330000 7.040000 24.240000 0 255 0
-12.800000 6.970000 2.030000 0 255 255
-11.366700 6.890000 23.260000 0 255 0
-12.775000 6.245000 2.210000 0 255 255
-11.259300 7.177300 19.864700 0 255 0
-12.210000 7.523300 3.148300 255 0 0
-10.943300 7.283300 2.456700 0 255 255
-12.900000 6.990000 26.770000 0 255 0
-12.445000 6.950000 1.640000 0 255 255
-12.490000 7.150000 11.400000 255 0 0
-12.340000 7.070000 14.430000 255 0 0
-12.354500 6.871000 1.749500 0 255 255
-12.358300 7.121700 17.658300 255 0 0
-12.646700 7.226700 1.906700 0 255 0
-12.380000 7.300000 11.910000 255 0 0
-13.190000 7.860000 2.050000 0 255 255
-12.498200 7.226400 2.215500 0 255 0
-12.410000 7.835000 18.315001 0 255 0
-12.490000 7.600000 2.210000 0 255 0
-12.490000 7.270000 8.980000 255 0 0
-12.520000 7.720000 2.330000 0 255 0
-12.565000 7.185000 2.505000 0 255 0
-12.954300 6.924300 12.421400 0 255 0
-12.940000 7.190000 2.595000 0 255 255
-12.570000 7.580000 2.680000 0 255 0
-12.563600 7.382700 15.708200 0 255 0
-13.301700 7.935800 15.859200 0 255 0
-13.318000 7.694000 18.364000 0 255 0
-12.415000 7.340000 15.715000 255 0 0
-12.390000 7.290000 18.870001 255 0 0
-12.420000 7.930000 3.040000 0 255 255
-12.150000 7.470000 25.969999 0 255 0
-12.680000 7.740000 25.990000 0 255 0
-12.314300 7.494300 3.161400 255 0 0
-12.926700 7.516700 18.450001 0 255 0
-12.316000 7.495300 3.410700 255 0 0
-12.390000 6.230000 16.219999 0 255 0
-13.275000 7.370000 2.105000 0 255 255
-13.060000 6.427100 12.315700 0 255 0
-12.600000 7.330000 27.000000 0 255 0
-11.900000 7.180000 21.170000 0 255 0
-11.890000 6.870000 1.980000 0 255 0
-11.370000 6.720000 23.639999 0 255 0
-11.107600 7.978800 2.807600 0 255 255
-11.123300 7.970000 3.066700 0 255 255
-11.990000 6.590000 27.270000 0 255 0
-11.980000 7.280000 27.629999 0 255 0
-12.313900 6.778300 1.700000 0 255 255
-12.330000 6.970000 14.370000 0 255 0
-12.310000 7.135000 17.625000 255 0 0
-12.300000 7.086700 20.853300 255 0 0
-12.849500 8.376800 4.905300 0 255 255
-13.350000 7.875000 2.080000 0 255 255
-12.767500 6.927500 2.160000 0 255 255
-12.600000 6.280000 29.030001 0 255 0
-12.630000 6.340000 25.650000 0 255 0
-12.448300 7.174200 2.211700 0 255 0
-11.360500 7.384000 2.716000 0 255 255
-12.280000 8.080000 3.060000 0 255 255
-12.552500 6.075000 16.067499 0 255 0
-12.360000 6.220000 19.090000 0 255 0
-13.230000 6.700000 16.340000 0 255 0
-12.440000 6.050000 12.940000 0 255 0
-12.471400 6.085700 16.095699 0 255 0
-13.020000 7.150000 19.420000 0 255 0
-12.865100 8.327900 2.115400 0 255 255
-12.380000 6.480000 1.790000 0 255 255
-12.290000 7.210000 4.620000 255 0 0
-12.300000 7.490000 27.290001 0 255 0
-12.290000 7.175000 7.760000 255 0 0
-12.280000 8.290000 3.130000 0 255 255
-12.110000 6.370000 21.540001 0 255 0
-11.672900 7.371400 20.562901 0 255 0
-11.660000 7.480000 2.665000 0 255 255
-11.670000 7.080000 27.969999 0 255 0
-12.408000 6.534000 2.018000 0 255 255
-12.396700 6.746700 1.808900 0 255 255
-12.445000 7.015000 1.865000 0 255 0
-12.444000 7.184000 11.612000 255 0 0
-12.546700 6.880000 1.910000 0 255 255
-12.522700 7.327300 2.003600 0 255 0
-12.490000 6.075000 2.165000 0 255 255
-13.157500 8.025000 2.105800 0 255 255
-11.890000 6.630000 21.570000 0 255 0
-11.197500 7.473700 2.668800 0 255 255
-11.315500 7.575500 2.811800 0 255 255
-12.306000 7.496000 3.314000 255 0 0
-12.020000 8.000000 17.559999 0 255 0
-12.745000 6.715000 13.060000 0 255 0
-13.063700 7.935000 14.211300 0 255 0
-11.901100 7.276700 2.575600 0 255 0
-13.456000 7.220000 16.704000 0 255 0
-13.240000 7.510000 24.500000 0 255 0
-12.470000 6.170000 12.930000 0 255 0
-12.560000 8.236700 20.953300 0 255 0
-12.800000 7.080000 18.299999 0 255 0
-12.430000 7.110000 15.740000 255 0 0
-12.400000 7.080000 18.906700 255 0 0
-13.060000 7.680000 18.230000 0 255 0
-13.070000 7.410000 2.110000 0 255 255
-11.160000 6.940000 23.490000 0 255 0
-12.623300 6.596700 2.013300 0 255 255
-11.920000 6.640000 20.580000 0 255 0
-11.980000 6.130000 2.140000 0 255 255
-12.755000 7.880000 2.710000 0 255 255
-13.510000 7.510000 3.110000 0 255 255
-13.090000 7.980000 15.820000 0 255 0
-11.966700 7.616700 3.160000 0 255 255
-11.990000 8.030000 27.690001 0 255 0
-12.860000 6.460000 18.750000 0 255 0
-12.880000 6.370000 12.440000 0 255 0
-13.355000 7.625000 3.325000 0 255 255
-12.713300 6.136700 18.946699 0 255 0
-12.290000 7.470000 13.730000 255 0 0
-12.820600 8.216700 5.869400 0 255 255
-12.290000 7.890000 1.970000 0 255 255
-12.307500 7.170000 8.710000 255 0 0
-12.310000 7.441700 18.298300 0 255 0
-12.305000 7.170000 8.905000 255 0 0
-12.297500 7.867500 3.202500 0 255 255
-12.300000 7.210000 5.820000 255 0 0
-12.308000 7.168000 8.966000 255 0 0
-12.272500 7.335000 18.920000 255 0 0
-12.270000 7.230000 12.400000 255 0 0
-12.255700 7.281400 15.664300 255 0 0
-12.260000 7.165000 9.159000 255 0 0
-12.865000 6.236300 16.750000 0 255 0
-12.560000 8.170000 14.168300 0 255 0
-12.530000 8.350000 4.500000 0 255 255
-12.523300 8.176700 14.296700 0 255 0
-13.258000 8.026000 15.807000 0 255 0
-12.150000 8.018300 3.070000 0 255 255
-12.752500 7.425000 2.422500 0 255 0
-12.669000 8.230000 2.900000 0 255 255
-12.611300 6.032500 15.963800 0 255 0
-12.554200 6.025800 16.064199 0 255 0
-12.880000 7.630000 20.410000 0 255 0
-12.390000 7.450000 12.890000 255 0 0
-12.395000 7.370000 16.155001 255 0 0
-12.411800 7.188200 3.107400 255 0 0
-12.313300 6.590000 21.350000 0 255 0
-12.715700 7.024300 2.215700 0 255 255
-12.505000 7.830000 17.500000 0 255 0
-11.312700 7.177300 19.868200 0 255 0
-11.550000 7.480000 1.770000 0 255 255
-12.125700 8.387100 14.612900 0 255 0
-11.260000 7.920000 2.670000 0 255 255
-11.313000 7.688000 2.763000 0 255 255
-11.396700 8.033300 3.018300 0 255 255
-12.340000 7.480000 9.630000 255 0 0
-12.358200 7.164100 3.061800 255 0 0
-11.430000 6.590000 23.610001 0 255 0
-12.452000 8.468500 4.409000 0 255 255
-13.145000 6.825000 20.090000 0 255 0
-12.904800 8.146600 4.865500 0 255 255
-13.298000 7.292000 18.256001 0 255 0
-12.900000 6.525000 13.155000 0 255 0
-13.010000 7.070000 27.180000 0 255 0
-12.968900 6.976700 16.112200 0 255 0
-13.006700 6.283300 13.010000 0 255 0
-12.490000 7.320000 3.570000 255 0 0
-11.925000 8.285000 3.065000 0 255 255
-12.260000 7.420000 28.920000 0 255 0
-12.250000 7.840000 2.810000 0 255 255
-12.263300 7.286700 19.000000 255 0 0
-12.258600 7.165700 12.720000 255 0 0
-12.246700 7.220000 15.860000 255 0 0
-12.430000 6.515000 2.060000 0 255 255
-12.430000 6.610000 21.430000 0 255 0
-13.040000 6.610000 21.240000 0 255 0
-12.160000 7.923300 20.260000 0 255 0
-11.860000 6.360000 28.620001 0 255 0
-11.553300 7.271700 2.607500 0 255 255
-12.670000 8.422500 2.252500 0 255 255
-11.880000 6.250000 28.530001 0 255 0
-11.410000 6.973700 2.547500 0 255 255
-11.322200 7.423300 2.898900 0 255 255
-12.703300 7.980000 26.066700 0 255 0
-12.470000 7.635000 28.325001 0 255 0
-12.462500 6.732500 17.112499 0 255 0
-12.505700 6.222900 13.410000 0 255 0
-13.020000 6.590000 18.959999 0 255 0
-13.005000 6.675000 12.650000 0 255 0
-13.200000 6.850000 19.219999 0 255 0
-13.220000 6.890000 16.139999 0 255 0
-12.705600 6.526900 16.646200 0 255 0
-13.305000 7.727500 18.365000 0 255 0
-13.363300 6.673300 19.020000 0 255 0
-12.310000 8.317500 19.262501 0 255 0
-13.320000 6.625000 19.170000 0 255 0
-12.510000 7.033300 1.860000 0 255 0
-12.500000 7.120000 8.350000 255 0 0
-12.515000 6.971900 18.259399 0 255 0
-12.380000 7.580000 19.110001 0 255 0
-13.095000 7.190000 20.012501 0 255 0
-11.830000 7.950000 28.030001 0 255 0
-12.166700 8.420000 2.753300 0 255 255
-11.600000 8.410000 2.300000 0 255 255
-11.590000 7.840000 14.490000 0 255 0
-12.180000 7.050000 8.980000 255 0 0
-12.150000 7.100000 12.190000 255 0 0
-11.250000 8.050000 2.570000 0 255 255
-11.220000 8.025000 2.650000 0 255 255
-11.304700 7.777300 2.760000 0 255 255
-11.073300 7.890000 3.013300 0 255 255
-11.064500 7.880000 2.848200 0 255 255
-12.500000 7.560000 19.549999 0 255 0
-12.660000 6.500000 25.620001 0 255 0
-12.746000 7.022000 9.118000 0 255 0
-13.156700 6.423300 19.056700 0 255 0
-13.161400 6.533600 12.557100 0 255 0
-13.007500 6.931700 16.005800 0 255 0
-12.220000 7.590000 20.570000 0 255 0
-12.213000 7.632000 17.205000 0 255 0
-11.650000 7.873300 14.416700 0 255 0
-12.060000 7.240000 9.880000 255 0 0
-12.040000 7.290000 13.000000 255 0 0
-12.070000 7.230000 7.920000 255 0 0
-12.080000 7.286700 11.170000 255 0 0
-12.070000 7.830000 20.160000 0 255 0
-12.050000 7.790000 17.110001 0 255 0
-11.450000 8.360000 2.606700 0 255 255
-11.356700 7.680000 2.807800 0 255 255
-11.210000 7.581700 2.810800 0 255 255
-12.650000 7.270000 29.379999 0 255 0
-11.510800 8.023300 3.115000 0 255 255
-13.110000 7.435000 15.950000 0 255 0
-13.117800 8.028900 3.705600 0 255 255
-12.560000 7.390000 2.955000 0 255 0
-12.440000 7.550000 21.920000 0 255 0
-11.963300 6.916700 23.510000 0 255 0
-13.500000 7.526700 15.970000 0 255 0
-12.756200 6.182300 13.263800 0 255 0
-13.116400 7.427900 18.353600 0 255 0
-12.710000 6.580000 16.610800 0 255 0
-12.765000 6.245000 28.565001 0 255 0
-12.790000 7.100000 18.230000 0 255 0
-12.457000 6.121000 17.511000 0 255 0
-12.355800 5.929200 17.601700 0 255 0
-11.790000 7.790000 28.570000 0 255 0
-11.260000 6.830000 23.240000 0 255 0
-12.070000 8.120000 28.165001 0 255 0
-11.997500 7.772500 20.365000 0 255 0
-12.006000 7.829000 17.113001 0 255 0
-11.775000 6.125000 18.950001 0 255 0
-11.315000 7.645000 2.595000 0 255 255
-12.730000 7.920000 25.850000 0 255 0
-11.295000 6.440000 23.615000 0 255 0
-12.310000 6.335000 24.355000 0 255 0
-12.703300 8.333300 5.203300 0 255 255
-12.858600 8.288600 14.407100 0 255 0
-12.370000 7.200000 19.580000 255 0 0
-13.290000 7.340000 24.549999 0 255 0
-13.320000 6.800000 12.260000 0 255 0
-12.763300 7.636700 15.846700 0 255 0
-12.660000 7.300000 28.760000 0 255 0
-12.755000 8.240000 4.595000 0 255 255
-12.766700 8.376700 14.416700 0 255 0
-13.126700 7.443300 15.910000 0 255 0
-12.428000 7.213300 2.814700 255 0 0
-12.414000 7.180200 5.960900 255 0 0
-13.000000 8.070000 20.459999 0 255 0
-13.349100 6.879100 16.002701 0 255 0
-13.365700 6.734300 19.101400 0 255 0
-11.420000 8.370000 2.310000 0 255 255
-11.380000 7.170000 28.340000 0 255 0
-13.070000 6.470000 27.709999 0 255 0
-12.360000 7.380000 11.900000 255 0 0
-12.350000 7.460000 5.404300 255 0 0
-12.465000 8.283600 3.012100 0 255 255
-12.090000 7.650000 3.430000 0 255 255
-12.166700 8.176700 19.246700 0 255 0
-11.115300 8.025300 2.812700 0 255 255
-11.212600 8.076500 2.962600 0 255 255
-12.940000 6.420000 13.240000 0 255 0
-11.980000 7.200000 24.070000 0 255 0
-12.480000 6.290000 28.570000 0 255 0
-11.256700 8.086700 3.143300 0 255 255
-11.370000 8.100000 2.250000 0 255 255
-11.370000 7.790000 21.389999 0 255 0
-13.070000 7.595000 15.765000 0 255 0
-12.510000 7.120000 19.770000 0 255 0
-12.513300 6.870000 22.763300 0 255 0
-12.290000 7.600000 3.390000 0 255 0
-12.880000 7.160000 29.160000 0 255 0
-12.446700 7.970000 21.090000 0 255 0
-12.310000 7.190000 7.050000 255 0 0
-12.380000 7.250000 17.030001 255 0 0
-12.910000 7.095000 27.254999 0 255 0
-12.910500 6.680500 12.601500 0 255 0
-12.490000 7.210000 27.260000 0 255 0
-12.510000 7.595000 17.455000 0 255 0
-11.850000 7.920000 20.355000 0 255 0
-11.855800 7.887500 17.223301 0 255 0
-11.820000 7.780000 17.219999 0 255 0
-11.460000 7.100000 27.379999 0 255 0
-11.490000 6.740000 19.620001 0 255 0
-11.530000 7.165000 1.995000 0 255 255
-12.000000 7.400000 19.830000 0 255 0
-12.840000 7.430000 19.809999 0 255 0
-12.960000 7.400000 19.879999 0 255 0
-13.260000 6.740000 20.260000 0 255 0
-12.690000 6.620000 26.799999 0 255 0
-13.300000 7.800000 15.620000 0 255 0
-12.510000 7.000000 29.180000 0 255 0
-12.490000 7.170000 16.510000 255 0 0
-12.498900 7.126700 19.654400 0 255 0
-12.920000 6.980000 19.174999 0 255 0
-12.450000 7.300000 26.540001 0 255 0
-12.450000 7.590000 19.790001 0 255 0
-12.290000 7.430000 3.730000 255 0 0
-12.290000 7.470000 13.270000 255 0 0
-12.830000 6.970000 27.059999 0 255 0
-12.110000 8.246700 20.963301 0 255 0
-12.120000 8.120000 14.470000 0 255 0
-13.110000 7.040000 2.190000 0 255 255
-13.102000 7.180000 18.405300 0 255 0
-12.490000 7.300000 4.030000 255 0 0
-12.830000 6.880000 1.680000 0 255 255
-13.100000 6.970000 17.469999 0 255 0
-12.380000 6.950000 28.620001 0 255 0
-12.375000 6.877500 25.365000 0 255 0
-13.057500 8.238300 14.510800 0 255 0
-13.015000 6.885000 20.004999 0 255 0
-12.875000 7.995000 14.405000 0 255 0
-12.866700 7.793300 2.113300 0 255 255
-12.420000 8.170000 26.270000 0 255 0
-12.900000 6.570000 12.330000 0 255 0
-13.160000 7.843300 18.216700 0 255 0
-12.996700 8.046700 20.263300 0 255 0
-12.853300 7.890000 20.103300 0 255 0
-12.697500 6.775000 1.757500 0 255 255
-12.395000 7.335000 19.700001 0 255 0
-11.902500 7.576200 20.468800 0 255 0
-11.440000 7.930000 21.465000 0 255 0
-12.292500 6.125000 4.015000 0 255 255
-12.360000 6.990000 28.660000 0 255 0
-11.410000 8.275000 2.800000 0 255 255
-11.400000 6.900000 19.530001 0 255 0
-13.030000 7.040000 20.030001 0 255 0
-11.420000 7.325000 1.815000 0 255 255
-12.590000 8.520000 2.660000 0 255 255
-12.620000 8.240000 21.225000 0 255 0
-12.090000 6.310000 28.240000 0 255 0
-12.113300 6.386700 25.003300 0 255 0
-12.115000 6.635000 21.504999 0 255 0
-12.100000 6.350000 28.290001 0 255 0
-11.355000 6.935000 23.415001 0 255 0
-11.410000 6.824000 23.718000 0 255 0
-11.417500 6.940000 19.715000 0 255 0
-12.960000 6.878300 12.420000 0 255 0
-12.947500 6.822500 9.142500 0 255 0
-12.418600 7.383300 6.508600 0 255 0
-12.422500 7.430000 3.352500 255 0 0
-12.404400 7.470000 3.507800 255 0 0
-12.400700 7.419300 6.657000 255 0 0
-12.415000 7.385000 9.803300 255 0 0
-13.020000 7.500000 24.510000 0 255 0
-12.395700 7.131400 4.054300 255 0 0
-12.415000 6.537500 17.527500 0 255 0
-12.064000 7.727000 17.459000 0 255 0
-12.446000 7.234700 4.561900 0 255 0
-12.460000 7.310000 10.853300 255 0 0
-12.453600 7.279800 7.712100 255 0 0
-13.180000 8.130000 2.310000 0 255 255
-13.150000 7.370000 19.129999 0 255 0
-12.530000 6.530000 21.930000 0 255 0
-13.540000 7.430000 2.270000 0 255 255
-12.890000 6.190000 16.730000 0 255 0
-12.910700 6.424000 13.203300 0 255 0
-12.952000 7.836000 18.364000 0 255 0
-12.970000 6.680000 16.195000 0 255 0
-13.358300 6.883300 19.110001 0 255 0
-13.130000 6.600000 18.850000 0 255 0
-13.126700 6.433300 19.163300 0 255 0
-12.818000 6.230000 18.566000 0 255 0
-11.900000 7.890000 2.790000 0 255 255
-12.800000 7.050000 17.219999 0 255 0
-13.055000 6.880000 2.150000 0 255 255
-11.360000 6.816700 23.546700 0 255 0
-12.360000 6.920000 29.059999 0 255 0
-13.420000 7.380000 2.170000 0 255 255
-12.443300 7.276700 13.300000 255 0 0
-12.443600 7.237900 10.157900 255 0 0
-12.470000 7.380000 19.620001 0 255 0
-12.365000 7.180000 13.255000 255 0 0
-12.040000 7.210000 22.860001 0 255 0
-12.080000 7.338000 3.322000 255 0 0
-12.080000 7.370000 6.460000 255 0 0
-12.055000 7.175000 19.514999 255 0 0
-12.410000 7.680000 19.621700 0 255 0
-12.300000 7.630000 26.620001 0 255 0
-13.300000 6.880000 17.629999 0 255 0
-12.310000 7.840000 17.270000 0 255 0
-12.313300 7.776700 20.403299 0 255 0
-12.700000 6.290000 13.500000 0 255 0
-12.717700 6.430000 16.665400 0 255 0
-12.700000 8.040000 2.530000 0 255 255
-12.713300 6.746700 21.309999 0 255 0
-12.705000 6.584300 18.410700 0 255 0
-12.460000 8.120000 26.059999 0 255 0
-11.370000 7.260000 26.940001 0 255 0
-12.966000 6.732000 12.218000 0 255 0
-12.650000 8.280000 2.365000 0 255 255
-12.563300 6.086700 2.106700 0 255 255
-12.530000 7.950000 26.080000 0 255 0
-12.590000 7.980000 22.230000 0 255 0
-13.030000 7.385000 2.310000 0 255 255
-13.006000 7.334000 2.454000 0 255 255
-13.008500 7.930300 15.905600 0 255 0
-13.078000 7.772000 18.212000 0 255 0
-12.255000 6.080000 19.315001 0 255 0
-12.269100 6.030900 16.155500 0 255 0
-13.280000 6.870000 20.150000 0 255 0
-12.380000 8.420000 5.010000 0 255 255
-12.360000 7.985000 27.055000 0 255 0
-12.357500 7.095000 7.765000 255 0 0
-12.360000 7.135200 10.910000 255 0 0
-12.351700 7.026700 17.406700 255 0 0
-13.100000 6.930000 19.750000 0 255 0
-11.860000 7.490000 19.969999 0 255 0
-12.380000 7.220000 9.770000 255 0 0
-12.350000 7.160000 6.590000 255 0 0
-12.370000 7.372000 19.672001 0 255 0
-11.365000 8.240000 3.070000 0 255 255
-11.315000 7.275000 19.820000 0 255 0
-11.680000 6.490000 22.969999 0 255 0
-11.507500 6.888300 1.917500 0 255 255
-11.510000 6.900000 1.680000 0 255 255
-11.350000 6.620000 23.240000 0 255 0
-11.360000 6.800000 19.860001 0 255 0
-11.070000 7.660000 2.290000 0 255 255
-11.763200 8.231800 14.260000 0 255 0
-11.750000 8.200000 23.930000 0 255 0
-11.165600 7.978900 2.910000 0 255 255
-12.330000 7.830000 26.629999 0 255 0
-11.355000 6.925000 2.260000 0 255 255
-11.353300 7.333300 28.356701 0 255 0
-11.330000 8.230000 2.470000 0 255 255
-12.370000 7.785000 28.150000 0 255 0
-11.950000 8.077500 2.757500 0 255 255
-13.157500 8.067500 2.205000 0 255 255
-12.913300 7.030000 16.306700 0 255 0
-12.763900 8.134800 2.657000 0 255 255
-12.815000 8.178300 2.156700 0 255 255
-11.140000 7.000000 2.410000 0 255 255
-11.963300 8.087800 2.813300 0 255 255
-11.980000 6.420000 19.870001 0 255 0
-12.917900 8.391400 2.251800 0 255 255
-12.800000 7.380000 15.540000 0 255 0
-11.150000 6.810000 27.740000 0 255 0
-12.880000 7.630000 18.500000 0 255 0
-12.955000 6.750000 12.165000 0 255 0
-12.449600 7.377800 3.813300 255 0 0
-12.070000 8.076700 2.553300 0 255 255
-12.215000 8.515000 14.725000 0 255 0
-12.440000 7.191200 4.158800 255 0 0
-12.795000 8.237500 4.915000 0 255 255
-13.330000 7.300000 22.830000 0 255 0
-12.293300 7.823300 3.310000 0 255 255
-12.300000 7.190000 20.030001 255 0 0
-12.290000 7.220000 16.760000 255 0 0
-12.810000 6.170000 18.620001 0 255 0
-13.046700 7.586700 19.610001 0 255 0
-13.055000 7.635000 22.850000 0 255 0
-12.808600 8.234300 14.270000 0 255 0
-12.360000 7.490000 16.180000 0 255 0
-12.370000 7.210000 12.550000 255 0 0
-12.374600 7.173100 9.407700 255 0 0
-12.380000 7.520000 19.299999 0 255 0
-12.800000 7.220000 26.850000 0 255 0
-12.315000 7.510000 4.455000 255 0 0
-12.310000 7.475000 7.606700 255 0 0
-12.560000 6.940000 2.050000 0 255 255
-12.300000 7.300000 15.170000 255 0 0
-12.320000 7.490000 27.830000 0 255 0
-12.313300 7.166700 8.850000 255 0 0
-12.050000 8.330000 19.330000 0 255 0
-12.055700 8.088600 2.754300 0 255 255
-12.180000 6.980000 21.830000 255 0 0
-11.356200 8.181300 2.707500 0 255 255
-11.213300 7.376700 2.003300 0 255 255
-12.430000 6.400000 28.639999 0 255 0
-12.397700 7.144200 5.558100 255 0 0
-12.550000 6.150000 16.150000 0 255 0
-11.320000 6.770000 23.639999 0 255 0
-11.400000 7.930000 22.930000 0 255 0
-12.400000 6.620000 29.020000 0 255 0
-12.403300 6.380000 19.216700 0 255 0
-11.380000 8.010000 2.180000 0 255 255
-12.565000 6.071700 13.151700 0 255 0
-11.368000 7.236000 20.011999 0 255 0
-12.490000 7.370000 7.420000 255 0 0
-12.490000 7.560000 28.530001 0 255 0
-12.510000 7.500000 22.020000 0 255 0
-12.350000 7.370000 8.090000 255 0 0
-12.400000 7.435000 18.195000 0 255 0
-12.429000 7.214800 5.557600 0 255 0
-12.403700 7.180000 8.810200 255 0 0
-12.510000 6.975000 1.950000 0 255 255
-11.980000 7.090000 19.820000 0 255 0
-11.960000 7.028800 1.765300 0 255 0
-13.240000 6.990000 24.600000 0 255 0
-12.770000 8.133300 2.266700 0 255 255
-12.850000 7.415000 1.900000 0 255 255
-12.423300 7.163300 11.160000 255 0 0
-12.420000 7.290000 4.870000 255 0 0
-12.425000 7.235000 8.005000 255 0 0
-12.311800 7.475000 4.909700 255 0 0
-12.340000 8.375000 14.825000 0 255 0
-12.858000 7.924000 18.316000 0 255 0
-12.590000 7.670000 17.459999 0 255 0
-12.497500 7.175000 17.317499 255 0 0
-12.130000 6.670000 2.000000 0 255 255
-11.680000 7.280000 20.629999 0 255 0
-12.330000 6.190000 2.130000 0 255 255
-11.780000 6.210000 20.940001 0 255 0
-13.140000 7.850000 2.280000 0 255 255
-12.556700 8.179300 2.725300 0 255 255
-12.547500 8.035000 5.857500 0 255 255
-12.493300 6.683300 17.469999 0 255 0
-13.120000 7.340000 18.500000 0 255 0
-11.450000 7.060000 28.270000 0 255 0
-13.110000 6.540000 2.190000 0 255 255
-12.345000 7.420000 10.855000 255 0 0
-12.350000 7.510000 4.560000 255 0 0
-12.955000 7.765000 15.995000 0 255 0
-12.403300 8.076700 2.750000 0 255 255
-12.495000 7.180000 19.000000 255 0 0
-12.300000 7.510000 5.700000 255 0 0
-12.305800 7.464200 8.965000 255 0 0
-13.180000 7.290000 20.040001 0 255 0
-12.368000 7.164000 8.652000 255 0 0
-12.559200 7.932300 2.365400 0 255 255
-12.915000 8.030000 2.305000 0 255 255
-13.180000 7.240000 2.210000 0 255 255
-12.445000 7.360000 14.615000 255 0 0
-12.445700 7.233100 5.160400 0 255 0
-12.451300 7.277700 8.310300 255 0 0
-12.470000 7.340000 11.440000 255 0 0
-13.107500 8.130000 2.157300 0 255 255
-12.910000 8.083300 2.203300 0 255 255
-12.665000 8.375800 2.607500 0 255 255
-13.300000 8.050000 2.200000 0 255 255
-12.960000 7.920000 2.180000 0 255 255
-12.615000 7.877500 2.055000 0 255 255
-13.260000 8.072000 2.116000 0 255 255
-12.390000 7.710000 28.309999 0 255 0
-12.640000 7.800000 2.140000 0 255 255
-12.640000 6.510000 23.629999 0 255 0
-12.803300 6.810000 1.896700 0 255 255
-12.720000 6.850000 1.860000 0 255 255
-12.213300 7.093300 13.605000 255 0 0
-12.960000 7.020000 27.240000 0 255 0
-11.778000 7.976000 2.906000 0 255 255
-11.956300 7.380000 2.517500 255 0 0
-12.490000 8.140000 14.080000 0 255 0
-13.490000 7.000000 16.260000 0 255 0
-12.955000 7.385000 22.844999 0 255 0
-12.970000 7.326700 19.613300 0 255 0
-12.370000 7.330000 18.860001 255 0 0
-12.360000 7.900000 3.060000 0 255 255
-12.340000 7.470000 28.360001 0 255 0
-11.850000 6.880000 22.815001 0 255 0
-12.265000 7.395000 6.120000 255 0 0
-12.255000 7.470000 12.405000 255 0 0
-12.257800 7.436700 9.353300 255 0 0
-12.801900 7.424400 2.415600 0 255 0
