-14.705000 -8.475000 -1.101700 0 255 255
-16.014000 -7.866000 22.066000 0 255 0
-15.303300 -7.880000 18.203300 0 255 0
-15.710000 -8.310000 22.440001 0 255 0
-15.760000 -8.510000 18.879999 255 0 0
-15.755000 -8.420000 12.365000 255 0 0
-15.758000 -8.307300 5.807000 255 0 0
-15.766000 -8.350000 2.656000 255 0 0
-15.766700 -8.563300 15.710000 255 0 0
-14.973800 -8.274600 -0.651700 0 255 255
-15.805000 -7.910000 22.295000 0 255 0
-16.360001 -9.270000 17.639999 0 255 0
-16.370001 -9.440000 20.809999 0 255 0
-15.114000 -8.124000 -1.632000 0 255 255
-15.120000 -8.940000 18.799999 0 255 0
-14.653300 -8.320000 -1.343300 0 255 255
-16.221399 -9.268600 17.467100 0 255 0
-15.155000 -8.435000 -0.480000 0 255 255
-15.180000 -8.310000 18.469999 0 255 0
-15.113300 -8.521700 -1.305000 0 255 255
-15.100000 -8.205000 17.665001 0 255 0
-14.830000 -8.140000 18.730000 0 255 0
-16.424999 -9.320000 9.195000 0 255 0
-16.420000 -9.130000 22.280001 0 255 0
-14.818000 -8.366000 -1.292000 0 255 255
-15.620000 -8.265000 11.245000 255 0 0
-15.569200 -8.566200 -0.743100 255 0 0
-15.445000 -7.935000 19.775000 0 255 0
-15.090000 -8.950000 -1.290000 0 255 255
-15.166700 -8.778300 18.503300 0 255 0
-15.117000 -8.822000 18.507999 0 255 0
-16.009199 -9.622500 14.950800 0 255 0
-15.960000 -9.378300 15.061700 0 255 0
-16.920000 -8.231700 15.760000 0 255 0
-15.820000 -8.430000 21.920000 0 255 0
-15.812500 -8.330000 15.552500 255 0 0
-15.880000 -7.770000 -1.650000 0 255 255
-15.865000 -7.525600 14.819400 0 255 0
-16.230000 -8.390000 22.570000 0 255 0
-16.660000 -9.410000 14.260000 0 255 0
-15.514300 -9.368600 19.205700 0 255 0
-15.864200 -7.622400 -1.340000 0 255 255
-15.868000 -7.382000 14.877000 0 255 0
-16.814301 -8.368600 18.558599 0 255 0
-16.360001 -8.061300 18.061199 0 255 0
-15.365000 -8.025000 -1.540000 0 255 255
-16.889999 -8.530000 14.570000 0 255 0
-16.271400 -8.322900 -1.290000 0 255 255
-15.119500 -8.467900 -0.593200 0 255 255
-14.880000 -7.960000 18.379999 0 255 0
-16.313299 -9.220000 -1.603300 0 255 255
-15.230000 -9.340000 8.490000 0 255 0
-16.450001 -8.350000 -1.000000 0 255 255
-16.456699 -8.480000 18.570000 0 255 0
-16.459999 -8.365000 22.139999 0 255 0
-16.250000 -8.030000 -1.810000 0 255 255
-16.264299 -8.528600 17.155701 0 255 0
-16.295000 -7.890000 -0.835000 0 255 255
-16.290001 -8.510000 14.570000 0 255 0
-16.059999 -8.123300 -1.250000 0 255 255
-16.930000 -8.040000 16.840000 0 255 0
-16.230000 -7.560000 -1.485000 0 255 255
-15.200000 -8.475000 -1.585000 0 255 255
-16.350000 -7.850000 18.650000 0 255 0
-15.320000 -7.950000 18.180000 0 255 0
-16.406000 -7.966700 -0.986700 0 255 255
-14.820000 -8.020000 18.190001 0 255 0
-16.180000 -7.710000 18.549999 0 255 0
-14.958000 -9.376000 -1.284000 0 255 255
-15.800000 -8.325000 17.305000 255 0 0
-15.813300 -8.275000 14.250000 255 0 0
-15.460000 -8.280000 18.330000 0 255 0
-15.407100 -8.916900 8.263500 0 255 0
-15.908000 -9.618500 9.260000 0 255 0
-15.880000 -8.065000 -0.997500 0 255 255
-15.857500 -9.467500 9.260000 0 255 0
-15.960000 -8.323800 -1.155000 0 255 255
-15.970000 -8.090000 14.750000 0 255 0
-16.410000 -8.370000 12.630000 0 255 0
-16.403299 -8.870000 19.773300 0 255 0
-15.911800 -8.767600 8.914100 0 255 0
-15.900000 -8.620000 18.510000 0 255 0
-15.903300 -8.460000 21.996700 255 0 0
-15.907500 -8.665000 8.965000 0 255 0
-15.958000 -8.612000 18.502001 0 255 0
-15.960000 -8.580000 21.660000 0 255 0
-15.666300 -8.380000 11.106300 255 0 0
-15.100000 -8.380000 -1.710000 0 255 255
-16.808599 -8.272100 12.554300 0 255 0
-14.560000 -8.577800 -1.531100 0 255 255
-14.760000 -9.025000 -1.250000 0 255 255
-14.760600 -8.775600 14.667100 0 255 0
-16.509300 -8.574300 16.054300 0 255 0
-16.040001 -8.430000 19.510000 0 255 0
-16.080000 -8.460000 16.260000 0 255 0
-16.065001 -8.370000 22.760000 0 255 0
-15.657100 -9.365700 19.257099 0 255 0
-16.462200 -7.565600 18.562201 0 255 0
-16.816099 -8.917200 11.906100 0 255 0
-15.377500 -7.885000 -1.602500 0 255 255
-16.680000 -8.480000 12.340000 0 255 0
-16.207001 -9.118700 9.210000 0 255 0
-14.855000 -8.320000 -1.260000 0 255 255
-15.680000 -8.800000 -0.040000 0 255 255
-14.747500 -8.135000 -0.997500 0 255 255
-15.050000 -7.550000 -1.410000 0 255 255
-16.700001 -8.940000 11.820000 0 255 0
-15.670000 -8.650000 4.880000 255 0 0
-15.670000 -8.720000 1.700000 0 255 0
-16.770000 -8.890000 11.960000 0 255 0
-16.313999 -8.012000 19.804001 0 255 0
-16.209999 -8.630000 22.020000 0 255 0
-16.466700 -8.530000 16.066700 0 255 0
-16.469999 -8.430000 22.570000 0 255 0
-15.625000 -7.900000 -1.405000 0 255 255
-15.610000 -7.800000 18.139999 0 255 0
-15.463300 -8.021700 -1.331700 0 255 255
-15.450000 -7.726700 18.003300 0 255 0
-15.400000 -8.080000 22.719999 0 255 0
-15.880000 -7.370000 18.780001 0 255 0
-15.275000 -8.952500 -1.442500 0 255 255
-15.965100 -9.464000 7.707900 0 255 0
-15.650000 -8.368300 3.300000 255 0 0
-15.662700 -8.324100 6.558600 255 0 0
-15.860000 -7.990000 22.600000 0 255 0
-15.880000 -8.000000 19.469999 0 255 0
-15.850000 -8.283300 3.666700 255 0 0
-15.850000 -8.236700 6.813300 0 255 0
-15.010000 -8.710000 -1.545000 0 255 255
-15.860000 -9.400000 14.930000 0 255 0
-15.859300 -9.516900 8.604800 0 255 0
-15.500000 -9.285000 8.475000 0 255 0
-15.459200 -8.123300 -1.086700 0 255 255
-15.800000 -8.455000 19.959999 255 0 0
-15.810000 -8.412500 16.805000 255 0 0
-15.810300 -8.322600 11.060000 255 0 0
-15.812500 -8.364500 14.206000 255 0 0
-15.797000 -8.268000 7.711000 0 255 0
-15.176000 -8.976000 8.404000 0 255 0
-15.490000 -7.490000 20.020000 0 255 0
-15.462000 -8.173000 -1.138000 0 255 255
-15.463300 -8.806700 8.256700 0 255 0
-16.905001 -8.525000 18.652500 0 255 0
-16.908600 -8.620000 12.154300 0 255 0
-15.530000 -8.710000 -1.130000 0 255 255
-15.516700 -8.566700 2.263300 255 0 0
-16.763800 -8.162500 12.457500 0 255 0
-15.872100 -8.463600 2.907100 255 0 0
-15.874900 -8.513500 -0.239700 0 255 0
-15.865000 -8.360800 9.407500 255 0 0
-15.859200 -8.323800 12.412300 255 0 0
-16.129999 -8.830000 9.530000 0 255 0
-16.129999 -8.750000 18.950001 0 255 0
-16.764999 -7.965000 12.642500 0 255 0
-16.768801 -9.063800 14.413800 0 255 0
-16.420000 -8.550000 -1.260000 0 255 255
-16.416700 -8.418300 14.640000 0 255 0
-15.905000 -8.925000 8.910000 0 255 0
-15.890000 -8.850000 -0.960000 0 255 255
-15.826700 -7.375000 14.925000 0 255 0
-14.906000 -9.014000 18.820000 0 255 0
-16.004999 -8.275000 11.510000 0 255 0
-16.017099 -7.970000 18.054300 0 255 0
-14.918800 -8.424100 -0.840000 0 255 255
-14.908900 -8.920000 18.959999 0 255 0
-15.420000 -7.634000 17.372000 0 255 0
-15.970000 -7.884000 -0.850000 0 255 255
-15.960700 -7.373300 18.758699 0 255 0
-16.766701 -8.560000 12.306700 0 255 0
-16.040001 -8.720000 14.660000 0 255 0
-15.797100 -7.867100 -1.841400 0 255 255
-15.752000 -8.606000 8.158000 255 0 0
-15.166900 -9.023300 8.307500 0 255 0
-16.661100 -8.666700 16.112200 0 255 0
-16.017500 -7.912500 15.956300 0 255 0
-15.963300 -8.416700 15.560000 255 0 0
-15.940000 -8.390000 18.719999 255 0 0
-15.970000 -8.660000 12.140000 0 255 0
-15.952500 -8.512500 22.067499 255 0 0
-16.004999 -8.335000 18.110001 0 255 0
-15.907300 -7.762700 -1.929100 0 255 255
-15.910000 -7.540000 20.309999 0 255 0
-15.750000 -7.910000 17.139999 0 255 0
-16.010000 -9.550000 20.100000 0 255 0
-15.322500 -7.557500 20.262501 0 255 0
-15.150000 -9.370000 8.260000 0 255 0
-15.711900 -7.868400 -1.134200 0 255 255
-16.745001 -8.405000 -1.240000 0 255 255
-16.760000 -8.340000 18.129999 0 255 0
-16.264999 -8.676000 9.261000 0 255 0
-15.360000 -7.620000 14.740000 0 255 0
-15.550000 -8.460000 22.600000 0 255 0
-15.562000 -8.518000 19.458000 0 255 0
-15.903500 -8.368200 10.564100 255 0 0
-15.897500 -8.466700 4.262500 255 0 0
-15.920000 -8.403300 13.713300 255 0 0
-15.912000 -8.510000 7.402000 255 0 0
-15.890000 -8.610000 1.080000 255 0 0
-15.516700 -8.680000 -1.486700 0 255 255
-15.490000 -8.530000 14.720000 0 255 0
-15.708900 -8.571100 18.207800 0 255 0
-15.707500 -8.362500 4.775000 255 0 0
-15.713100 -8.510800 14.963100 255 0 0
-15.713400 -8.323100 1.508200 255 0 0
-15.560000 -7.490000 17.379999 0 255 0
-15.574300 -8.461400 5.108600 255 0 0
-15.558100 -8.523200 1.959000 255 0 0
-15.603600 -8.312700 -1.141800 0 255 255
-15.605200 -8.418800 5.360500 255 0 0
-15.608400 -8.365100 2.210700 255 0 0
-15.616700 -8.516700 7.961100 255 0 0
-15.600000 -8.570000 11.023300 255 0 0
-15.600200 -8.471100 4.710200 255 0 0
-15.620000 -8.150000 -1.480000 0 255 255
-15.620000 -8.220000 1.750000 0 255 0
-15.620000 -8.650000 5.240000 255 0 0
-15.165000 -8.215000 -1.401700 0 255 255
-15.164700 -9.373300 8.364700 0 255 0
-15.660000 -9.014400 8.261600 0 255 0
-15.815000 -7.723300 -1.540800 0 255 255
-16.110001 -8.918300 8.922500 0 255 0
-15.800000 -7.660000 22.830000 0 255 0
-15.567200 -8.569500 1.008200 0 255 0
-16.105700 -7.818600 -1.688600 0 255 255
-16.510799 -9.373800 14.864200 0 255 0
-16.556499 -9.267600 15.055900 0 255 0
-16.510799 -9.167700 15.105400 0 255 0
-14.860900 -8.769800 14.661300 0 255 0
-15.870000 -8.410000 8.220000 255 0 0
-15.877000 -8.510000 1.711000 255 0 0
-15.862000 -8.370000 11.459000 255 0 0
-15.856000 -8.320000 15.160000 255 0 0
-15.075000 -8.575000 -0.850000 0 255 255
-15.053300 -8.270000 18.953300 0 255 0
-15.053800 -8.310000 15.706300 0 255 0
-16.120001 -7.390000 19.559999 0 255 0
-16.650000 -9.210000 19.802500 0 255 0
-14.980000 -8.115000 18.049999 0 255 0
-16.667500 -7.826300 -1.342500 0 255 255
-15.415000 -7.620000 17.416300 0 255 0
-15.870000 -8.560000 18.410000 255 0 0
-15.860000 -8.520000 21.320000 255 0 0
-15.760600 -7.366200 15.205000 0 255 0
-15.396700 -8.623300 22.719999 0 255 0
-15.800000 -9.280000 8.480000 0 255 0
-15.365000 -7.757500 18.145000 0 255 0
-15.508200 -7.767600 -1.498800 0 255 255
-15.656700 -7.718300 -1.895000 0 255 255
-14.900000 -7.940000 18.389999 0 255 0
-15.990000 -8.500000 12.450000 255 0 0
-15.422500 -7.522500 20.142500 0 255 0
-16.166700 -8.060000 -1.533300 0 255 255
-15.951800 -9.525500 7.856400 0 255 0
-16.299999 -8.550000 -1.110000 0 255 255
-16.315001 -8.440000 14.700000 0 255 0
-15.220000 -8.310000 18.080000 0 255 0
-15.220000 -8.416700 -0.896700 0 255 255
-15.960000 -7.826000 -1.340000 0 255 255
-15.940000 -7.570000 14.940000 0 255 0
-15.480000 -7.680000 -0.970000 0 255 255
-15.608000 -8.460000 19.422001 0 255 0
-15.573300 -8.416700 6.308300 255 0 0
-15.563700 -8.338800 0.008800 0 255 0
-15.563300 -8.171700 22.511700 0 255 0
-14.850000 -8.120000 17.770000 0 255 0
-15.550000 -8.260000 -1.606700 0 255 255
-15.570000 -8.376700 4.713300 255 0 0
-15.563000 -8.420400 1.454700 0 255 0
-15.590000 -8.540000 -1.200000 0 255 255
-15.625000 -8.610000 5.325000 255 0 0
-15.600500 -8.576700 2.159300 255 0 0
-15.596700 -8.473300 -0.043300 255 0 0
-15.607500 -8.565000 6.262500 255 0 0
-15.601300 -8.523100 3.110000 255 0 0
-15.650000 -8.590000 18.520000 0 255 0
-15.655000 -8.335000 9.417500 255 0 0
-15.651200 -8.362000 6.256000 255 0 0
-15.960500 -9.320200 7.668000 0 255 0
-15.810000 -8.230000 4.470000 255 0 0
-15.803300 -8.418900 17.106701 255 0 0
-15.810500 -8.318900 10.755800 255 0 0
-15.806400 -8.364500 13.913600 255 0 0
-15.804400 -8.282500 7.608700 0 255 0
-15.405000 -9.174200 8.405000 0 255 0
-16.217699 -7.873800 -0.749200 0 255 255
-16.257999 -9.373000 9.307000 0 255 0
-16.910000 -8.660000 17.889999 0 255 0
-16.889999 -8.627500 14.655000 0 255 0
-15.730000 -8.300000 -1.090000 0 255 255
-15.700000 -8.550000 14.410000 255 0 0
-15.720000 -8.280000 8.660000 255 0 0
-15.690000 -8.230000 5.430000 255 0 0
-15.707500 -8.357500 2.157500 255 0 0
-15.708800 -8.421300 17.653799 255 0 0
-15.712100 -8.522900 11.167900 255 0 0
-16.400000 -7.910000 18.020000 0 255 0
-16.317499 -8.210000 -1.130000 0 255 255
-16.702801 -7.921100 16.258900 0 255 0
-15.256200 -7.866300 14.702500 0 255 0
-16.639999 -7.700000 18.730000 0 255 0
-16.206400 -8.964500 9.206400 0 255 0
-15.860000 -8.420000 21.299999 255 0 0
-15.850000 -8.590000 11.910000 255 0 0
-15.872700 -8.609100 8.660900 255 0 0
-15.850000 -8.470000 18.260000 255 0 0
-14.630000 -8.215000 -1.160000 0 255 255
-15.815700 -7.324300 -1.354300 0 255 255
-16.760000 -8.780000 17.355000 0 255 0
-16.758301 -8.811700 14.201700 0 255 0
-15.300000 -9.520000 8.420000 0 255 0
-16.290001 -7.710000 16.059999 0 255 0
-16.375000 -7.580000 16.215000 0 255 0
-16.451401 -8.564300 -1.550000 0 255 255
-15.905000 -8.570000 16.395000 255 0 0
-15.171800 -8.770000 -1.143600 0 255 255
-16.870001 -8.260000 18.219999 0 255 0
-16.870001 -8.720000 17.410000 0 255 0
-16.865000 -8.772500 14.257500 0 255 0
-15.175000 -7.590000 -1.550000 0 255 255
-15.668900 -7.882200 -0.742200 0 255 255
-16.980000 -8.450000 12.190000 0 255 0
-15.770000 -8.580000 6.115000 255 0 0
-15.780000 -8.620000 15.820000 255 0 0
-15.763300 -8.726700 22.313299 0 255 0
-15.740000 -8.650000 12.670000 255 0 0
-16.165001 -7.522500 18.307501 0 255 0
-14.970000 -8.380000 19.240000 0 255 0
-16.012501 -8.070000 -1.352500 0 255 255
-14.830000 -8.560000 18.010000 0 255 0
-15.413300 -7.820000 21.606701 0 255 0
-15.400000 -8.260000 -0.560000 0 255 255
-16.396700 -8.910000 9.166700 0 255 0
-15.795000 -8.605000 8.220000 255 0 0
-15.670000 -8.770000 8.580000 0 255 0
-15.645000 -8.410000 5.345000 255 0 0
-15.640000 -8.450000 1.380000 255 0 0
-15.655000 -8.415000 4.610000 255 0 0
-15.110000 -7.980000 19.209999 0 255 0
-15.106000 -8.276000 -1.544000 0 255 255
-15.200000 -8.253300 -1.430000 0 255 255
-15.590000 -8.630000 5.000000 255 0 0
-15.599500 -8.576800 1.857600 255 0 0
-15.570000 -8.560000 10.280000 255 0 0
-15.552600 -8.520200 0.709900 0 255 0
-15.566700 -8.469600 3.957000 0 255 0
-15.410000 -8.410000 -1.320000 0 255 255
-15.830000 -8.400000 -0.440000 255 0 0
-15.790000 -8.770000 22.360001 0 255 0
-15.820000 -8.612500 12.617500 255 0 0
-16.808701 -8.062500 -0.998700 0 255 255
-16.014500 -7.716000 -1.241000 0 255 255
-16.889999 -8.430000 12.880000 0 255 0
-15.910000 -9.627500 8.560000 0 255 0
-16.230000 -7.820000 -1.500000 0 255 255
-16.753300 -7.825600 -0.857200 0 255 255
-16.115000 -9.026700 -0.836700 0 255 255
-15.820000 -8.600000 4.160000 255 0 0
-15.697500 -8.370000 7.410000 255 0 0
-15.716000 -8.530000 17.304001 255 0 0
-15.708300 -8.313700 4.258800 0 255 0
-14.850000 -8.940000 -1.280000 0 255 255
-16.254999 -8.340000 18.504999 0 255 0
-15.413700 -8.515000 -0.575000 255 0 0
-16.363300 -7.573300 -1.492500 0 255 255
-15.220000 -8.220000 -0.910000 0 255 255
-15.665000 -8.625000 9.010000 255 0 0
-15.666000 -8.660000 5.854000 255 0 0
-16.750000 -8.340000 18.180000 0 255 0
-16.090000 -9.450000 15.030000 0 255 0
-15.445000 -9.110000 22.809999 0 255 0
-16.862301 -8.522300 12.059500 0 255 0
-15.690000 -8.650000 3.740000 255 0 0
-15.720000 -8.630000 0.530000 255 0 0
-15.425000 -8.667500 -0.850000 0 255 0
-15.420000 -8.120000 15.610000 0 255 0
-16.400000 -8.890000 11.930000 0 255 0
-15.148700 -8.066300 -0.727500 0 255 255
-15.200000 -8.240000 19.090000 0 255 0
-15.196000 -8.718000 -0.696000 0 255 255
-15.255000 -9.325000 8.406000 0 255 0
-15.420000 -7.940000 -0.885000 0 255 255
-14.820000 -7.990000 -1.330000 0 255 255
-15.950000 -8.435000 10.255000 255 0 0
-15.960000 -8.485000 19.719999 255 0 0
-15.965000 -8.355000 13.420000 255 0 0
-15.465000 -9.270000 19.260000 0 255 0
-15.576700 -8.381400 1.059800 0 255 0
-16.014999 -7.980000 19.540001 0 255 0
-16.809999 -7.910000 17.170000 0 255 0
-16.170000 -8.640000 19.450001 0 255 0
-16.000000 -7.324000 16.402000 0 255 0
-15.205600 -7.967800 -1.094400 0 255 255
-14.820000 -8.225000 18.055000 0 255 0
-15.930000 -8.740000 21.559999 0 255 0
-15.640000 -8.810000 -1.380000 0 255 255
-15.662500 -9.077500 8.416300 0 255 0
-15.560000 -8.910000 -1.910000 0 255 255
-16.760000 -9.140000 14.210000 0 255 0
-16.762501 -9.052500 17.465000 0 255 0
-16.108601 -8.522300 14.208600 0 255 0
-15.740000 -7.920000 17.230000 0 255 0
-15.746700 -8.603300 -0.740000 255 0 0
-16.322800 -7.735000 -1.251100 0 255 255
-16.799999 -8.670000 15.420000 0 255 0
-16.825001 -8.600000 12.340000 0 255 0
-15.869700 -8.513600 -0.093900 0 255 0
-15.872300 -8.472300 3.166200 255 0 0
-15.870000 -8.150000 21.900000 0 255 0
-15.860000 -8.358000 9.662000 255 0 0
-15.852000 -8.319000 12.159000 255 0 0
-16.270000 -8.860000 20.170000 0 255 0
-16.014999 -7.525000 18.754999 0 255 0
-16.701099 -8.512200 11.970000 0 255 0
-15.580000 -8.710000 9.200000 0 255 0
-15.661300 -8.032500 -0.988800 0 255 255
-15.662600 -8.326100 5.160200 255 0 0
-15.680000 -8.563300 14.576700 0 255 0
-15.647900 -8.357100 1.907900 255 0 0
-15.770000 -8.230000 13.790000 255 0 0
-15.770000 -8.382500 16.959999 255 0 0
-15.753300 -8.290000 10.650000 255 0 0
-16.700701 -8.772100 -1.142900 0 255 255
-16.715000 -8.630000 14.760000 0 255 0
-15.365000 -8.712500 -1.297500 0 255 255
-14.807300 -7.916400 -1.537300 0 255 255
-14.825000 -8.260000 19.705000 0 255 0
-15.648000 -8.420000 6.768000 255 0 0
-15.640000 -8.490000 3.590000 255 0 0
-14.900000 -8.023300 -1.173300 0 255 255
-16.240000 -8.510000 22.090000 0 255 0
-16.280001 -8.620000 15.590000 0 255 0
-16.280001 -7.510000 18.770000 0 255 0
-16.260000 -7.820000 -0.795000 0 255 255
-14.966700 -8.833300 -1.000000 0 255 255
-15.890000 -8.450000 12.540000 255 0 0
-15.910000 -8.360000 19.049999 255 0 0
-15.560000 -8.070000 22.430000 0 255 0
-16.162100 -8.920700 9.261400 0 255 0
-16.670000 -8.720000 14.260000 0 255 0
-16.670000 -8.630000 20.750000 0 255 0
-14.900000 -8.426700 -1.340000 0 255 255
-15.120000 -8.100000 -0.860000 0 255 255
-15.100000 -7.810000 18.120001 0 255 0
-15.900000 -8.620000 15.860000 255 0 0
-15.930000 -8.510000 22.200001 255 0 0
-16.155001 -9.262500 17.503799 0 255 0
-16.000000 -7.615000 16.504999 0 255 0
-16.320000 -9.526000 15.062000 0 255 0
-15.120000 -8.130000 15.480000 0 255 0
-15.105000 -8.260000 -1.130000 0 255 255
-15.850000 -7.570000 16.580000 0 255 0
-16.076700 -9.630000 14.956700 0 255 0
-15.630000 -7.760000 -1.390000 0 255 255
-15.300000 -9.362000 -1.544000 0 255 255
-16.755699 -8.611400 12.204300 0 255 0
-15.940000 -8.550000 15.500000 255 0 0
-15.430000 -8.850000 -0.330000 0 255 255
-15.306700 -9.320000 19.156700 0 255 0
-16.030001 -7.510000 18.809999 0 255 0
-16.860001 -8.310000 17.070000 0 255 0
-15.200000 -8.140000 -1.330000 0 255 255
-15.207500 -9.357500 8.312500 0 255 0
-15.040000 -9.400000 8.130000 0 255 0
-16.917500 -8.767500 15.817500 0 255 0
-15.657500 -8.580000 1.510000 255 0 0
-15.654800 -8.473300 7.812900 255 0 0
-15.667000 -8.416300 10.959300 255 0 0
-15.647000 -8.525000 4.656000 255 0 0
-16.889999 -7.930000 16.540001 0 255 0
-16.270000 -8.770000 22.940001 0 255 0
-15.791100 -8.285600 -0.783300 255 0 0
-15.790000 -8.510000 15.790000 255 0 0
-15.815000 -8.565000 18.965000 255 0 0
-15.801900 -8.331600 2.362500 255 0 0
-15.760000 -8.660000 -0.830000 255 0 0
-15.758000 -8.630000 2.312000 255 0 0
-15.720000 -8.950000 -1.490000 0 255 255
-15.721800 -9.111800 8.317600 0 255 0
-15.110000 -7.905000 -1.640000 0 255 255
-15.755000 -8.685000 7.565000 0 255 0
-15.764300 -8.607100 10.704300 255 0 0
-15.926700 -8.963300 -1.043300 0 255 255
-15.500000 -8.420000 22.410000 0 255 0
-15.940000 -7.960000 -1.870000 0 255 255
-16.010000 -7.320000 16.450001 0 255 0
-16.455000 -8.560000 21.215000 0 255 0
-16.003300 -7.920000 18.160000 0 255 0
-16.245001 -7.715000 -1.735000 0 255 255
-16.252501 -8.220000 17.867500 0 255 0
-15.560000 -8.980000 -1.610000 0 255 255
-15.540000 -8.210000 -1.510000 0 255 255
-15.550000 -8.505000 18.309999 0 255 0
-15.956700 -8.923300 22.213301 0 255 0
-15.451400 -8.071400 15.555700 0 255 0
-15.340000 -8.150000 15.430000 0 255 0
-15.920000 -7.470000 20.650000 0 255 0
-16.112000 -8.758000 9.010000 0 255 0
-16.745001 -7.885000 21.680000 0 255 0
-15.762500 -8.055000 -1.692500 0 255 255
-15.770000 -8.370000 17.856701 255 0 0
-15.763300 -8.273300 11.370000 255 0 0
-15.404000 -9.330700 8.557300 0 255 0
-16.126699 -8.163300 -1.136700 0 255 255
-16.420000 -8.260000 -1.230000 0 255 255
-15.580000 -8.690000 3.580000 0 255 0
-15.770000 -7.340000 17.730000 0 255 0
-16.400000 -9.210000 17.670000 0 255 0
-15.423300 -8.213300 -0.983300 0 255 255
-16.309999 -8.580000 23.379999 0 255 0
-15.790000 -9.300000 19.389999 0 255 0
-15.080000 -7.950000 14.730000 0 255 0
-15.825000 -9.315000 19.680000 0 255 0
-15.715000 -9.360000 19.750000 0 255 0
-16.645000 -7.815000 16.344999 0 255 0
-15.330000 -8.270000 -1.340000 0 255 255
-14.806700 -8.613300 -1.333300 0 255 255
-15.945000 -8.375000 16.055000 255 0 0
-15.950000 -8.420000 12.790000 255 0 0
-15.470000 -8.075000 -1.680000 0 255 255
-15.860000 -8.570000 19.500000 255 0 0
-15.860000 -8.605000 16.254999 255 0 0
-16.803301 -8.180000 16.740000 0 255 0
-16.730000 -7.830000 17.690001 0 255 0
-16.709999 -8.123300 -1.436700 0 255 255
-16.805000 -8.510000 -1.385000 0 255 255
-16.690001 -8.750000 12.190000 0 255 0
-15.770000 -9.250000 8.190000 0 255 0
-15.740000 -9.070000 22.480000 0 255 0
-15.930000 -8.620000 -0.710000 0 255 255
-15.890000 -8.485000 2.820000 255 0 0
-15.916000 -8.418000 12.366000 255 0 0
-15.903900 -8.372800 9.106700 255 0 0
-15.690000 -9.520000 8.630000 0 255 0
-15.766700 -8.073300 18.070000 0 255 0
-15.443300 -7.826700 20.066700 0 255 0
-15.517500 -7.710000 17.257500 0 255 0
-14.904000 -9.068000 -1.384000 0 255 255
-16.790001 -8.050000 16.280001 0 255 0
-16.080000 -8.720000 19.500000 0 255 0
-15.745000 -8.120000 18.020000 0 255 0
-15.680000 -9.650000 8.840000 0 255 0
-15.553300 -7.866700 -1.383300 0 255 255
-15.560000 -7.770000 18.139999 0 255 0
-15.930000 -8.550000 21.440001 255 0 0
-15.267500 -8.472500 -1.142500 0 255 255
-15.690000 -8.650000 17.040001 0 255 0
-15.720000 -8.420000 0.780000 255 0 0
-15.730000 -8.610000 13.810000 0 255 0
-15.650000 -8.475000 4.610000 255 0 0
-15.651600 -8.418900 7.755800 255 0 0
-15.920000 -8.560000 17.650000 255 0 0
-15.910000 -8.708800 14.623700 0 255 0
-16.905800 -9.117900 14.361600 0 255 0
-15.306700 -7.773300 19.813299 0 255 0
-15.860000 -9.120000 19.809999 0 255 0
-16.716700 -8.533300 17.870001 0 255 0
-16.155600 -9.172200 14.705600 0 255 0
-15.105000 -9.065000 22.900000 0 255 0
-16.020000 -8.365000 19.760000 0 255 0
-15.150000 -7.920000 14.910000 0 255 0
-15.750000 -8.573300 10.746700 255 0 0
-15.740000 -8.490000 4.460000 255 0 0
-15.748000 -8.516000 14.008000 255 0 0
-15.753900 -8.332600 0.961100 0 255 0
-14.845000 -8.580000 -1.790000 0 255 255
-15.840000 -9.500000 20.040001 0 255 0
-16.070000 -8.530000 15.470000 0 255 0
-16.160000 -9.190000 14.810000 0 255 0
-16.715000 -8.510000 17.950001 0 255 0
-14.940000 -8.090000 -1.200000 0 255 255
-16.709999 -8.940000 11.940000 0 255 0
-15.680000 -8.840000 8.990000 0 255 0
-15.810000 -8.150000 12.660000 255 0 0
-16.299999 -9.305000 14.775000 0 255 0
-16.909300 -8.158700 -1.140700 0 255 255
-16.109301 -9.072200 -0.851500 0 255 255
-15.908000 -7.316700 -1.390000 0 255 255
-16.061100 -8.726500 8.811400 0 255 0
-14.820000 -8.122000 17.709999 0 255 0
-16.309999 -7.715300 -1.387900 0 255 255
-15.800000 -7.910000 -1.980000 0 255 255
-15.891700 -8.426700 1.411700 255 0 0
-15.900000 -8.335000 7.560000 255 0 0
-15.910000 -8.115700 20.204300 0 255 0
-16.000000 -9.220000 15.150000 0 255 0
-16.114000 -8.868000 9.004000 0 255 0
-15.750000 -8.650000 5.865000 255 0 0
-15.756000 -8.622000 9.022000 255 0 0
-16.860001 -8.700000 21.330000 0 255 0
-16.865700 -8.820000 14.811400 0 255 0
-14.856700 -8.122200 19.860001 0 255 0
-15.861700 -8.303300 -1.485000 0 255 255
-16.180000 -8.930000 17.430000 0 255 0
-16.706699 -8.233300 -1.376700 0 255 255
-15.580000 -8.430000 10.010000 255 0 0
-15.960000 -8.640000 18.090000 0 255 0
-15.950000 -8.570000 21.270000 0 255 0
-15.320000 -8.780000 -1.880000 0 255 255
-16.316700 -7.611700 -1.588300 0 255 255
-15.010000 -8.416700 -0.946700 0 255 255
-15.766700 -8.636700 0.253300 255 0 0
-15.665000 -9.450000 19.205000 0 255 0
-15.245000 -8.810000 22.975000 0 255 0
-15.320000 -8.320000 -1.460000 0 255 255
-15.320000 -8.065000 22.110001 0 255 0
-16.920000 -8.540000 14.730000 0 255 0
-16.902500 -8.572500 17.865000 0 255 0
-15.750000 -9.130000 8.790000 0 255 0
-15.760400 -7.721500 -1.147500 0 255 255
-15.720000 -7.540000 17.915001 0 255 0
-15.725000 -8.665000 3.145000 255 0 0
-15.721000 -8.632000 -0.092000 255 0 0
-15.880000 -9.290000 8.590000 0 255 0
-15.870000 -9.190000 14.910000 0 255 0
-15.510000 -7.685000 -1.885000 0 255 255
-16.129999 -9.325000 -1.650000 0 255 255
-16.308599 -7.864300 -1.094300 0 255 255
-16.051701 -8.273300 -1.221700 0 255 255
-15.411000 -8.267100 -1.144300 0 255 255
-15.663300 -8.923300 -1.132200 0 255 255
-16.120001 -8.740000 8.960000 0 255 0
-16.280001 -8.120000 17.629999 0 255 0
-16.267500 -7.631300 -1.538700 0 255 255
-15.240000 -8.340000 -1.680000 0 255 255
-15.265000 -8.080000 14.765000 0 255 0
-15.825700 -8.354300 -0.887100 0 255 0
-15.810000 -8.615000 15.760000 255 0 0
-15.803300 -8.580000 12.560000 255 0 0
-15.911200 -7.366200 16.513800 0 255 0
-14.910000 -7.640000 -1.400000 0 255 255
-15.780000 -7.550000 -1.760000 0 255 255
-15.577500 -8.020000 -1.200000 0 255 255
-15.740000 -8.690000 4.520000 0 255 0
-16.901199 -8.281200 16.910000 0 255 0
-15.270000 -8.310000 9.715000 0 255 0
-15.820000 -7.470000 16.545000 0 255 0
-16.010000 -8.430000 17.200001 0 255 0
-15.520000 -7.840000 17.209999 0 255 0
-16.920000 -8.330000 15.860000 0 255 0
-16.695000 -8.640000 17.264999 0 255 0
-16.309999 -8.910000 22.170000 0 255 0
-16.308001 -8.872000 18.997999 0 255 0
-14.865600 -8.975000 -0.903300 0 255 255
-15.325000 -8.225000 -1.300000 0 255 255
-15.302900 -8.315700 17.670000 0 255 0
-15.290000 -8.720000 -1.490000 0 255 255
-15.302000 -8.420000 18.312000 0 255 0
-15.267100 -8.711400 22.167101 0 255 0
-15.060000 -9.060000 -1.350000 0 255 255
-15.257500 -8.420000 -1.290000 0 255 255
-15.280000 -8.080000 20.879999 0 255 0
-15.220000 -7.990000 -1.720000 0 255 255
-15.903300 -8.376700 21.763300 255 0 0
-15.920000 -8.460000 15.450000 255 0 0
-15.900000 -8.500000 18.629999 255 0 0
-15.845000 -7.465000 22.150000 0 255 0
-15.765000 -8.623000 3.661000 255 0 0
-15.766500 -8.664500 0.414000 0 255 0
-15.350000 -8.030000 -0.940000 0 255 255
-15.550000 -8.110000 -1.180000 0 255 255
-15.550000 -8.890000 22.629999 0 255 0
-15.560000 -8.110000 -1.410000 0 255 255
-15.854000 -8.764000 9.058000 0 255 0
-15.930000 -9.450000 15.140000 0 255 0
-16.195000 -8.620000 19.514999 0 255 0
-16.670000 -9.010000 19.504999 0 255 0
-15.980000 -8.990000 22.320000 0 255 0
-16.709999 -9.120000 15.345000 0 255 0
-15.030000 -8.125000 -1.410000 0 255 255
-16.856300 -8.717100 12.105000 0 255 0
-15.850000 -8.650000 4.970000 255 0 0
-15.850000 -8.580000 11.240000 255 0 0
-15.880000 -8.440000 21.160000 255 0 0
-15.858800 -8.456300 18.008801 255 0 0
-16.879999 -7.980000 16.895000 0 255 0
-15.863300 -7.920000 -1.783300 0 255 255
-15.860000 -7.550000 20.330000 0 255 0
-15.305000 -8.170000 -1.500000 0 255 255
-15.450000 -8.190000 23.330000 0 255 0
-16.820000 -8.920000 15.730000 0 255 0
-15.880000 -7.370000 -1.630000 0 255 255
-15.880000 -8.600000 20.520000 0 255 0
-16.209999 -8.271400 -1.335700 0 255 255
-16.680000 -8.550000 -1.340000 0 255 255
-16.462200 -9.114400 9.220000 0 255 0
-16.730000 -8.790000 15.660000 0 255 0
-14.855000 -7.820000 -1.580000 0 255 255
-15.398000 -7.812000 -1.488000 0 255 255
-15.260000 -8.610000 -1.400000 0 255 255
-16.129999 -7.850000 22.120001 0 255 0
-15.850000 -9.570000 22.260000 0 255 0
-16.823299 -8.670000 15.503300 0 255 0
-16.820000 -8.600000 12.280000 0 255 0
-15.862500 -8.862500 22.309999 0 255 0
-15.870000 -9.080000 9.280000 0 255 0
-14.690000 -9.005000 -0.955000 0 255 255
-15.220000 -9.380000 -1.470000 0 255 255
-15.260000 -7.662500 -1.682500 0 255 255
-15.515700 -8.880000 8.297100 0 255 0
-15.670000 -9.050000 -1.340000 0 255 255
-15.890000 -9.030000 -1.130000 0 255 255
-14.880000 -8.940000 -0.920000 0 255 255
-15.645000 -8.400000 2.420000 255 0 0
-15.526700 -8.465000 2.160000 255 0 0
-15.615000 -8.220000 -0.645000 255 0 0
-15.610000 -8.655000 2.850000 255 0 0
-16.780001 -7.850000 21.889999 0 255 0
-16.116699 -8.765000 8.863300 0 255 0
-14.925000 -8.230000 -0.685000 0 255 255
-16.110001 -8.535000 11.520000 0 255 0
-16.780001 -9.050000 14.780000 0 255 0
-16.010000 -8.560000 18.139999 0 255 0
-15.360000 -9.080000 23.260000 0 255 0
-15.890000 -8.550000 5.380000 255 0 0
-15.910000 -8.650000 -1.140000 0 255 255
-15.890000 -8.600000 8.630000 255 0 0
-15.905000 -8.360000 18.405001 255 0 0
-16.664000 -8.926000 11.708000 0 255 0
-16.211100 -8.025600 18.006701 0 255 0
-15.408600 -7.565700 20.005699 0 255 0
-15.360000 -7.670000 20.010000 0 255 0
-16.730000 -8.680000 14.180000 0 255 0
-16.708000 -8.720000 17.308001 0 255 0
-16.860001 -8.820000 15.790000 0 255 0
-16.757999 -8.920000 17.406000 0 255 0
-15.510000 -7.890000 -0.810000 0 255 255
-15.930000 -8.980000 17.530001 0 255 0
-15.808300 -7.371700 16.501699 0 255 0
-16.243299 -8.220000 -0.893300 0 255 255
-16.690001 -9.210000 11.960000 0 255 0
-16.705700 -9.067100 14.960700 0 255 0
-15.950000 -8.966700 19.453300 0 255 0
-15.052900 -8.263300 -0.492400 0 255 255
-15.758300 -8.656700 2.908300 255 0 0
-15.755000 -8.603300 6.165000 255 0 0
-16.363300 -8.830000 19.000000 0 255 0
-16.358000 -8.971000 9.203000 0 255 0
-16.379999 -8.685000 15.745000 0 255 0
-15.155000 -8.460000 19.920000 0 255 0
-15.264000 -8.668000 22.757999 0 255 0
-15.761700 -7.870000 -1.298300 0 255 255
-15.390000 -8.810000 -1.160000 0 255 255
-15.403300 -8.276700 14.660000 0 255 0
-15.413100 -8.317700 17.657700 0 255 0
-15.850000 -8.540000 21.750000 255 0 0
-16.690001 -9.270000 14.250000 0 255 0
-16.150000 -8.470000 20.750000 0 255 0
-14.556700 -7.961700 -1.305000 0 255 255
-16.080000 -7.370000 19.200001 0 255 0
-15.910000 -7.590000 16.180000 0 255 0
-15.817500 -8.580000 7.767500 255 0 0
-15.810000 -8.680000 14.110000 0 255 0
-15.500000 -8.565000 -1.435000 0 255 255
-15.970000 -8.970000 22.165001 0 255 0
-16.246700 -9.010000 8.806700 0 255 0
-16.680000 -9.220000 19.270000 0 255 0
-15.970000 -8.432500 15.995000 255 0 0
-15.960000 -8.390000 19.270000 255 0 0
-15.600000 -9.000000 22.459999 0 255 0
-16.049999 -8.510000 19.549999 0 255 0
-15.722500 -8.617500 -0.685000 255 0 0
-15.713300 -8.655000 2.555000 255 0 0
-16.964001 -8.526000 17.914000 0 255 0
-15.520000 -7.730000 20.250000 0 255 0
-16.969999 -8.650000 12.100000 0 255 0
-15.440000 -9.320000 -1.450000 0 255 255
-15.212500 -8.075000 -1.237500 0 255 255
-15.195000 -7.580000 18.360001 0 255 0
-15.211600 -7.921600 14.658700 0 255 0
-15.960000 -8.420000 6.620000 255 0 0
-15.950000 -8.375000 9.845000 255 0 0
-15.950000 -8.460000 16.174999 255 0 0
-16.406700 -9.413300 14.826700 0 255 0
-16.408300 -9.460000 9.270000 0 255 0
-16.655001 -8.455000 14.570000 0 255 0
-16.650000 -8.680000 -1.310000 0 255 255
-16.221399 -8.164300 -1.282900 0 255 255
-16.465799 -9.170000 9.307500 0 255 0
-14.890000 -8.360000 -1.870000 0 255 255
-14.840000 -9.120000 -1.040000 0 255 255
-15.140000 -7.780000 -1.355000 0 255 255
-14.840000 -8.390000 19.480000 0 255 0
-14.904000 -8.112000 -1.234000 0 255 255
-14.910000 -8.275000 19.670000 0 255 0
-15.817800 -7.515600 -1.542200 0 255 255
-15.560000 -8.730000 -0.790000 0 255 0
-15.570000 -8.770000 22.010000 0 255 0
-16.709999 -9.017000 15.119000 0 255 0
-16.715000 -8.975000 11.965000 0 255 0
-16.173300 -7.975000 17.916700 0 255 0
-14.895000 -9.360000 -1.090000 0 255 255
-15.740000 -8.420000 6.850000 255 0 0
-15.757500 -8.575000 10.012500 255 0 0
-15.770000 -8.670000 16.770000 0 255 0
-15.761700 -8.521700 13.148300 255 0 0
-15.757900 -8.332400 0.109400 0 255 0
-15.920000 -8.600000 15.770000 255 0 0
-15.890000 -8.710000 9.260000 0 255 0
-15.112500 -8.865000 18.857500 0 255 0
-16.070000 -7.520000 20.230000 0 255 0
-15.960000 -8.760000 9.365000 0 255 0
-16.250000 -8.360000 12.480000 0 255 0
-16.208000 -8.674000 18.959999 0 255 0
-15.210000 -8.375000 -0.390000 0 255 255
-15.213300 -8.216700 15.813300 0 255 0
-16.110001 -9.150000 9.420000 0 255 0
-16.070000 -8.003300 -1.393300 0 255 255
-16.219999 -8.670000 -1.520000 0 255 255
-16.661100 -8.678900 17.267799 0 255 0
-16.106701 -7.970000 -1.086700 0 255 255
-14.700000 -8.655000 -0.980000 0 255 255
-16.400000 -9.220000 8.880000 0 255 0
-16.861099 -8.811100 15.552200 0 255 0
-16.209999 -8.570000 -1.310000 0 255 255
-16.650000 -8.880000 11.780000 0 255 0
-16.344999 -9.115000 8.810000 0 255 0
-15.061500 -8.120000 17.666901 0 255 0
-15.830000 -8.460000 2.570000 255 0 0
-15.830000 -8.405000 -0.600000 255 0 0
-15.810000 -8.603300 12.076700 0 255 0
-16.809999 -8.530000 22.270000 0 255 0
-16.080000 -7.925000 -1.440000 0 255 255
-16.157499 -9.215000 -1.430000 0 255 255
-16.709999 -8.417300 -1.435500 0 255 255
-15.290000 -8.690000 22.910000 0 255 0
-15.310000 -8.413300 -0.703300 0 255 255
-14.856700 -9.126700 -1.443300 0 255 255
-15.077500 -7.520000 -1.497500 0 255 255
-16.260000 -8.430000 23.320000 0 255 0
-14.950000 -9.280000 -1.270000 0 255 255
-14.961400 -9.321400 8.457100 0 255 0
-15.525000 -8.355000 -1.330000 0 255 255
-15.510000 -8.440000 1.920000 255 0 0
-15.862500 -9.525000 7.916300 0 255 0
-16.416000 -7.918000 -1.286000 0 255 255
-15.566700 -8.471700 6.456700 255 0 0
-15.560600 -8.519000 3.209300 0 255 0
-15.550000 -8.766700 -0.390000 0 255 0
-15.572500 -8.472500 6.363800 0 255 0
-15.559800 -8.520500 3.107800 255 0 0
-15.600000 -8.540000 -1.900000 0 255 255
-15.625000 -8.605000 4.420000 255 0 0
-15.599400 -8.583600 1.256400 255 0 0
-15.762000 -8.626000 8.868000 255 0 0
-15.750000 -8.980000 -1.290000 0 255 255
-14.950000 -8.310000 -1.430000 0 255 255
-14.965600 -8.778900 -0.931100 0 255 255
-16.309999 -8.250000 -1.700000 0 255 255
-15.280000 -8.280000 18.299999 0 255 0
-15.550000 -7.980000 -1.960000 0 255 255
-15.967500 -9.168700 9.260000 0 255 0
-15.960000 -9.000000 19.480000 0 255 0
-15.361400 -8.770000 18.317101 0 255 0
-15.980000 -7.660000 22.280001 0 255 0
-16.660000 -9.110000 19.020000 0 255 0
-15.650000 -7.881300 17.167500 0 255 0
-15.930000 -8.440000 14.970000 255 0 0
-15.923300 -8.513300 8.656700 255 0 0
-15.908300 -8.370000 11.710000 255 0 0
-15.917100 -8.464300 5.415700 255 0 0
-15.915000 -8.270000 18.055000 0 255 0
-16.968800 -8.227500 18.662500 0 255 0
-16.870001 -9.020000 14.090000 0 255 0
-16.610800 -7.971600 16.219200 0 255 0
-15.200000 -9.180000 -1.530000 0 255 255
-16.217800 -7.420000 18.261101 0 255 0
-14.808500 -8.222700 -0.888800 0 255 255
-16.011101 -9.073300 9.217800 0 255 0
-16.257000 -9.116000 9.249000 0 255 0
-16.020000 -8.840000 21.600000 0 255 0
-16.014400 -9.017800 8.962200 0 255 0
-15.630000 -8.565000 13.040000 255 0 0
-15.621400 -8.524300 9.901400 255 0 0
-15.613200 -8.468800 6.760000 0 255 0
-15.613300 -8.523300 9.806700 255 0 0
-15.612000 -8.469300 6.663500 255 0 0
-15.855700 -8.421000 0.008100 0 255 0
-15.850700 -8.372900 3.259300 0 255 0
-15.850000 -8.270000 9.013300 255 0 0
-15.855200 -8.324100 5.766900 255 0 0
-15.607700 -8.421700 5.211900 255 0 0
-15.609200 -8.362400 1.956400 255 0 0
-15.570300 -8.568700 0.861500 255 0 0
-15.670000 -8.555000 13.150000 255 0 0
-15.660000 -8.520000 16.389999 0 255 0
-15.660000 -8.290000 6.620000 255 0 0
-15.660600 -8.321500 3.359100 0 255 0
-15.654700 -8.356000 0.115000 255 0 0
-15.640000 -8.240000 6.330000 255 0 0
-15.675000 -8.530000 13.455000 255 0 0
-15.674000 -8.272000 3.158000 255 0 0
-15.657000 -8.564000 10.310000 255 0 0
-15.660100 -8.325900 0.008200 255 0 0
-14.945000 -8.912500 -0.850000 0 255 255
-14.950000 -8.830000 -1.040000 0 255 255
-15.607500 -9.015000 -1.230000 0 255 255
-15.061400 -8.061400 -1.001400 0 255 255
-14.753800 -8.066500 -1.396200 0 255 255
-15.965000 -7.872000 -0.878000 0 255 255
-15.955000 -7.375000 18.902500 0 255 0
-16.054300 -7.361400 18.771400 0 255 0
-15.853300 -8.653300 22.113300 0 255 0
-16.770000 -8.760000 19.889999 0 255 0
-15.207500 -8.431500 15.519000 0 255 0
-15.770000 -8.580000 12.610000 255 0 0
-15.760000 -8.410000 9.440000 255 0 0
-15.758700 -8.324700 2.309500 0 255 0
-15.760000 -8.516700 15.750000 255 0 0
-14.911200 -8.528800 -1.235000 0 255 255
-16.563000 -7.870600 16.261200 0 255 0
-15.460000 -8.210000 -1.310000 0 255 255
-15.460000 -7.930000 20.740000 0 255 0
-15.606700 -8.272100 14.613900 0 255 0
-15.240000 -8.410000 19.740000 0 255 0
-15.480000 -8.520000 -0.720000 255 0 0
-15.040000 -8.110000 -1.320000 0 255 255
-15.370000 -8.950000 -1.520000 0 255 255
-16.859400 -7.922800 12.462200 0 255 0
-15.955700 -8.425700 14.162900 255 0 0
-15.950000 -8.370000 17.320000 255 0 0
-16.857901 -8.557100 12.014300 0 255 0
-14.863300 -9.020000 -1.081700 0 255 255
-14.860500 -9.274500 8.314000 0 255 0
-14.516300 -8.126800 -1.341100 0 255 255
-15.858900 -9.572100 8.610500 0 255 0
-16.215200 -9.021000 8.767100 0 255 0
-15.657800 -8.573300 18.217800 0 255 0
-15.666500 -8.333800 7.907300 255 0 0
-15.648100 -8.361300 4.754200 255 0 0
-15.640000 -8.720000 0.980000 0 255 0
-15.671100 -8.674400 3.998900 255 0 0
-15.663600 -8.657200 0.507600 255 0 0
-15.657200 -8.610400 3.762000 255 0 0
-15.725000 -8.355000 6.020000 255 0 0
-15.711800 -8.522300 15.509500 255 0 0
-15.708300 -8.320300 2.858600 255 0 0
-15.756200 -8.576200 12.158800 255 0 0
-15.761700 -8.513300 15.408300 255 0 0
-15.760000 -8.355000 -0.495000 0 255 0
-15.760600 -8.327100 2.759800 255 0 0
-15.740000 -8.420000 7.620000 255 0 0
-15.763300 -8.533300 14.103300 255 0 0
-15.762500 -8.582500 10.875000 255 0 0
-15.756400 -8.329300 1.058500 255 0 0
-15.913300 -8.421700 6.962500 255 0 0
-15.900000 -8.520000 0.666700 255 0 0
-15.910000 -8.290000 10.080000 255 0 0
-15.911400 -8.325700 13.318600 255 0 0
-15.140000 -8.240000 19.040001 0 255 0
-15.155000 -8.735000 -0.537500 0 255 255
-15.567400 -8.371800 -0.388900 255 0 0
-14.864300 -8.967100 18.718599 0 255 0
-14.870000 -8.480000 -1.080000 0 255 255
-14.556000 -8.760700 -1.348000 0 255 255
-15.072000 -8.630000 -0.796000 0 255 255
-16.346701 -8.520000 17.200001 0 255 0
-15.670000 -7.785000 -1.620000 0 255 255
-16.209999 -8.590000 -1.500000 0 255 255
-15.530000 -8.970000 22.055000 0 255 0
-15.563600 -8.375700 -1.486400 0 255 255
-15.556000 -8.660000 18.296000 0 255 0
-16.853300 -8.963300 19.603300 0 255 0
-15.860000 -8.640000 11.510000 255 0 0
-15.865000 -8.570000 14.655000 255 0 0
-15.866700 -8.526700 17.860001 255 0 0
-16.448299 -9.276700 17.469999 0 255 0
-16.570000 -9.215000 20.559999 0 255 0
-16.549999 -9.258300 17.301701 0 255 0
-15.630000 -9.030000 -1.760000 0 255 255
-16.159201 -9.320000 14.711200 0 255 0
-15.913000 -7.769000 14.721000 0 255 0
-16.512199 -9.420000 14.913300 0 255 0
-15.692000 -8.638000 0.864000 255 0 0
-15.698900 -8.665600 4.000000 255 0 0
-16.856001 -9.118000 13.956000 0 255 0
-16.163099 -8.026300 -1.346900 0 255 255
-16.760000 -8.980000 14.316000 0 255 0
-16.770000 -9.060000 20.799999 0 255 0
-16.764999 -7.805000 21.995001 0 255 0
-16.110001 -8.826700 9.358300 0 255 0
-16.755501 -7.976400 12.608200 0 255 0
-16.950001 -8.680000 21.309999 0 255 0
-16.950001 -8.506700 17.950001 0 255 0
-15.530000 -7.550000 17.510000 0 255 0
-15.515000 -8.560000 3.265000 255 0 0
-15.490000 -8.450000 9.740000 0 255 0
-15.612700 -9.620000 -1.345500 0 255 255
-15.610300 -9.363600 8.569000 0 255 0
-16.740000 -7.840000 -0.740000 0 255 255
-16.113300 -8.956700 8.910000 0 255 0
-15.400000 -9.214000 8.258000 0 255 0
-16.170000 -8.816000 12.056000 0 255 0
-16.157600 -8.871000 8.909300 0 255 0
-15.550000 -9.230000 8.216700 0 255 0
-16.830000 -8.260000 -0.910000 0 255 255
-16.062700 -8.820000 8.708100 0 255 0
-16.049999 -7.460000 18.629999 0 255 0
-15.752000 -8.650000 3.262000 255 0 0
-15.759200 -8.610000 6.408300 255 0 0
-15.660000 -8.240000 -0.730000 255 0 0
-15.658000 -8.578000 2.968000 255 0 0
-15.655000 -8.665000 22.110001 0 255 0
-15.670000 -8.428700 12.715000 255 0 0
-15.653800 -8.469500 9.457600 255 0 0
-15.654400 -8.526100 6.203900 255 0 0
-15.307500 -8.765000 22.162500 0 255 0
-16.156200 -7.414800 -1.447100 0 255 255
-16.715000 -9.115000 17.370001 0 255 0
-15.630000 -9.590000 19.940001 0 255 0
-16.672501 -8.722500 17.342501 0 255 0
-15.923300 -7.773300 22.116699 0 255 0
-15.455000 -9.313300 19.071699 0 255 0
-16.309999 -8.280000 -1.560000 0 255 255
-16.658701 -9.063700 14.951200 0 255 0
-15.915000 -7.425800 18.904200 0 255 0
-15.405000 -8.875000 22.360001 0 255 0
-15.995000 -7.876000 -0.856000 0 255 255
-16.003300 -7.416700 22.013300 0 255 0
-16.011700 -7.366700 18.756701 0 255 0
-16.100000 -8.550000 14.950000 0 255 0
-16.755501 -9.072700 14.965500 0 255 0
-16.120001 -8.016700 18.056700 0 255 0
-16.655001 -7.730000 18.754999 0 255 0
-16.240000 -9.130000 -1.340000 0 255 255
-15.705000 -8.621200 -0.787500 255 0 0
-15.707700 -8.659200 2.466900 255 0 0
-15.020000 -8.920000 -0.396700 0 255 255
-15.061400 -8.679300 14.663800 0 255 0
-16.001699 -9.521700 8.720000 0 255 0
-15.460000 -8.373300 -0.896700 255 0 0
-15.440000 -8.130000 15.425000 0 255 0
-16.920000 -8.430000 12.250000 0 255 0
-16.930000 -8.340000 18.559999 0 255 0
-15.160000 -8.113300 -1.188300 0 255 255
-15.160000 -7.871100 14.623900 0 255 0
-16.480000 -7.480000 -1.135000 0 255 255
-15.604400 -9.120000 8.508700 0 255 0
-16.659100 -9.322700 15.060900 0 255 0
-16.709999 -8.124000 16.756001 0 255 0
-15.860000 -9.240000 20.059999 0 255 0
-16.190001 -7.810000 16.090000 0 255 0
-15.870000 -8.560800 1.213300 255 0 0
-15.880000 -8.510000 4.103300 0 255 0
-15.855000 -8.330000 17.570000 255 0 0
-15.857500 -8.367500 13.863300 255 0 0
-16.120001 -8.355000 16.844999 0 255 0
-16.709999 -9.117500 15.011300 0 255 0
-16.701401 -9.074300 11.858600 0 255 0
-16.846701 -9.013300 14.950000 0 255 0
-16.860001 -7.875000 16.475000 0 255 0
-16.257099 -8.612900 19.411400 0 255 0
-15.400000 -7.970000 20.760000 0 255 0
-15.410000 -8.790000 -1.690000 0 255 255
-15.403300 -8.280000 18.266701 0 255 0
-14.916700 -7.870000 17.993299 0 255 0
-15.690000 -7.640000 17.280001 0 255 0
-15.346700 -9.080000 19.153299 0 255 0
-16.590000 -9.062500 19.852501 0 255 0
-15.430000 -8.450000 15.480000 0 255 0
-15.393300 -8.206700 -0.836700 0 255 255
-15.415000 -7.716700 18.160000 0 255 0
-15.411700 -7.623300 17.908300 0 255 0
-15.304400 -7.510000 17.507799 0 255 0
-16.716700 -8.613300 20.806700 0 255 0
-16.161800 -8.275500 17.642700 0 255 0
-16.116699 -8.730000 9.266700 0 255 0
-16.764999 -8.065000 12.510000 0 255 0
-15.866700 -8.414300 1.855700 255 0 0
-15.870000 -8.364300 5.011000 255 0 0
-15.880000 -8.280000 11.980000 0 255 0
-15.859600 -8.325200 8.812200 255 0 0
-16.656500 -7.914200 -0.928100 0 255 255
-14.880000 -7.922500 -1.148800 0 255 255
-16.467501 -7.571900 16.172501 0 255 0
-15.615000 -8.475000 11.110000 255 0 0
-16.400000 -8.060000 19.809999 0 255 0
-15.415000 -8.380000 21.205000 0 255 0
-15.873900 -8.462500 -0.740400 255 0 0
-15.868800 -8.365600 5.560600 255 0 0
-15.861200 -8.418300 2.310200 0 255 0
-15.870000 -8.230000 14.580000 0 255 0
-15.870000 -8.285000 11.525000 255 0 0
-15.858300 -8.330000 8.255600 255 0 0
-15.860000 -8.570000 19.440001 255 0 0
-15.860000 -8.640000 16.290001 255 0 0
-15.966700 -8.463300 14.010000 255 0 0
-15.790000 -8.630000 9.300000 255 0 0
-15.801700 -8.575000 6.206700 255 0 0
-16.680000 -9.225000 14.865000 0 255 0
-16.663300 -9.265800 11.806700 0 255 0
-15.870000 -9.075000 22.299999 0 255 0
-16.010000 -9.170000 21.707500 0 255 0
-16.010000 -9.380000 8.655000 0 255 0
-15.903300 -7.926700 -1.900000 0 255 255
-15.630000 -8.990000 -1.800000 0 255 255
-15.600000 -9.500000 8.400000 0 255 0
-15.611700 -9.615000 14.915800 0 255 0
-15.600000 -8.950000 -1.520000 0 255 255
-16.240000 -8.510000 20.799999 0 255 0
-15.300000 -8.840000 8.310000 0 255 0
-15.290000 -8.700000 14.820000 0 255 0
-16.677099 -8.417100 -1.484300 0 255 255
-16.200001 -9.210000 -1.490000 0 255 255
-16.225000 -8.735000 17.520000 0 255 0
-15.426700 -7.523300 -1.433300 0 255 255
-16.750000 -8.760000 15.640000 0 255 0
-15.860000 -9.385000 19.860001 0 255 0
-14.960000 -7.770000 14.880000 0 255 0
-15.913300 -8.763300 21.563299 0 255 0
-14.715000 -8.115000 -1.475000 0 255 255
-16.205000 -8.080000 -1.630000 0 255 255
-15.649400 -8.630000 0.808100 255 0 0
-15.720000 -8.670000 9.080000 0 255 0
-15.710000 -8.611900 5.811300 255 0 0
-15.260000 -8.514000 -1.542000 0 255 255
-15.260000 -8.225000 18.254999 0 255 0
-16.430000 -9.380000 20.510000 0 255 0
-14.960000 -8.026000 17.700001 0 255 0
-16.440001 -8.810000 20.240000 0 255 0
-15.430000 -7.960000 19.660000 0 255 0
-15.517500 -8.570000 1.455000 255 0 0
-15.900000 -9.150000 8.910000 0 255 0
-16.040001 -8.230000 23.330000 0 255 0
-15.610000 -7.750000 17.174999 0 255 0
-15.680000 -9.500000 8.570000 0 255 0
-15.600000 -9.120000 22.260000 0 255 0
-16.809999 -8.475000 17.094999 0 255 0
-16.662201 -8.067800 16.223301 0 255 0
-15.690000 -7.810000 20.900000 0 255 0
-15.895300 -8.414100 4.410600 255 0 0
-15.893300 -8.336700 10.963300 255 0 0
-15.890000 -8.290000 7.790000 255 0 0
-15.006700 -8.510000 18.303301 0 255 0
-15.650000 -9.560000 20.350000 0 255 0
-16.150000 -7.603300 18.606701 0 255 0
-16.108801 -7.481300 16.358801 0 255 0
-15.360000 -8.200000 14.450000 0 255 0
-15.350000 -8.865500 -0.950000 0 255 255
-16.655001 -8.765000 -1.485000 0 255 255
-16.330000 -8.170000 -1.155000 0 255 255
-15.166000 -7.580000 -1.640000 0 255 255
-15.706600 -7.963400 -0.953700 0 255 255
-15.960000 -9.610000 14.820000 0 255 0
-15.155000 -7.923900 -1.478900 0 255 255
-15.830000 -8.140000 14.230000 0 255 0
-16.916901 -8.621500 15.755400 0 255 0
-16.910000 -8.510000 22.263300 0 255 0
-15.920000 -8.650000 21.150000 0 255 0
-15.800000 -7.660000 -1.588000 0 255 255
-15.330000 -8.310000 22.570000 0 255 0
-15.920000 -8.560000 12.010000 0 255 0
-15.890000 -8.600000 15.140000 255 0 0
-15.890000 -8.720000 8.680000 0 255 0
-16.639999 -8.660000 -1.490000 0 255 255
-16.650000 -8.380000 14.656700 0 255 0
-15.740000 -9.100000 8.540000 0 255 0
-16.103800 -7.963800 15.953700 0 255 0
-15.990000 -9.320000 7.630000 0 255 0
-16.113701 -7.663800 -1.390000 0 255 255
-15.471300 -9.071200 8.163800 0 255 0
-16.652500 -8.176200 16.751301 0 255 0
-15.670000 -8.020000 17.299999 0 255 0
-16.280001 -7.515000 16.145000 0 255 0
-16.709999 -8.410000 18.565001 0 255 0
-16.716000 -8.522000 12.056000 0 255 0
-16.002001 -7.382000 -1.302500 0 255 255
-16.120001 -8.460000 20.680000 0 255 0
-15.661600 -7.810500 -1.479500 0 255 255
-16.170000 -8.730000 9.230000 0 255 0
-15.530000 -8.660000 22.190001 0 255 0
-15.504200 -8.317900 -0.752600 255 0 0
-16.306700 -7.820000 18.660000 0 255 0
-16.664400 -9.128900 14.997800 0 255 0
-16.680000 -9.170000 11.890000 0 255 0
-15.800000 -7.520000 14.940000 0 255 0
-16.816700 -7.880000 16.406700 0 255 0
-16.990000 -8.890000 14.315000 0 255 0
-16.413900 -8.869100 9.168300 0 255 0
-14.970000 -8.020000 18.740000 0 255 0
-15.800000 -8.510000 10.960000 255 0 0
-15.806700 -8.571700 14.200000 255 0 0
-15.809500 -8.371700 0.760800 0 255 0
-15.764000 -9.365000 7.622000 0 255 0
-15.300000 -8.575000 14.755000 0 255 0
-15.511000 -9.363500 8.609000 0 255 0
-15.350000 -8.850000 22.170000 0 255 0
-15.810000 -7.860000 22.146700 0 255 0
-14.750000 -8.910000 -1.600000 0 255 255
-15.970000 -7.960000 16.059999 0 255 0
-14.711200 -8.568700 -1.391300 0 255 255
-15.070000 -7.690000 14.610000 0 255 0
-16.360001 -8.966700 9.120800 0 255 0
-16.340000 -8.820000 18.930000 0 255 0
-15.761700 -7.570800 -1.482500 0 255 255
-15.850000 -8.405000 15.810000 255 0 0
-15.852500 -8.567500 6.410000 255 0 0
-15.870000 -8.600000 3.170000 255 0 0
-15.880000 -8.360000 19.080000 255 0 0
-15.850000 -8.340000 21.959999 0 255 0
-16.256701 -8.030000 17.966700 0 255 0
-16.139999 -8.560000 8.210000 0 255 0
-16.170000 -8.330000 -1.190000 0 255 255
-15.566700 -8.610000 1.426700 255 0 0
-15.390000 -7.620000 -1.710000 0 255 255
-16.756701 -9.216700 14.050000 0 255 0
-14.620000 -8.840000 -1.070000 0 255 255
-14.860000 -9.335000 -1.060000 0 255 255
-14.948000 -7.936000 -1.534000 0 255 255
-14.950000 -8.230000 18.040001 0 255 0
-15.067500 -7.622500 14.657500 0 255 0
-16.580000 -8.340000 -1.440000 0 255 255
-16.563299 -8.656700 16.013300 0 255 0
-15.440000 -8.320000 17.760000 0 255 0
-15.670000 -9.235000 8.365000 0 255 0
-15.500000 -7.716700 18.120001 0 255 0
-16.790001 -8.980000 20.750000 0 255 0
-16.077999 -7.418000 -1.388000 0 255 255
-16.808001 -9.274000 14.194000 0 255 0
-16.080000 -8.630000 11.480000 0 255 0
-16.815001 -9.085000 14.500000 0 255 0
-15.175000 -8.085000 19.264999 0 255 0
-16.770000 -8.275000 18.065001 0 255 0
-16.750000 -8.370000 -1.110000 0 255 255
