-7.026700 8.436700 20.176701 0 255 0
-6.080000 8.480000 19.180000 0 255 0
-5.712500 7.534500 16.559500 0 255 0
-5.745000 7.665000 16.504999 0 255 0
-6.860000 9.663300 2.150000 0 255 255
-6.365000 7.540000 24.010000 0 255 0
-6.359100 7.384500 1.705500 0 255 255
-5.955700 8.525700 16.914301 0 255 0
-6.455000 7.585000 1.580000 0 255 255
-5.830000 8.360000 15.490000 0 255 0
-7.156700 8.416700 21.016701 0 255 0
-6.470000 8.135000 11.655000 255 0 0
-6.480000 8.230000 17.959999 255 0 0
-6.455000 8.392500 1.757500 0 255 0
-6.447500 8.427500 4.905000 255 0 0
-6.454000 8.481200 8.061600 0 255 0
-6.468300 8.171700 14.806700 255 0 0
-6.169100 7.422900 13.468300 0 255 0
-7.180000 9.340000 2.400000 0 255 255
-6.205000 7.570000 13.430000 0 255 0
-7.667900 7.926300 13.158700 0 255 0
-7.613900 7.974800 12.970900 0 255 0
-5.600000 7.270000 28.065001 0 255 0
-5.660000 7.570000 21.590000 0 255 0
-6.720000 8.510000 5.980000 255 0 0
-6.705800 8.379300 2.612400 255 0 0
-6.796700 8.666700 2.360000 255 0 0
-6.590000 7.366700 18.753300 0 255 0
-6.060000 7.480000 22.719999 0 255 0
-6.060000 7.590000 29.010000 0 255 0
-6.060000 7.520000 25.780001 0 255 0
-5.752900 7.775700 1.562900 0 255 255
-5.440000 7.690000 26.360001 0 255 0
-7.408200 7.978200 2.003600 0 255 255
-5.720000 8.930000 2.280000 0 255 255
-6.310000 8.725000 2.005000 0 255 0
-5.990000 8.900000 28.260000 0 255 0
-5.970000 8.770000 28.299999 0 255 0
-7.720000 8.215000 14.255000 0 255 0
-7.710000 7.930000 1.730000 0 255 255
-5.420000 8.220000 22.980000 0 255 0
-6.605000 8.495000 25.209999 0 255 0
-6.750000 7.180000 19.830000 0 255 0
-6.990000 8.800000 23.750000 0 255 0
-6.416700 7.123300 19.520000 0 255 0
-5.770000 8.290000 15.510000 0 255 0
-6.370000 8.185000 23.920000 255 0 0
-5.360000 8.350000 1.770000 0 255 255
-7.150000 8.020000 21.639999 0 255 0
-5.525000 7.470000 21.719999 0 255 0
-5.530000 7.430000 28.410000 0 255 0
-6.460000 8.360000 21.549999 255 0 0
-6.450000 8.340000 18.420000 255 0 0
-6.480000 9.680000 2.540000 0 255 255
-7.470000 7.990000 16.959999 0 255 0
-6.790000 8.620000 2.020000 255 0 0
-6.790000 8.575000 5.167500 255 0 0
-7.140000 8.120000 28.379999 0 255 0
-6.414300 9.191400 1.961400 0 255 255
-5.570000 8.210000 1.560000 0 255 255
-6.105000 7.595000 25.245001 0 255 0
-5.918300 8.626700 20.468300 0 255 0
-5.890000 8.570000 23.620001 0 255 0
-6.103300 7.180000 19.468300 0 255 0
-6.213700 8.031200 19.951200 0 255 0
-5.860000 7.240000 17.976700 0 255 0
-6.230000 8.920000 19.809999 0 255 0
-5.730000 8.410000 28.830000 0 255 0
-6.345000 8.085000 22.665001 255 0 0
-6.352500 8.235000 19.610001 255 0 0
-6.359400 8.181900 16.359400 255 0 0
-5.730000 8.590000 16.950001 0 255 0
-7.108700 8.272500 16.166300 0 255 0
-6.370000 8.400000 26.040001 0 255 0
-6.380000 8.100000 19.309999 255 0 0
-6.350000 8.235000 16.165001 255 0 0
-7.030000 7.390000 26.020000 0 255 0
-6.023300 7.976700 11.466700 0 255 0
-5.272500 8.315000 15.662500 0 255 0
-6.230000 9.380000 2.040000 0 255 255
-5.605000 8.332500 1.902500 0 255 255
-6.311700 7.679200 18.058300 0 255 0
-5.990000 9.150000 2.230000 0 255 255
-5.612500 7.630000 27.719999 0 255 0
-6.580000 8.530000 19.320000 0 255 0
-5.980000 8.100000 25.830000 0 255 0
-7.250000 8.220000 1.580000 0 255 255
-6.765000 8.745000 1.910000 0 255 0
-6.762400 8.583800 5.162500 255 0 0
-6.365000 8.120000 23.965000 255 0 0
-6.355000 8.085000 20.815001 255 0 0
-6.357100 8.231400 17.454300 255 0 0
-6.368600 8.181900 14.310000 255 0 0
-6.706700 8.510000 11.366700 255 0 0
-6.730000 8.410000 4.840000 255 0 0
-6.713300 8.376700 7.993300 255 0 0
-6.670000 9.590000 1.998000 0 255 255
-6.775000 8.380000 24.295000 0 255 0
-6.745000 8.180000 11.670000 255 0 0
-6.760000 8.290000 5.150000 255 0 0
-6.770000 8.325400 8.410000 255 0 0
-5.413300 8.426700 1.769300 0 255 255
-7.624000 8.912000 2.870000 0 255 255
-5.751000 9.181000 19.660000 0 255 0
-6.263300 8.127800 19.799999 0 255 0
-6.927500 8.082500 1.662500 0 255 255
-6.520000 9.550000 2.390000 0 255 255
-6.430000 7.690000 22.139999 0 255 0
-5.680000 8.400000 1.930000 0 255 255
-6.370000 8.365000 4.545000 255 0 0
-6.365300 8.128000 1.556700 0 255 0
-6.357100 8.334300 14.201400 255 0 0
-7.380000 7.990000 20.280001 0 255 0
-7.150000 8.460000 18.080000 0 255 0
-7.160000 8.420000 2.055000 0 255 0
-5.500000 8.450000 23.100000 0 255 0
-6.540000 7.940000 19.219999 0 255 0
-6.547100 8.072900 16.055700 255 0 0
-6.056700 7.723300 1.866700 0 255 255
-6.770000 9.076700 2.503300 0 255 255
-7.160000 7.880000 28.805000 0 255 0
-6.515000 7.830000 1.615000 0 255 255
-6.925000 7.525000 25.910000 0 255 0
-6.666700 7.136700 28.063299 0 255 0
-6.755300 7.982800 9.704100 0 255 0
-5.953300 8.896700 25.863300 0 255 0
-6.601700 7.730000 19.851700 0 255 0
-6.217600 7.130000 18.118099 0 255 0
-6.430000 8.040000 12.680000 0 255 0
-6.415900 7.933500 19.175900 0 255 0
-5.713700 7.475200 16.506300 0 255 0
-7.309000 8.784100 16.866899 0 255 0
-6.330000 8.180000 22.959999 255 0 0
-6.310000 8.233300 19.820000 255 0 0
-6.562000 8.478000 13.052000 255 0 0
-6.573300 8.336700 16.413300 255 0 0
-6.566700 8.233300 22.556700 255 0 0
-5.910000 8.690000 19.959999 0 255 0
-6.725000 8.615000 25.264999 0 255 0
-6.121500 9.480000 2.352300 0 255 255
-6.325000 7.340000 19.375000 0 255 0
-6.355000 9.120000 1.965000 0 255 255
-6.365000 7.985000 1.812500 0 255 255
-6.350000 8.150000 22.600000 255 0 0
-6.360000 8.190000 12.860000 255 0 0
-6.360000 8.216700 16.100000 255 0 0
-6.365000 8.100000 19.360001 255 0 0
-7.275000 7.780000 20.379999 0 255 0
-7.740000 8.170000 1.750000 0 255 255
-6.990000 7.920000 28.559999 0 255 0
-7.510000 8.370000 18.100000 0 255 0
-5.770000 9.070000 2.375000 0 255 255
-7.520000 8.520000 18.209999 0 255 0
-7.507000 8.993000 2.414000 0 255 255
-7.810000 8.720000 2.265300 0 255 255
-6.123300 8.930000 2.050000 0 255 255
-5.960000 7.186000 19.604000 0 255 0
-5.620000 7.880000 28.600000 0 255 0
-5.654000 7.826000 1.662000 0 255 255
-7.663300 8.193300 14.006700 0 255 0
-7.800000 8.095000 2.245000 0 255 255
-5.860000 8.485000 26.174999 0 255 0
-5.903300 8.421700 2.300000 0 255 255
-5.930000 8.050000 28.420000 0 255 0
-5.894000 9.318000 2.468000 0 255 255
-5.920000 7.810000 23.760000 0 255 0
-7.455000 7.790000 1.745000 0 255 255
-7.400000 8.600000 1.820000 0 255 0
-7.053700 7.741300 20.612499 0 255 0
-7.060600 7.437800 1.610000 0 255 255
-6.864000 7.876000 1.462000 0 255 255
-6.355000 8.030000 25.309999 255 0 0
-5.590000 9.000000 22.070000 0 255 0
-5.380000 7.700000 20.530001 0 255 0
-5.900000 8.640000 19.920000 0 255 0
-5.910900 8.476400 17.007299 0 255 0
-6.640000 8.120000 14.820000 255 0 0
-6.655000 8.090000 11.645000 255 0 0
-7.580000 8.450000 16.799999 0 255 0
-6.030000 8.270000 20.240000 0 255 0
-6.010000 8.338000 17.004000 0 255 0
-7.705000 8.545000 2.160000 0 255 255
-5.780000 7.840000 1.750000 0 255 255
-5.764000 7.762000 11.526000 0 255 0
-7.208300 9.675000 2.420000 0 255 255
-6.603300 8.326700 17.563299 255 0 0
-6.603300 8.398300 14.410000 255 0 0
-6.615000 8.235000 23.690001 0 255 0
-6.610000 8.180000 27.040001 0 255 0
-6.773300 8.720000 23.750000 0 255 0
-6.690000 8.540000 23.719999 0 255 0
-6.700000 8.270000 13.930000 255 0 0
-6.730000 8.320000 10.650000 255 0 0
-5.805000 8.220000 12.500000 0 255 0
-5.975000 9.015000 26.910000 0 255 0
-7.005000 9.615000 2.210000 0 255 255
-6.670000 7.830000 21.510000 0 255 0
-6.670000 7.880000 24.764999 0 255 0
-6.160000 9.040000 28.150000 0 255 0
-6.407700 7.679200 14.622300 0 255 0
-6.395000 7.930000 23.995001 0 255 0
-6.465000 9.025000 26.309999 0 255 0
-6.457100 8.985700 23.262899 0 255 0
-6.250000 8.060000 16.889999 0 255 0
-6.250000 8.150000 20.049999 0 255 0
-5.670000 7.820000 18.719999 0 255 0
-5.762500 8.830000 19.770000 0 255 0
-6.265000 8.235000 19.295000 255 0 0
-6.262500 8.179800 16.064501 255 0 0
-5.712000 8.577000 17.046000 0 255 0
-5.613500 8.031500 14.322500 0 255 0
-5.320000 8.090000 18.940001 0 255 0
-6.460000 7.500000 21.770000 0 255 0
-5.320000 8.280000 18.680000 0 255 0
-6.010000 9.150000 2.375000 0 255 255
-5.511700 8.320000 15.646700 0 255 0
-5.930000 9.090000 1.880000 0 255 255
-6.930000 9.495000 2.650000 0 255 255
-7.000000 9.230000 2.460000 0 255 255
-6.655000 8.517500 11.652500 0 255 0
-6.654300 8.378600 2.110700 255 0 0
-7.258000 9.670000 2.424000 0 255 255
-7.730000 8.850000 2.430000 0 255 255
-5.913300 9.033300 1.996700 0 255 255
-5.880000 7.640000 28.730000 0 255 0
-6.043300 8.933300 1.800000 0 255 255
-5.995000 8.785000 1.790000 0 255 0
-6.260000 8.220000 20.570000 255 0 0
-6.155000 7.575000 22.719999 0 255 0
-7.558500 8.384200 15.807700 0 255 0
-7.562500 8.377500 15.902500 0 255 0
-6.790000 7.890000 9.590000 0 255 0
-6.820000 8.070000 22.670000 0 255 0
-6.790000 8.390000 2.050000 255 0 0
-5.961700 8.323300 1.665000 0 255 255
-5.855900 9.492300 2.750000 0 255 255
-6.850000 8.360000 6.100000 255 0 0
-6.160000 8.290000 29.150000 0 255 0
-6.190000 8.120000 19.719999 0 255 0
-6.558600 8.521400 11.961400 255 0 0
-6.543300 8.643300 5.473300 255 0 0
-6.560000 7.620000 20.510000 0 255 0
-6.556700 8.777800 2.463300 255 0 0
-6.050900 7.832700 1.716400 0 255 255
-6.610000 8.060000 9.450000 0 255 0
-6.596700 8.033300 12.704400 0 255 0
-6.967100 7.584100 1.459400 0 255 255
-6.617500 7.990400 1.808300 0 255 255
-6.095000 8.645000 19.775000 0 255 0
-7.200000 8.875000 1.830000 0 255 0
-6.706700 8.576700 19.910000 0 255 0
-7.593300 8.696700 2.190000 0 255 255
-5.957500 8.328700 20.462500 0 255 0
-5.880000 8.440000 28.590000 0 255 0
-6.060000 8.186700 20.326700 0 255 0
-6.040000 8.130000 17.180000 0 255 0
-5.606700 8.233300 2.180000 0 255 255
-5.480000 7.660000 14.530000 0 255 0
-5.670000 8.200000 2.170000 0 255 255
-6.930000 8.920000 1.890000 0 255 0
-6.730000 8.420000 6.720000 255 0 0
-6.775000 9.095000 2.470000 0 255 255
-7.360000 7.870000 23.320000 0 255 0
-6.798000 8.334000 10.504000 255 0 0
-5.610000 8.245000 28.620001 0 255 0
-6.930000 8.410000 27.600000 0 255 0
-5.996700 8.586700 28.799999 0 255 0
-5.700000 9.090000 2.330000 0 255 255
-5.920000 8.700000 28.280001 0 255 0
-6.130000 8.300000 19.940001 0 255 0
-6.080000 8.060000 26.139999 0 255 0
-6.055000 8.385000 19.830000 0 255 0
-5.350000 8.300000 19.830000 0 255 0
-5.713600 8.333600 17.025000 0 255 0
-6.747100 9.731400 2.765700 0 255 255
-5.311400 8.376400 19.957899 0 255 0
-5.722500 8.587500 19.327499 0 255 0
-6.460000 9.773800 2.455000 0 255 255
-6.795700 8.335000 8.463600 255 0 0
-6.855000 9.815000 2.420000 0 255 255
-6.454700 8.529000 7.713500 255 0 0
-7.024300 7.290000 25.951401 0 255 0
-7.480000 8.890000 17.610001 0 255 0
-7.107500 8.278700 1.603700 0 255 0
-7.455000 8.920000 17.295000 0 255 0
-7.160000 8.310000 25.840000 0 255 0
-7.170000 8.175000 1.770000 0 255 255
-7.330000 7.790000 17.530001 0 255 0
-6.846700 8.063300 2.196700 0 255 255
-6.850000 8.167800 8.496700 0 255 0
-6.665000 8.685000 19.809999 0 255 0
-6.415000 9.690000 2.115000 0 255 255
-6.615600 8.273300 15.316700 255 0 0
-6.622000 8.228000 18.566000 255 0 0
-6.640000 7.090000 19.450001 0 255 0
-6.250000 8.185000 27.760000 0 255 0
-7.666700 8.043300 15.701700 0 255 0
-5.523300 8.933300 21.126699 0 255 0
-6.958300 7.880000 1.463300 0 255 255
-6.350000 7.580000 26.730000 0 255 0
-7.110000 9.687500 2.210000 0 255 255
-5.740000 8.290000 17.100000 0 255 0
-5.795000 7.690000 1.610000 0 255 255
-5.330000 8.540000 24.520000 0 255 0
-7.306000 9.620000 2.702000 0 255 255
-5.716400 8.438200 2.263600 0 255 255
-6.526700 8.086700 1.703300 0 255 255
-6.170000 9.110000 26.879999 0 255 0
-6.111700 9.563300 2.426700 0 255 255
-6.850000 9.720000 2.095000 0 255 255
-6.675000 7.725000 25.770000 0 255 0
-6.310000 8.400000 19.379999 255 0 0
-6.290000 8.420000 16.090000 255 0 0
-6.105000 8.527500 28.860001 0 255 0
-5.457300 8.582000 2.017300 0 255 255
-5.940000 8.760000 2.260000 0 255 0
-6.980000 9.040000 24.270000 0 255 0
-6.418600 7.691400 9.702900 0 255 0
-7.295000 9.595000 2.365000 0 255 255
-7.430000 9.210000 2.160000 0 255 255
-7.763300 9.034200 2.260000 0 255 255
-6.803300 8.926700 22.153299 0 255 0
-7.280000 8.030000 28.430000 0 255 0
-7.540000 8.220000 16.750000 0 255 0
-6.490000 8.360000 11.040000 255 0 0
-7.055500 9.430000 2.266500 0 255 255
-7.480000 8.150000 25.990000 0 255 0
-7.440000 8.050000 19.530001 0 255 0
-7.070000 8.950000 25.330000 0 255 0
-6.460000 8.930000 19.400000 0 255 0
-5.506000 8.074000 1.716000 0 255 255
-7.560000 8.516200 15.863700 0 255 0
-6.560000 8.200000 8.700000 255 0 0
-7.430000 8.470000 15.780000 0 255 0
-6.850000 8.300000 9.600000 255 0 0
-6.160000 7.850000 21.400000 0 255 0
-6.110000 7.970000 23.790001 0 255 0
-6.910000 8.380000 19.590000 0 255 0
-6.840000 8.280000 12.480000 255 0 0
-6.667100 8.020000 1.612900 0 255 255
-5.800000 8.330000 22.100000 0 255 0
-5.815000 9.071700 25.903299 0 255 0
-6.750000 9.060000 1.910000 0 255 0
-6.143300 7.033300 23.463301 0 255 0
-6.860000 8.400000 20.293301 0 255 0
-5.962000 8.188000 1.656000 0 255 255
-6.220000 8.320000 22.610001 0 255 0
-6.230000 8.240000 29.120001 0 255 0
-6.760000 8.310000 16.190001 0 255 0
-7.610700 8.231100 16.557501 0 255 0
-6.500000 8.040000 12.220000 255 0 0
-5.763800 8.175400 17.057699 0 255 0
-6.400000 8.015000 1.815000 0 255 255
-7.180000 8.420000 27.969999 0 255 0
-5.550000 8.330000 1.912500 0 255 255
-5.470000 7.430000 21.700001 0 255 0
-5.758000 8.620000 19.354000 0 255 0
-5.623300 8.166700 1.506700 0 255 255
-5.560000 8.443300 1.700000 0 255 255
-5.970000 8.435000 20.545000 0 255 0
-6.205700 7.878600 1.560000 0 255 255
-6.200000 7.642500 17.445000 0 255 0
-5.515000 8.575000 1.810000 0 255 255
-6.717000 7.935000 1.558000 0 255 255
-6.753300 8.083300 1.656700 0 255 255
-7.216700 9.132200 1.910000 0 255 255
-6.490000 7.900000 2.290000 0 255 255
-6.840000 8.470000 6.020000 255 0 0
-5.580000 8.180000 1.800000 0 255 255
-6.740000 9.670000 2.280000 0 255 255
-6.830000 8.170000 23.740000 0 255 0
-6.930000 8.500000 23.240000 0 255 0
-7.094000 7.736000 1.608000 0 255 255
-7.120000 8.113300 26.900000 0 255 0
-5.880000 8.290000 28.670000 0 255 0
-6.390000 8.120000 28.129999 255 0 0
-6.400000 8.180000 24.959999 255 0 0
-6.100000 7.345000 17.555000 0 255 0
-6.220000 7.830000 1.450000 0 255 255
-6.220000 7.580000 18.093300 0 255 0
-6.770000 7.980000 1.680000 0 255 255
-5.510000 8.364300 1.870000 0 255 255
-6.811400 7.572900 1.570700 0 255 255
-6.960900 7.481800 1.515500 0 255 255
-7.030000 7.210000 27.650000 0 255 0
-7.001700 7.630000 1.560000 0 255 255
-6.820000 7.220000 27.809999 0 255 0
-6.813300 7.646700 1.703300 0 255 255
-7.515000 9.270000 1.975000 0 255 255
-6.990000 7.760000 28.730000 0 255 0
-7.450000 8.360000 15.680000 0 255 0
-6.800000 8.210000 7.500000 255 0 0
-6.810000 8.180000 10.670000 255 0 0
-6.614500 8.479100 17.360001 0 255 0
-7.215700 8.584300 1.817100 0 255 0
-7.210000 8.680000 20.360001 0 255 0
-7.118300 7.766700 21.756701 0 255 0
-7.040000 7.440000 27.900000 0 255 0
-5.310000 8.191100 19.860001 0 255 0
-6.470000 7.650000 1.740000 0 255 255
-6.480000 7.963300 23.793301 0 255 0
-6.205000 9.085000 28.155001 0 255 0
-5.760000 9.082500 1.860000 0 255 255
-5.763300 8.786700 21.030001 0 255 0
-5.620000 7.640000 14.630000 0 255 0
-5.770000 7.534000 23.804001 0 255 0
-5.545000 7.900000 1.795000 0 255 255
-6.710000 7.725000 1.575000 0 255 255
-6.710000 7.145000 15.415000 0 255 0
-6.475000 7.840000 1.500000 0 255 255
-6.050000 7.940000 1.790000 0 255 255
-6.901700 7.580000 1.461700 0 255 255
-6.903000 7.536000 1.550500 0 255 255
-6.600000 7.780000 1.470000 0 255 255
-5.705000 8.130000 1.750000 0 255 255
-5.700000 7.940000 14.410000 0 255 0
-6.870000 7.820000 1.780000 0 255 255
-6.075000 8.380000 21.500000 0 255 0
-5.930000 8.285000 1.625000 0 255 255
-6.070000 8.560000 20.879999 0 255 0
-6.045000 8.685000 1.722500 0 255 0
-7.750000 7.965000 1.695000 0 255 255
-5.766000 9.423000 2.501000 0 255 255
-7.060000 8.443300 1.813300 0 255 0
-7.066700 8.686700 17.356701 0 255 0
-5.762800 9.435200 2.463200 0 255 255
-7.340000 9.390000 2.300000 0 255 255
-7.140000 7.640000 20.240000 0 255 0
-7.559700 8.432400 15.861700 0 255 0
-7.770000 8.540000 2.410000 0 255 255
-7.000000 9.730000 2.270000 0 255 255
-6.611300 8.485000 12.510000 255 0 0
-5.895000 9.460000 2.820000 0 255 255
-6.300000 7.825000 23.844999 0 255 0
-6.300000 7.730000 17.370001 0 255 0
-6.313300 7.380000 1.793300 0 255 255
-5.955000 8.630000 28.850000 0 255 0
-5.813000 9.026000 19.900000 0 255 0
-5.675000 9.080000 19.480000 0 255 0
-6.106000 8.532000 20.364000 0 255 0
-6.323600 7.021800 14.598200 0 255 0
-6.790000 7.590000 1.390000 0 255 255
-7.270000 7.595000 20.665001 0 255 0
-6.050000 8.590000 20.959999 0 255 0
-6.963300 7.726700 1.455000 0 255 255
-7.722500 7.945000 1.552500 0 255 255
-6.405000 8.430000 17.525000 255 0 0
-6.413300 9.470000 1.963300 0 255 255
-6.400000 8.090000 14.210000 255 0 0
-7.263300 8.426700 19.826700 0 255 0
-7.280000 8.380000 16.559999 0 255 0
-6.330000 8.320000 4.610000 255 0 0
-6.302000 8.166000 1.520000 0 255 0
-6.325000 8.385000 14.160000 255 0 0
-7.380000 8.380000 1.790000 0 255 0
-6.480000 8.320000 22.080000 255 0 0
-6.440000 8.470000 28.620001 0 255 0
-6.890000 8.760000 23.809999 0 255 0
-6.450000 8.310000 19.139999 255 0 0
-6.480000 8.470000 28.719999 0 255 0
-6.530000 8.370000 17.620001 255 0 0
-6.520000 8.320000 20.770000 255 0 0
-6.760000 9.020000 1.900000 0 255 0
-6.520000 8.240000 5.790000 255 0 0
-6.511800 8.828200 19.272699 0 255 0
-6.355000 7.665000 1.797500 0 255 255
-6.675000 9.010000 1.965000 0 255 0
-6.210000 7.900000 27.549999 0 255 0
-6.200000 7.970000 1.680000 0 255 255
-6.360000 8.295000 18.860001 255 0 0
-6.360000 8.320000 22.020000 255 0 0
-6.356700 8.633300 28.573299 0 255 0
-6.370000 8.370000 12.380000 255 0 0
-6.358800 8.425000 15.501200 255 0 0
-7.207300 9.590000 2.406400 0 255 255
-6.380000 8.020000 18.049999 0 255 0
-6.530000 7.020000 28.020000 0 255 0
-5.550600 9.222900 2.650000 0 255 255
-6.310000 7.990000 28.889999 0 255 0
-6.290000 8.040000 25.740000 255 0 0
-6.370000 7.850000 28.490000 0 255 0
-6.370000 7.488300 19.299999 0 255 0
-6.330000 7.880000 28.620001 0 255 0
-6.216200 7.978500 19.956200 0 255 0
-6.360000 8.010000 28.740000 0 255 0
-6.360000 7.730000 22.030001 0 255 0
-6.913300 7.780000 21.566700 0 255 0
-6.910000 7.750000 24.820000 0 255 0
-7.606000 8.122000 16.808001 0 255 0
-7.000000 8.460000 18.150000 0 255 0
-6.994000 9.628000 2.316000 0 255 255
-7.505700 8.485700 16.860001 0 255 0
-6.040000 8.390000 1.560000 0 255 255
-5.760000 8.860000 19.730000 0 255 0
-5.511700 8.981700 19.766701 0 255 0
-6.250000 8.200000 23.610001 255 0 0
-6.050000 8.510000 19.225000 0 255 0
-6.070000 8.040000 19.770000 0 255 0
-6.430000 7.890000 27.070000 0 255 0
-6.425000 8.040000 17.504999 0 255 0
-6.424400 7.471100 1.768900 0 255 255
-6.395000 7.932500 23.815001 0 255 0
-5.408000 8.120000 18.666000 0 255 0
-6.220000 7.950000 23.900000 0 255 0
-6.666700 8.123300 26.670000 0 255 0
-6.280000 8.930000 28.629999 0 255 0
-5.512000 8.478000 2.202400 0 255 255
-5.710000 8.874000 19.816000 0 255 0
-6.203800 8.138700 14.206200 0 255 0
-5.910000 8.130000 20.330000 0 255 0
-5.640000 8.995000 19.559999 0 255 0
-5.507500 7.567500 14.707500 0 255 0
-6.200000 8.270000 24.350000 255 0 0
-5.430000 8.620000 27.450001 0 255 0
-6.812500 7.480000 1.463800 0 255 255
-7.605700 8.927100 2.204300 0 255 255
-5.580000 8.670000 1.810000 0 255 255
-6.660000 8.620000 9.325000 255 0 0
-6.650000 9.340000 1.950000 0 255 255
-6.806000 9.286000 1.916000 0 255 255
-6.805000 8.622500 20.065001 0 255 0
-5.845000 7.590000 16.495001 0 255 0
-5.553300 9.220000 1.850000 0 255 255
-7.710000 8.287500 15.955000 0 255 0
-5.806700 7.636700 23.806700 0 255 0
-6.852500 9.497500 2.172500 0 255 255
-6.908000 9.442000 2.267000 0 255 255
-5.510000 8.387500 2.115000 0 255 255
-6.610000 7.130000 28.059999 0 255 0
-6.490000 7.250000 19.639999 0 255 0
-6.106700 7.583300 22.673300 0 255 0
-6.360000 7.735000 22.070000 0 255 0
-5.956300 8.736300 18.754400 0 255 0
-6.150000 7.340000 28.920000 0 255 0
-5.654000 8.164000 12.503000 0 255 0
-5.500000 8.500000 26.280001 0 255 0
-7.608500 8.035400 16.562300 0 255 0
-7.150000 9.340000 2.350000 0 255 255
-6.313300 8.315000 17.906700 255 0 0
-6.315000 8.178700 14.605000 255 0 0
-6.515000 8.020000 18.905001 0 255 0
-6.510000 8.080000 15.680000 255 0 0
-6.000000 9.400000 2.340000 0 255 255
-7.560000 8.700000 17.340000 0 255 0
-6.203300 8.570000 19.856701 0 255 0
-5.800000 8.940000 1.810000 0 255 255
-6.020000 9.230000 2.460000 0 255 255
-5.680000 8.810000 1.870000 0 255 255
-5.900000 8.830000 25.790001 0 255 0
-6.360000 7.885000 14.710000 0 255 0
-6.370000 7.680000 1.640000 0 255 255
-6.368100 7.936900 17.971901 0 255 0
-5.865000 7.910000 26.120001 0 255 0
-7.850000 8.550000 1.820000 0 255 255
-5.930000 7.860000 1.780000 0 255 255
-5.812500 7.590000 23.805000 0 255 0
-6.830000 8.630000 20.219999 0 255 0
-5.920000 7.925000 27.889999 0 255 0
-6.167500 7.775000 25.760000 0 255 0
-6.208700 9.675000 2.097500 0 255 255
-6.870000 9.500000 2.120000 0 255 255
-6.561100 9.716700 2.257800 0 255 255
-6.570000 9.713300 2.220000 0 255 255
-5.458700 8.368800 2.301200 0 255 255
-6.618200 7.231400 15.310900 0 255 0
-6.690000 7.300000 18.730000 0 255 0
-6.600000 7.210000 19.719999 0 255 0
-6.380000 7.700000 9.660000 0 255 0
-6.096700 7.973300 20.023300 0 255 0
-6.417100 7.871000 9.562900 0 255 0
-5.496700 7.690000 28.606701 0 255 0
-7.615500 7.876500 13.154500 0 255 0
-7.462900 7.874300 22.957100 0 255 0
-7.460800 7.735000 13.068300 0 255 0
-6.520000 7.910000 9.840000 0 255 0
-6.503300 8.030000 16.156700 0 255 0
-6.500000 8.086700 13.026700 255 0 0
-6.420000 8.410000 19.330000 255 0 0
-6.420000 8.335000 25.825001 0 255 0
-6.430000 8.100000 16.420000 255 0 0
-6.410000 8.250000 6.680000 255 0 0
-6.430000 8.165000 9.920000 255 0 0
-6.418000 8.140000 13.154000 255 0 0
-6.456700 7.476700 1.665000 0 255 255
-6.465000 8.082500 14.305000 255 0 0
-6.710000 8.560000 20.090000 0 255 0
-6.370000 8.140000 22.254999 255 0 0
-6.380000 8.180000 12.810000 255 0 0
-6.356300 8.221900 15.958100 0 255 0
-6.350000 9.265000 23.660000 0 255 0
-6.757000 8.482000 10.164000 255 0 0
-6.750000 8.250000 6.560000 255 0 0
-5.430000 8.890000 2.150000 0 255 255
-6.754000 8.380000 11.964000 255 0 0
-6.755000 8.525600 8.607200 255 0 0
-6.774000 8.482700 5.467300 0 255 0
-6.760000 7.890000 20.490000 0 255 0
-6.120000 7.870000 24.230000 0 255 0
-7.090000 7.600000 21.870001 0 255 0
-6.003300 9.080000 28.146700 0 255 0
-6.017300 9.481300 2.053300 0 255 255
-6.340000 8.800000 19.830000 0 255 0
-6.380000 8.570000 7.180000 255 0 0
-6.550000 7.320000 16.900000 0 255 0
-6.570000 8.060000 26.120001 0 255 0
-5.840000 8.040000 26.730000 0 255 0
-6.360000 8.333000 14.508000 255 0 0
-7.313300 9.223300 1.950000 0 255 255
-6.910000 9.025000 24.160000 0 255 0
-5.865000 7.675000 28.990000 0 255 0
-6.100000 7.840000 11.520000 0 255 0
-6.130000 7.690000 20.930000 0 255 0
-6.153300 9.633300 2.113300 0 255 255
-7.480000 9.450000 2.240000 0 255 255
-6.310000 7.780000 2.070000 0 255 255
-5.470000 8.940000 2.166700 0 255 255
-5.515000 8.625000 1.815000 0 255 255
-6.940000 9.580000 2.230000 0 255 255
-5.723300 7.786700 18.730000 0 255 0
-7.066400 9.527600 2.353600 0 255 255
-5.500000 7.430000 23.309999 0 255 0
-6.560000 8.330000 17.280001 255 0 0
-6.550000 8.470000 14.220000 255 0 0
-6.380000 8.680000 3.780000 255 0 0
-7.503300 7.673300 1.520000 0 255 255
-6.710000 7.420000 28.170000 0 255 0
-6.390000 8.320000 23.639999 0 255 0
-6.417500 8.422500 17.150000 255 0 0
-6.400000 8.360000 20.290001 255 0 0
-6.400000 8.092500 13.752500 255 0 0
-6.360000 8.285000 23.315001 255 0 0
-6.363300 8.390000 17.016701 255 0 0
-6.362500 8.142500 13.922500 255 0 0
-7.280000 8.560000 20.209999 0 255 0
-7.266700 8.640000 23.273300 0 255 0
-7.250000 8.540000 16.940001 0 255 0
-5.768300 8.044200 14.273300 0 255 0
-6.540000 8.475000 28.605000 0 255 0
-5.495000 7.540000 18.870001 0 255 0
-6.580000 7.600000 19.860001 0 255 0
-7.165000 7.680000 21.905001 0 255 0
-6.980000 7.600000 21.860001 0 255 0
-5.780000 8.720000 2.290000 0 255 255
-6.346700 8.776700 19.856701 0 255 0
-6.751900 8.620400 4.109300 255 0 0
-7.320000 8.025000 12.555000 0 255 0
-7.320000 8.380000 26.520000 0 255 0
-6.950000 8.190000 26.350000 0 255 0
-6.220000 8.070000 16.160000 0 255 0
-6.903300 8.536700 27.549999 0 255 0
-6.556700 8.080000 9.750000 0 255 0
-6.580000 7.980000 16.240000 0 255 0
-6.580000 7.750000 25.760000 0 255 0
-6.290000 7.860000 23.770000 0 255 0
-6.300000 7.780000 17.396700 0 255 0
-5.920000 7.775000 21.520000 0 255 0
-6.360000 7.535000 14.705000 0 255 0
-5.522700 8.684700 2.058000 0 255 255
-7.105000 9.477500 2.350000 0 255 255
-6.408000 8.025000 9.523000 0 255 0
-5.260000 8.075000 18.455000 0 255 0
-6.450000 8.030000 18.920000 0 255 0
-5.700000 7.886700 28.653299 0 255 0
-6.790000 7.280000 28.230000 0 255 0
-6.913300 8.335000 20.110001 0 255 0
-6.920000 8.230000 13.590000 0 255 0
-7.258600 8.270000 20.110001 0 255 0
-7.257400 8.228700 16.856501 0 255 0
-6.995000 7.495000 27.945000 0 255 0
-5.816700 8.335000 16.911699 0 255 0
-5.450000 8.200000 25.900000 0 255 0
-6.370000 7.760000 19.250000 0 255 0
-5.740000 8.490000 19.376699 0 255 0
-7.360000 8.890000 17.020000 0 255 0
-6.665000 8.688600 3.510000 255 0 0
-5.720000 9.370000 1.790000 0 255 255
-7.465000 8.332500 16.770000 0 255 0
-5.605000 8.085000 12.615000 0 255 0
-6.050000 9.317500 2.265000 0 255 255
-6.053300 7.535600 1.576700 0 255 255
-6.072500 7.377500 17.469999 0 255 0
-5.810000 8.240000 22.150000 0 255 0
-5.800000 8.110000 28.459999 0 255 0
-6.027500 9.640000 2.045000 0 255 255
-5.948000 7.578000 28.966000 0 255 0
-5.505000 8.571900 2.061900 0 255 255
-6.140000 7.330000 2.510000 0 255 255
-5.563300 8.716700 27.270000 0 255 0
-5.980000 8.380000 15.650000 0 255 0
-5.870000 7.215000 22.850000 0 255 0
-5.913100 7.927700 16.126200 0 255 0
-5.350000 7.660000 28.190001 0 255 0
-7.770000 8.372500 1.750000 0 255 255
-6.740000 8.260000 4.970000 255 0 0
-6.740000 8.180000 11.470000 255 0 0
-6.762000 8.327800 8.208200 255 0 0
-6.280000 8.350000 26.360001 0 255 0
-6.270000 8.170000 16.570000 255 0 0
-6.272000 8.228000 19.809999 255 0 0
-6.258700 8.093000 10.058700 0 255 0
-7.661200 8.482500 15.993800 0 255 0
-6.730000 8.080000 26.709999 0 255 0
-6.380000 8.531000 2.508000 255 0 0
-6.410000 8.424000 17.818001 255 0 0
-6.415000 8.135000 11.480000 255 0 0
-6.415600 8.081100 14.702200 255 0 0
-7.110000 8.737500 17.107500 0 255 0
-6.600000 7.320000 28.020000 0 255 0
-6.606500 7.531600 15.361600 0 255 0
-6.550000 8.490000 22.090000 0 255 0
-5.756700 8.870000 19.940001 0 255 0
-7.710000 8.800000 2.890000 0 255 255
-6.770000 9.775000 2.510000 0 255 255
-6.712700 9.773300 2.798700 0 255 255
-6.470000 7.177500 28.162500 0 255 0
-6.354100 8.024800 9.520000 0 255 0
-5.650000 8.330000 17.190001 0 255 0
-6.310000 8.090000 22.760000 255 0 0
-6.517500 8.390000 17.264999 255 0 0
-7.160000 7.836100 1.908700 0 255 255
-5.670000 8.350000 24.900000 0 255 0
-6.590000 8.100000 23.209999 255 0 0
-6.010000 8.495000 28.702499 0 255 0
-7.140000 7.840000 17.480000 0 255 0
-7.166200 7.578700 1.568800 0 255 255
-6.870000 8.570000 1.930000 0 255 0
-6.340000 9.700000 2.780000 0 255 255
-5.620000 9.040000 19.000000 0 255 0
-6.795000 8.285000 9.225000 255 0 0
-6.793300 8.340000 5.950000 255 0 0
-6.760000 8.200000 13.850000 255 0 0
-6.760000 8.328600 10.607900 255 0 0
-6.748900 8.286700 7.363300 255 0 0
-7.268600 8.280000 1.954300 0 255 255
-6.846700 8.720000 18.706699 0 255 0
-7.466700 7.992200 12.563300 0 255 0
-5.866900 8.373100 2.206900 0 255 255
-7.170000 8.180000 13.695000 0 255 0
-5.858300 9.535000 2.205000 0 255 255
-7.000900 8.289100 14.270000 0 255 0
-5.520000 8.220000 23.440001 0 255 0
-6.470000 7.740000 18.730000 0 255 0
-6.480000 7.760000 21.980000 0 255 0
-6.456000 8.084000 15.210000 255 0 0
-5.670000 7.950000 14.370000 0 255 0
-6.030000 7.485000 1.795000 0 255 255
-5.957500 8.384200 17.010799 0 255 0
-6.802500 8.277500 2.162500 0 255 0
-6.890000 8.390000 20.950001 0 255 0
-7.403300 9.174400 1.911100 0 255 255
-6.830000 8.200000 12.710000 255 0 0
-6.808000 8.478000 19.256001 0 255 0
-5.807300 8.577300 2.315500 0 255 255
-7.180000 8.470000 19.870001 0 255 0
-6.176700 8.130000 19.873301 0 255 0
-5.455000 8.316700 15.618300 0 255 0
-5.470000 8.460000 25.430000 0 255 0
-5.758900 9.328900 2.553700 0 255 255
-7.720000 8.500000 1.980000 0 255 255
-6.158300 8.586700 28.701700 0 255 0
-6.350000 8.030000 23.620001 255 0 0
-6.351700 7.481700 1.666700 0 255 255
-6.705000 7.170000 20.471300 0 255 0
-6.660000 7.440000 1.860000 0 255 255
-7.245000 8.210000 19.415001 0 255 0
-7.262000 8.190000 16.260000 0 255 0
-7.100000 8.570000 20.030001 0 255 0
-7.115000 8.640000 16.861700 0 255 0
-5.950000 8.270000 20.260000 0 255 0
-5.968300 8.026700 16.846701 0 255 0
-6.473300 8.430000 16.959999 255 0 0
-6.450000 8.120000 23.510000 255 0 0
-6.460000 8.390000 13.700000 255 0 0
-6.459800 8.325600 10.460000 255 0 0
-6.520000 8.512000 11.910000 255 0 0
-6.513300 8.576700 8.755000 255 0 0
-7.276000 7.986000 1.720000 0 255 255
-6.663300 8.070000 11.720000 255 0 0
-5.911200 7.528800 1.905400 0 255 255
-5.763300 8.176700 23.293301 0 255 0
-5.822500 7.672500 1.920000 0 255 255
-5.756700 8.280700 17.016300 0 255 0
-6.560000 7.123300 19.116699 0 255 0
-6.564200 7.233700 12.600400 0 255 0
-5.490000 8.660000 1.750000 0 255 255
-6.506700 8.383300 17.700001 255 0 0
-7.120000 7.920000 28.549999 0 255 0
-6.650000 8.320000 24.650000 0 255 0
-6.658000 8.192000 15.012000 255 0 0
-7.170000 8.150000 26.510000 0 255 0
-7.170000 8.230000 20.004999 0 255 0
-7.164800 8.181300 16.854799 0 255 0
-5.711700 7.527800 16.511101 0 255 0
-6.907500 8.073800 18.698700 0 255 0
-5.890000 8.560000 1.960000 0 255 255
-6.170000 7.080000 28.170000 0 255 0
-7.120000 9.350000 2.030000 0 255 255
-6.751400 8.522100 9.670000 0 255 0
-6.773300 8.486700 6.396700 255 0 0
-6.770000 7.940000 22.700001 0 255 0
-5.730000 7.980000 1.990000 0 255 255
-6.470000 8.086700 14.003300 255 0 0
-6.456000 7.478000 1.766000 0 255 255
-6.470000 7.840000 23.830000 0 255 0
-5.960000 7.970000 16.820000 0 255 0
-5.961700 8.026700 19.955000 0 255 0
-7.680000 8.550000 16.090000 0 255 0
-6.145000 8.625000 28.709999 0 255 0
-5.660000 8.380000 17.020000 0 255 0
-5.770000 9.220000 19.760000 0 255 0
-7.204400 7.973100 18.760599 0 255 0
-6.956700 8.393300 19.870001 0 255 0
-6.990000 8.180000 26.420000 0 255 0
-6.730000 7.965000 1.670000 0 255 255
-7.668300 8.373500 2.258700 0 255 255
-6.790000 8.300000 10.460000 0 255 0
-6.797500 8.522500 19.967501 0 255 0
-6.807500 8.340000 7.306200 255 0 0
-6.130000 8.490000 1.670000 0 255 0
-6.114000 8.382000 21.414000 0 255 0
-6.750000 8.225000 8.655000 255 0 0
-6.990000 8.860000 17.410000 0 255 0
-6.405000 8.440000 18.010000 255 0 0
-6.410000 8.100000 14.510000 255 0 0
-7.210000 8.465700 1.868600 0 255 0
-7.043300 8.296700 14.273300 0 255 0
-5.898900 7.830000 16.202200 0 255 0
-7.322500 7.577500 18.055000 0 255 0
-5.940000 9.075000 2.175000 0 255 255
-5.710000 8.720000 20.044001 0 255 0
-5.870000 8.530000 2.140000 0 255 255
-7.820000 8.473300 2.656700 0 255 255
-5.850000 7.800000 27.719999 0 255 0
-5.861800 7.680000 21.557301 0 255 0
-5.810000 8.325000 24.410000 0 255 0
-5.817900 8.682100 2.315000 0 255 255
-5.880000 8.120000 21.750000 0 255 0
-6.740000 8.615000 7.625000 255 0 0
-6.763100 8.578900 4.358100 255 0 0
-6.770000 8.320000 27.209999 0 255 0
-6.610000 9.130000 27.020000 0 255 0
-5.720000 8.910000 2.230000 0 255 255
-6.340000 8.820000 24.400000 0 255 0
-6.718600 8.382900 12.107100 255 0 0
-6.710000 7.920000 25.100000 0 255 0
-6.714000 8.344000 2.204000 255 0 0
-6.699200 8.290000 5.366700 255 0 0
-7.061300 7.835000 20.466200 0 255 0
-6.793300 7.725000 9.513300 0 255 0
-6.690000 9.030000 1.850000 0 255 0
-7.505000 8.880000 1.912500 0 255 255
-6.655600 8.130000 11.863300 255 0 0
-6.655000 7.565000 27.594999 0 255 0
-6.664700 7.988200 2.308200 0 255 255
-6.654000 8.136700 12.054700 255 0 0
-6.250000 7.870000 1.850000 0 255 255
-6.254000 8.032000 11.518000 0 255 0
-5.811500 8.143000 12.425000 0 255 0
-6.410000 8.190000 22.969999 255 0 0
-6.400000 8.110000 26.129999 255 0 0
-6.320000 8.060000 26.280001 255 0 0
-6.315000 8.125000 23.100000 255 0 0
-6.110000 7.850000 28.730000 0 255 0
-6.317500 8.273300 14.559200 255 0 0
-7.153300 8.726700 17.001699 0 255 0
-5.817500 8.485000 19.357500 0 255 0
-6.430000 7.840000 19.270000 0 255 0
-5.763300 7.526700 27.296700 0 255 0
-6.645000 9.645000 2.805000 0 255 255
-6.990000 8.600000 28.020000 0 255 0
-7.450000 9.080000 2.490000 0 255 255
-6.010000 8.290000 27.049999 0 255 0
-7.490000 9.315000 2.430000 0 255 255
-6.790000 8.275000 9.915000 255 0 0
-6.796700 8.348300 6.651700 255 0 0
-6.790000 8.290000 10.003300 255 0 0
-6.800000 8.540000 19.430000 0 255 0
-6.790000 8.335000 6.762500 255 0 0
-5.500000 8.230000 26.870001 0 255 0
-5.414400 8.033300 19.855600 0 255 0
-6.307500 7.334200 18.120800 0 255 0
-5.850000 8.680000 21.040001 0 255 0
-6.211400 7.131400 19.508600 0 255 0
-5.850000 9.080000 25.955000 0 255 0
-6.424200 8.671100 2.508900 255 0 0
-6.430000 7.490000 28.629999 0 255 0
-5.390000 8.140000 18.580000 0 255 0
-5.390000 8.390000 2.340000 0 255 255
-6.260000 7.080000 28.107500 0 255 0
-6.968300 7.718300 1.611700 0 255 255
-5.856700 8.880000 1.913300 0 255 255
-6.464000 8.031000 1.806000 0 255 255
-7.250000 8.260000 19.670000 0 255 0
-5.440000 8.820000 19.900000 0 255 0
-5.610000 8.976700 2.410000 0 255 255
-7.560000 8.840000 1.950000 0 255 255
-7.251400 8.022900 20.515699 0 255 0
-7.368500 8.476900 2.256200 0 255 0
-5.823300 8.823300 19.823299 0 255 0
-5.773300 8.730000 20.013300 0 255 0
-6.070000 7.465000 2.155000 0 255 255
-6.006700 8.520000 27.510000 0 255 0
-5.302500 8.680000 15.902500 0 255 0
-5.490000 8.580000 24.549999 0 255 0
-5.514300 8.338600 2.171400 0 255 255
-6.312500 7.380000 1.972500 0 255 255
-6.310000 7.381400 26.768600 0 255 0
-6.330000 7.430000 23.620001 0 255 0
-5.513800 8.280000 1.912300 0 255 255
-5.730000 8.160000 26.790001 0 255 0
-5.710000 7.960000 28.549999 0 255 0
-5.857500 8.375000 15.520000 0 255 0
-6.370000 8.000000 23.990000 255 0 0
-6.350000 8.030000 27.240000 255 0 0
-6.368300 7.828300 14.620000 0 255 0
-6.150000 7.250000 18.320000 0 255 0
-6.203300 7.430000 19.666700 0 255 0
-5.940000 9.580000 2.610000 0 255 255
-5.570000 9.070000 21.530001 0 255 0
-5.565000 8.990000 1.965000 0 255 255
-5.860000 7.190000 23.360001 0 255 0
-5.855000 7.930000 20.040001 0 255 0
-6.305000 8.315000 1.610000 0 255 0
-6.430000 8.690000 4.000000 255 0 0
-5.470000 7.680000 28.450001 0 255 0
-5.717800 8.280000 17.012199 0 255 0
-6.501800 8.738200 2.315500 255 0 0
-6.600000 8.280000 18.305000 255 0 0
-6.612900 8.334300 15.008600 255 0 0
-6.650000 8.560000 11.980000 255 0 0
-6.066800 7.523600 1.907600 0 255 255
-5.970000 9.000000 20.100000 0 255 0
-6.070000 7.140000 13.780000 0 255 0
-7.497500 8.792500 2.102500 0 255 255
-6.120000 9.575000 2.440000 0 255 255
-7.520000 9.077000 2.159000 0 255 255
-5.390000 8.170000 18.660000 0 255 0
-5.420000 8.430000 2.100000 0 255 255
-5.450000 8.116000 18.705999 0 255 0
-5.461300 8.041000 12.571000 0 255 0
-5.703300 7.426700 23.830000 0 255 0
-7.000000 9.130000 1.943300 0 255 0
-7.255800 8.928300 17.350800 0 255 0
-5.760000 9.130000 1.790000 0 255 255
-5.690000 7.650000 14.620000 0 255 0
-5.680000 8.160000 16.959999 0 255 0
-5.730000 7.810000 1.970000 0 255 255
-7.410000 8.530000 21.030001 0 255 0
-7.416700 7.982200 1.911100 0 255 255
-5.401300 8.239400 15.653100 0 255 0
-6.020000 8.740000 18.670000 0 255 0
-6.470000 8.610000 19.670000 0 255 0
-5.845000 8.743300 2.266700 0 255 255
-6.165000 8.125000 11.690000 0 255 0
-5.616000 8.826000 19.818001 0 255 0
-5.595000 8.290000 2.360000 0 255 255
-5.715000 8.922500 19.821301 0 255 0
-5.852500 8.827500 2.047500 0 255 255
-6.170000 8.927500 1.969200 0 255 255
-7.807500 8.770000 1.860000 0 255 255
-7.306200 8.425000 2.292500 0 255 0
-5.270000 8.575000 25.049999 0 255 0
-5.350000 8.545000 25.400000 0 255 0
-5.790000 8.940000 1.860000 0 255 255
-6.670000 8.550000 9.910000 255 0 0
-6.650000 7.780000 16.110001 0 255 0
-6.650000 7.940000 25.760000 0 255 0
-7.017500 8.525000 27.565001 0 255 0
-5.810000 8.517500 2.208700 0 255 255
-6.990000 7.900000 21.750000 0 255 0
-7.057300 8.483600 1.911800 0 255 0
-6.212000 8.782000 1.760000 0 255 0
-6.654400 8.613300 8.507800 255 0 0
-6.880000 7.690000 28.719999 0 255 0
-6.406100 7.725000 14.625600 0 255 0
-6.430000 8.000000 24.100000 255 0 0
-6.195000 7.771700 1.858300 0 255 255
-6.852500 7.780000 21.660000 0 255 0
-6.300000 8.180000 25.510000 255 0 0
-6.310000 8.130000 15.940000 255 0 0
-6.072000 8.524000 15.658000 0 255 0
-5.500000 8.960000 2.370000 0 255 255
-7.113900 8.635000 1.908900 0 255 0
-6.324000 7.840000 9.672000 0 255 0
-6.315000 8.020000 22.719999 255 0 0
-7.390000 8.650000 1.830000 0 255 0
-6.170000 9.443300 2.263300 0 255 255
-5.971800 7.782700 1.710900 0 255 255
-6.620000 8.095000 26.155001 0 255 0
-6.161500 7.130000 19.513100 0 255 0
-6.690000 9.110000 25.965000 0 255 0
-6.110000 8.570000 2.040000 0 255 0
-6.745000 8.280000 12.068700 255 0 0
-6.780000 8.930000 1.880000 0 255 0
-6.290000 8.640000 15.700000 0 255 0
-6.570000 8.710000 4.720000 255 0 0
-6.555000 7.528300 27.611700 0 255 0
-6.060000 9.010000 19.980000 0 255 0
-5.840000 8.980000 2.040000 0 255 255
-7.466700 8.993300 2.296700 0 255 255
-7.456200 8.430600 18.202499 0 255 0
-5.815000 9.170000 2.215000 0 255 255
-5.760000 8.520000 2.840000 0 255 255
-5.750000 7.270000 27.370001 0 255 0
-6.050000 7.930000 21.680000 0 255 0
-7.280000 7.900000 28.440001 0 255 0
-6.310000 9.070000 1.900000 0 255 255
-6.660000 8.662500 6.962500 255 0 0
-6.645000 8.170000 25.754999 0 255 0
-7.160000 9.470000 2.056700 0 255 255
-7.314600 8.426900 16.719999 0 255 0
-5.450000 8.220000 19.900000 0 255 0
-7.505000 8.700000 17.465000 0 255 0
-7.605000 8.530000 16.799999 0 255 0
-5.810000 7.540000 19.950001 0 255 0
-5.765000 8.210000 18.075001 0 255 0
-6.840000 7.580000 25.780001 0 255 0
-6.305000 7.780000 21.459999 0 255 0
-5.760000 9.445000 2.370000 0 255 255
-5.960400 9.321300 2.158300 0 255 255
-5.847000 7.689000 11.565000 0 255 0
-5.910000 7.730000 24.070000 0 255 0
-7.014400 9.680000 2.465600 0 255 255
-6.080000 8.680000 20.500000 0 255 0
-6.110000 8.710000 20.320000 0 255 0
-7.520000 9.130000 2.115000 0 255 255
-6.960000 8.390000 18.160000 0 255 0
-6.940000 8.530000 1.840000 0 255 0
-6.556700 7.733300 1.560000 0 255 255
-6.760000 7.715000 1.720000 0 255 255
-7.665000 8.522100 2.171400 0 255 255
-6.380000 8.460000 14.610000 255 0 0
-6.500000 8.220000 1.570000 0 255 0
-6.780000 8.487500 6.502500 255 0 0
-6.752100 8.521400 9.760000 255 0 0
-7.650000 8.800000 2.940000 0 255 255
-5.762900 8.438600 24.812901 0 255 0
-6.600000 8.690000 3.580000 255 0 0
-6.615400 8.584600 9.859200 255 0 0
-6.613100 8.642500 6.713800 255 0 0
-6.030000 8.230000 20.240000 0 255 0
-7.155000 8.825000 16.996700 0 255 0
-5.961200 9.488700 2.060000 0 255 255
-6.690000 7.250000 26.230000 0 255 0
-6.730000 7.700000 9.660000 0 255 0
-7.805700 8.778600 2.295700 0 255 255
-7.755000 8.785000 2.010000 0 255 255
-7.566700 8.185000 2.945000 0 255 255
-7.050000 8.070000 28.379999 0 255 0
-6.960500 8.381400 18.057100 0 255 0
-6.205000 7.595000 23.855000 0 255 0
-6.950000 8.287500 24.352501 0 255 0
-6.910000 8.320000 27.580000 0 255 0
-6.930000 8.440000 8.430000 0 255 0
-6.907500 8.382500 24.327499 0 255 0
-6.915000 8.080000 28.875000 0 255 0
-7.005800 9.434200 2.300800 0 255 255
-6.557500 7.137500 28.165001 0 255 0
-6.450000 8.560000 2.570000 255 0 0
-6.471600 8.624800 5.610800 255 0 0
-6.458000 6.990000 28.010000 0 255 0
-5.910000 8.310000 28.590000 0 255 0
-5.860000 8.420000 27.209999 0 255 0
-5.664000 8.634000 2.058000 0 255 255
-6.267100 7.084300 14.527100 0 255 0
-6.459100 8.020900 1.511800 0 255 255
-6.070000 7.915000 26.075001 0 255 0
-5.808000 7.190000 24.416000 0 255 0
-7.312000 7.884000 23.356001 0 255 0
-6.115000 7.700000 22.629999 0 255 0
-6.130000 8.000000 16.250000 0 255 0
-6.125000 7.640000 25.879999 0 255 0
-7.090000 7.270000 27.620001 0 255 0
-6.568000 8.480000 22.658001 0 255 0
-6.800000 8.150000 27.879999 0 255 0
-6.798300 8.436700 9.658300 255 0 0
-6.791200 8.530000 3.358800 255 0 0
-6.796300 8.475700 6.510300 255 0 0
-5.626200 8.689200 2.310000 0 255 255
-7.230000 7.620000 20.709999 0 255 0
-6.510000 7.485000 1.715000 0 255 255
-6.503800 8.096300 13.961300 255 0 0
-6.710000 7.660000 28.580000 0 255 0
-6.690000 7.550000 12.670000 0 255 0
-7.260000 7.930000 28.415001 0 255 0
-7.240000 8.240000 19.680000 0 255 0
-6.957500 9.363700 2.268800 0 255 255
-6.010000 8.670000 1.780000 0 255 0
-6.030000 8.260000 27.209999 0 255 0
-6.610000 8.784300 2.355700 255 0 0
-7.466700 8.526700 19.879999 0 255 0
-6.110000 8.530000 1.660000 0 255 0
-7.320000 7.890000 28.400000 0 255 0
-7.090000 8.060000 22.049999 0 255 0
-7.753300 8.278300 2.666700 0 255 255
-7.093300 8.560000 23.299999 0 255 0
-7.110000 8.480000 17.010000 0 255 0
-7.116700 8.616700 20.156700 0 255 0
-6.240000 8.850000 1.990000 0 255 0
-6.280000 7.560000 24.139999 0 255 0
-6.180000 7.340000 23.360001 0 255 0
-6.180000 7.590000 13.450000 0 255 0
-6.221700 9.285000 24.496700 0 255 0
-6.256000 7.876000 22.656000 0 255 0
-6.822500 8.867500 24.905001 0 255 0
-7.217500 8.480000 27.555000 0 255 0
-6.310000 8.100000 17.040001 0 255 0
-6.320000 9.520000 2.050000 0 255 255
-7.462000 8.268000 15.914000 0 255 0
-7.676700 7.980000 12.856700 0 255 0
-5.930000 8.610000 1.820000 0 255 255
-7.055000 9.172500 18.902500 0 255 0
-5.810000 7.700000 27.530001 0 255 0
-6.110000 8.810000 28.180000 0 255 0
-6.100000 9.250000 2.050000 0 255 255
-6.240000 8.250000 23.240000 255 0 0
-6.260000 8.120000 16.959999 0 255 0
-6.263300 8.193300 20.106701 255 0 0
-6.280000 7.870000 28.660000 0 255 0
-6.256700 8.243300 21.459999 255 0 0
-7.010000 8.200000 23.860001 0 255 0
-6.790000 8.330000 12.760000 255 0 0
-6.810000 8.230000 19.254999 0 255 0
-7.462500 7.984200 16.602501 0 255 0
-7.215000 8.330000 26.405001 0 255 0
-7.200000 8.416700 19.903299 0 255 0
-7.504300 8.435700 2.215700 0 255 0
-7.410000 9.220000 2.120000 0 255 255
-6.340000 7.450000 19.610001 0 255 0
-6.607100 8.431400 14.260000 255 0 0
-6.590000 8.220000 26.920000 0 255 0
-6.253300 7.430000 1.666700 0 255 255
-6.265000 7.780000 23.790001 0 255 0
-6.410000 7.620000 1.610000 0 255 255
-6.420000 7.677500 23.820000 0 255 0
-5.622800 8.827600 2.164400 0 255 255
-5.940000 8.530000 2.120000 0 255 255
-7.317500 7.877500 23.057501 0 255 0
-6.712500 7.042500 28.062500 0 255 0
-6.698700 7.068800 15.221200 0 255 0
-6.050000 8.310000 26.150000 0 255 0
-6.900000 8.888000 23.760000 0 255 0
-6.365000 7.735000 1.755000 0 255 255
-7.020000 8.450000 20.240000 0 255 0
-6.962500 9.727500 2.157500 0 255 255
-7.720000 8.950000 2.830000 0 255 255
-7.610000 8.480000 17.090000 0 255 0
-7.480000 8.070000 2.400000 0 255 255
-7.455000 8.340000 18.209999 0 255 0
-7.668000 8.321000 2.399000 0 255 255
-6.850000 7.650000 25.920000 0 255 0
-7.616000 8.236000 16.316000 0 255 0
-7.360000 7.560000 19.730000 0 255 0
-7.503300 7.966700 1.656700 0 255 255
-7.220000 8.410000 26.415001 0 255 0
-6.751300 8.430000 2.909200 255 0 0
-5.680000 8.380000 24.879999 0 255 0
-5.675000 8.495000 24.379999 0 255 0
-7.061700 7.978300 23.261700 0 255 0
-6.396700 8.044300 1.712400 0 255 255
-7.120000 7.850000 28.389999 0 255 0
-5.914400 7.771100 1.903300 0 255 255
-6.807000 8.069500 1.957000 0 255 255
-6.805000 7.725000 24.812500 0 255 0
-6.220000 8.040000 27.610001 255 0 0
-6.820000 8.110000 18.705000 0 255 0
-6.705000 7.195000 28.295000 0 255 0
-6.713300 7.580000 1.416700 0 255 255
-5.664300 7.621400 27.705700 0 255 0
-5.670000 7.635000 27.754999 0 255 0
-6.355000 9.780000 2.810000 0 255 255
-5.411200 8.722500 26.302500 0 255 0
-5.980000 8.560000 17.170000 0 255 0
-5.946700 8.123300 26.660000 0 255 0
-5.970000 8.620000 20.299999 0 255 0
-6.116700 7.166700 23.363300 0 255 0
-6.112900 8.424300 16.962900 0 255 0
-6.103300 8.573300 20.206699 0 255 0
-5.960000 9.490000 2.670000 0 255 255
-6.305000 8.280000 23.465000 255 0 0
-6.330000 8.310000 20.230000 255 0 0
-6.320000 8.220000 13.870000 255 0 0
-6.310000 9.625700 2.005700 0 255 255
-6.330000 8.160000 17.090000 255 0 0
-6.420000 7.700000 9.750000 0 255 0
-6.405000 7.936700 19.251699 0 255 0
-7.358200 7.833600 22.857300 0 255 0
-6.612500 8.692500 19.797501 0 255 0
-6.250000 8.090000 25.209999 255 0 0
-6.270000 8.140000 28.360001 0 255 0
-7.156100 7.778900 19.815001 0 255 0
-7.510000 8.130000 1.925000 0 255 255
-6.800000 7.165000 28.055000 0 255 0
-5.740000 7.680000 1.960000 0 255 255
-6.920000 7.150000 27.860001 0 255 0
-6.956000 7.788000 1.618000 0 255 255
-5.675000 7.635000 11.595000 0 255 0
-5.680000 7.860000 1.810000 0 255 255
-5.610000 8.720000 23.790001 0 255 0
-6.245000 7.567500 28.719999 0 255 0
-5.745000 8.577500 2.612500 0 255 255
-6.220000 9.530000 2.390000 0 255 255
-6.217500 9.190000 24.458799 0 255 0
-7.010000 8.535000 27.910000 0 255 0
-7.015500 8.239100 13.609100 0 255 0
-5.754200 8.785000 19.912500 0 255 0
-7.260000 7.676700 20.416700 0 255 0
-7.240000 8.130000 23.830000 0 255 0
-7.265000 8.165000 26.959999 0 255 0
-6.040000 8.440000 2.380000 0 255 255
-6.070000 8.010000 28.480000 0 255 0
-6.080000 8.270000 18.950001 0 255 0
-6.263300 8.225000 16.965000 0 255 0
-6.797700 8.378500 9.509600 255 0 0
-6.798600 8.432900 6.363600 255 0 0
-6.792500 8.484000 3.005500 255 0 0
-6.560000 7.190000 19.616699 0 255 0
-6.550000 8.910000 28.709999 0 255 0
-6.130000 8.190000 1.760000 0 255 255
-7.290000 9.610000 2.110000 0 255 255
-6.040000 7.610000 25.760000 0 255 0
-6.105600 9.623300 2.008900 0 255 255
-6.380000 8.370000 11.450000 255 0 0
-6.366000 8.278000 17.747999 0 255 0
-6.357500 8.432500 14.602500 255 0 0
-7.400000 9.137500 1.875000 0 255 255
-6.440000 8.420000 19.129999 0 255 0
-6.452500 8.335000 12.807500 255 0 0
-6.380000 8.340000 11.610000 255 0 0
-6.347500 8.375000 1.960000 0 255 0
-6.105000 9.678000 1.913000 0 255 255
-6.160000 8.870000 26.910000 0 255 0
-6.110800 9.670800 1.960800 0 255 255
-6.558300 8.082600 1.811100 0 255 255
-6.865600 7.528900 1.510000 0 255 255
-6.909000 7.581000 1.510000 0 255 255
-5.620000 8.210000 15.710000 0 255 0
-5.470000 7.623300 26.308300 0 255 0
-7.321700 7.636700 1.668300 0 255 255
-7.310000 7.915000 20.445000 0 255 0
-7.305000 8.010000 26.945000 0 255 0
-7.080000 7.490000 27.920000 0 255 0
-7.600000 8.320000 20.040001 0 255 0
-6.310000 8.117500 24.157499 255 0 0
-6.410000 7.972500 23.717501 0 255 0
-7.860000 8.290000 2.160000 0 255 255
-5.262000 8.176000 18.662001 0 255 0
-5.810000 8.510000 24.830000 0 255 0
-5.872900 8.321400 20.410000 0 255 0
-5.546700 8.713300 19.426701 0 255 0
-5.790000 8.990000 19.770000 0 255 0
-6.407500 7.977500 1.612500 0 255 255
-6.170000 8.710000 19.910000 0 255 0
-6.215300 7.229300 18.114700 0 255 0
-7.375000 8.337500 1.715000 0 255 0
-6.746000 8.612000 6.458000 255 0 0
-6.772700 8.577300 3.306900 255 0 0
-7.005600 8.236300 16.121099 0 255 0
-6.462300 8.525400 9.057700 255 0 0
-6.710000 8.470000 3.360000 255 0 0
-7.600000 8.190000 16.180000 0 255 0
-7.590000 8.220000 12.930000 0 255 0
-5.445000 8.595000 22.910000 0 255 0
-5.660000 7.625000 16.562500 0 255 0
-5.600000 7.990000 19.860001 0 255 0
-5.753300 7.293300 16.426701 0 255 0
-5.762500 7.880000 28.660000 0 255 0
-5.657500 8.182500 28.504999 0 255 0
-6.600000 8.100000 15.850000 255 0 0
-5.890000 7.370000 25.889999 0 255 0
-5.930000 7.290000 19.540001 0 255 0
-6.710000 7.680000 28.820000 0 255 0
-6.695000 7.475600 16.154400 0 255 0
-6.213300 7.646700 24.013300 0 255 0
-6.320000 7.915000 24.715000 0 255 0
-6.315000 7.823300 17.971701 0 255 0
-6.320000 7.845000 18.110001 0 255 0
-6.260000 7.880000 21.365000 0 255 0
-5.520000 8.935000 2.195000 0 255 255
-5.560900 8.630600 2.113600 0 255 255
-7.105000 9.720000 2.195000 0 255 255
-6.360000 8.420000 12.360000 255 0 0
-6.375000 8.475000 28.650000 0 255 0
-6.380000 8.390000 9.100000 0 255 0
-6.360000 8.326700 18.853300 255 0 0
-6.347100 8.278600 15.601400 255 0 0
-5.915000 9.565000 2.160000 0 255 255
-5.466700 8.633300 1.940000 0 255 255
-5.445000 8.585000 1.855000 0 255 255
-7.260000 9.577100 2.264300 0 255 255
-6.867000 9.484000 2.274000 0 255 255
-5.490000 8.296700 1.816700 0 255 255
