1.639000 -0.673500 0.360200 0 255 0
1.635600 -0.353700 7.109400 255 0 0
1.630000 -0.520000 16.556700 255 0 0
1.627500 -0.405000 10.045000 255 0 0
1.642500 -0.380000 13.212500 255 0 0
1.654300 -0.704300 3.910000 0 255 0
1.644300 -0.682900 7.060000 255 0 0
1.545300 -1.223300 17.520000 0 255 0
2.090000 -1.660000 20.889999 0 255 0
2.085000 -1.320000 -1.142500 0 255 255
1.290000 0.260000 24.410000 0 255 0
1.291800 0.681000 -0.883200 0 255 255
1.990000 -1.468000 -1.192000 0 255 255
1.470000 -0.750000 -1.180000 0 255 0
1.500000 -0.720000 2.030000 255 0 0
1.480000 -0.863300 -1.340000 0 255 255
1.489400 -1.070100 11.719400 0 255 0
1.993800 -1.560000 -1.035000 0 255 255
1.986700 -1.573900 -1.188900 0 255 255
1.490000 -0.700000 1.680000 255 0 0
1.500000 -0.310000 27.740000 0 255 0
1.505000 -0.860000 -1.395000 0 255 255
1.550000 -1.315000 -0.610000 0 255 255
1.540100 -1.317600 -0.736300 0 255 255
1.636400 -1.311600 -0.850400 0 255 255
1.630000 -1.773300 -0.980000 0 255 255
1.630000 -1.373000 24.316999 0 255 0
1.532000 -1.170000 -0.793900 0 255 255
1.639500 -1.175900 -1.142300 0 255 255
1.533900 -1.372800 -0.842800 0 255 255
1.644200 0.535400 20.564600 0 255 0
1.635400 -1.166000 -0.989800 0 255 255
1.546000 -1.364700 -0.784600 0 255 255
1.350000 0.285000 22.059999 0 255 0
1.343500 0.728500 -0.799500 0 255 255
1.989100 -1.113900 20.562201 0 255 0
1.495900 -1.669800 -0.802000 0 255 255
1.494500 -1.521800 -0.937300 0 255 255
2.010000 -0.510000 16.950001 0 255 0
1.982000 -0.566000 20.212000 255 0 0
1.043300 -1.418300 22.501699 0 255 0
1.051000 -1.156100 -0.527600 0 255 255
1.533300 -1.223300 11.520000 0 255 0
1.530100 -1.813100 -0.743700 0 255 255
1.650000 -0.376000 15.210000 255 0 0
1.647500 -0.540000 18.565001 255 0 0
1.638300 -0.486700 21.726700 0 255 0
1.640000 -0.410000 12.061700 255 0 0
1.643900 -0.637200 -0.589400 255 0 0
1.630000 -0.686000 9.056000 255 0 0
1.637700 -0.708300 5.911300 255 0 0
1.487600 -1.211000 11.701000 0 255 0
1.493800 -1.426200 24.361500 0 255 0
1.482200 -1.811700 -0.934400 0 255 255
1.970000 -0.460000 20.160000 255 0 0
2.000000 -0.620000 23.660000 255 0 0
1.970000 -0.510000 17.139999 255 0 0
1.991000 -0.567000 20.413000 255 0 0
1.487700 -1.522300 -0.798500 0 255 255
1.643300 -1.360000 -1.390000 0 255 255
1.642200 -1.166200 11.653600 0 255 0
1.647100 -1.367100 -0.841400 0 255 255
1.343300 0.170000 22.070000 0 255 0
1.332000 0.634000 -0.790000 0 255 255
1.360000 0.170000 22.230000 0 255 0
1.337500 0.630000 -0.757500 0 255 255
1.646300 -1.772500 -1.238800 0 255 255
1.645200 -1.665700 17.702600 0 255 0
1.538400 -1.160800 -0.731900 0 255 255
1.593000 -1.709100 -0.795800 0 255 255
1.791400 -1.567500 -0.848200 0 255 255
1.732200 -0.763300 15.167800 255 0 0
1.738200 -1.010300 -0.755000 0 255 255
1.735000 -0.710000 19.059999 255 0 0
1.760000 -0.680000 22.299999 255 0 0
1.545000 -1.165000 26.010000 0 255 0
1.633500 -0.655300 -1.230600 0 255 0
1.551200 -1.677900 -0.748200 0 255 255
2.020000 -0.750000 21.950001 255 0 0
2.030000 -0.650000 15.470000 0 255 0
2.030000 -0.640000 25.230000 255 0 0
2.035000 -0.622500 25.172501 255 0 0
0.491300 -0.464600 -1.340300 0 255 255
0.487600 -0.471600 -1.299000 0 255 255
1.628700 -1.321000 -0.689200 0 255 255
2.488400 -1.275300 15.415000 0 255 0
1.972200 -0.767800 19.200001 255 0 0
2.588100 -0.777500 -0.945900 0 255 255
2.284600 -1.414200 -0.895800 0 255 255
2.450000 -1.450000 19.950001 0 255 0
1.445000 -1.120000 15.945000 0 255 0
1.434500 -1.774000 -0.639100 0 255 255
1.940000 -1.421800 -0.739100 0 255 255
2.537500 -1.420000 15.452100 0 255 0
1.448000 -0.609500 -0.439600 0 255 0
1.439900 -0.612500 -0.286400 255 0 0
1.444400 -1.721100 17.714399 0 255 0
2.390700 -1.318600 -0.887600 0 255 255
2.032500 -1.682500 -0.940000 0 255 255
1.940000 -1.256300 -0.798800 0 255 255
0.896700 -0.716700 19.959999 0 255 0
0.882900 -0.827100 13.409000 0 255 0
0.884800 -1.079800 -1.094800 0 255 255
1.840000 -0.422500 18.405001 255 0 0
1.840600 -0.468300 15.160000 255 0 0
1.847500 -0.675000 27.820000 255 0 0
1.820000 -0.560000 21.469999 255 0 0
1.828600 -1.710100 -0.582300 0 255 255
2.460000 -1.500000 15.450000 0 255 0
1.635000 0.315000 24.040001 0 255 0
1.406700 -1.038300 -0.838300 0 255 255
1.886300 -1.260400 -0.544300 0 255 255
1.500000 -1.340000 24.309999 0 255 0
1.493900 -1.128600 11.664800 0 255 0
1.490000 -1.726000 -0.984000 0 255 255
1.970000 -0.730000 18.360001 255 0 0
1.506200 -1.726300 -0.740000 0 255 255
1.970000 -0.700000 18.290001 255 0 0
1.970000 -0.470000 21.629999 255 0 0
1.480000 -1.150000 21.010000 0 255 0
1.494000 -1.836000 -0.794000 0 255 255
2.370000 -1.350000 -0.560000 0 255 255
2.402700 -1.272700 19.809999 0 255 0
2.398000 -0.366000 20.770000 0 255 0
2.410000 -0.480000 26.950001 0 255 0
1.440000 -0.465000 9.205000 255 0 0
1.435000 -1.020000 -0.690000 0 255 255
1.436600 -0.368500 2.907900 0 255 0
0.390700 -0.068000 -1.246900 0 255 255
0.991000 0.228100 20.060499 0 255 0
2.340900 -0.773600 -1.294500 0 255 255
2.340000 -0.400000 20.760000 0 255 0
2.339400 -0.465000 17.521200 0 255 0
0.492600 -0.067400 -1.252200 0 255 255
1.993300 -1.256700 21.156700 0 255 0
1.480000 -0.350000 20.799999 0 255 0
1.498000 -0.434000 11.254000 255 0 0
1.500000 -0.490000 14.490000 255 0 0
1.492900 -1.013300 -1.002400 0 255 255
1.120000 -1.150000 -1.490000 0 255 255
1.941700 -0.123300 23.000000 0 255 0
1.920000 -0.140000 29.719999 0 255 0
2.846700 -0.673300 19.503300 0 255 0
2.850000 -0.840000 21.920000 0 255 0
2.283300 0.033300 29.820000 0 255 0
1.310000 -0.900000 17.670000 0 255 0
1.290000 -0.780000 21.059999 0 255 0
1.304800 -0.427000 -1.086600 0 255 0
1.310000 -0.770000 20.809999 0 255 0
1.290300 -0.416400 -1.241300 0 255 0
2.543200 -0.519900 -1.132400 0 255 255
2.540300 -0.557200 -0.907700 0 255 255
2.640000 -1.183300 15.366700 0 255 0
2.635000 -0.820800 -1.142300 0 255 255
2.870000 -0.660000 19.920000 0 255 0
2.542700 -0.126900 -1.194600 0 255 255
2.660000 -0.510000 27.115000 0 255 0
2.650000 -0.184000 -1.042000 0 255 255
2.220000 0.430000 24.650000 0 255 0
2.236000 -0.372000 26.764000 0 255 0
2.255000 -0.287500 20.607500 0 255 0
1.120000 -1.530000 18.040001 0 255 0
1.132500 -1.012500 -0.955000 0 255 255
2.290000 -0.507500 -1.335000 0 255 255
2.300000 -0.160000 25.610001 0 255 0
2.334000 -0.658000 15.318000 0 255 0
2.342000 -0.922000 -1.328000 0 255 255
1.035000 -1.505000 18.094999 0 255 0
1.035800 -1.213400 -1.041400 0 255 255
0.935000 -0.322800 -1.249000 0 255 255
1.591000 -1.416700 -0.935600 0 255 255
1.210000 -0.470000 29.920000 0 255 0
1.180000 -0.057500 24.317499 0 255 0
1.200000 -0.140000 27.450001 0 255 0
1.470800 -0.635400 -1.343800 0 255 0
1.496000 -0.569800 8.312000 0 255 0
1.474000 -0.530700 5.154000 255 0 0
1.497600 -0.663000 1.811300 0 255 0
2.890000 -0.830000 19.680000 0 255 0
1.470000 -0.640000 -1.386700 0 255 0
1.496300 -0.568100 8.362700 255 0 0
1.478000 -0.526700 5.108000 255 0 0
1.498400 -0.660200 1.860600 255 0 0
1.590000 0.110000 28.450001 0 255 0
1.605000 -0.207500 -0.877500 255 0 0
1.586500 -0.320100 5.610900 255 0 0
1.588700 -0.257200 2.358000 255 0 0
2.693300 -0.180000 -0.951700 0 255 255
2.043800 -1.320000 -1.079200 0 255 255
2.800000 -0.380000 17.650000 0 255 0
1.160000 0.050000 21.889999 0 255 0
1.141900 0.477400 -1.042100 0 255 255
2.888400 -0.823500 17.813000 0 255 0
2.780000 -0.112900 -1.304300 0 255 255
1.630000 -1.130000 17.610001 0 255 0
1.540000 -0.313300 29.803301 0 255 0
1.550000 -0.480000 20.260000 0 255 0
1.554500 -0.714100 4.520700 0 255 0
2.240000 0.540000 18.090000 0 255 0
2.240000 0.423600 24.863600 0 255 0
1.193300 -0.216700 20.240000 0 255 0
2.335000 -1.575000 19.562500 0 255 0
2.340000 -1.550000 19.629999 0 255 0
2.320000 -1.340000 19.330000 0 255 0
1.040000 -1.350000 13.390000 0 255 0
1.036200 -1.472300 19.552300 0 255 0
1.521800 -0.570000 8.714500 255 0 0
1.529100 -0.519100 11.962700 0 255 0
1.541000 -0.664300 2.211000 0 255 0
1.527900 -0.632600 5.457200 255 0 0
1.650000 -0.365000 27.825001 0 255 0
1.650000 -0.700000 18.110001 255 0 0
1.641300 -0.815000 -1.443700 0 255 0
1.540000 -0.520000 16.840000 255 0 0
1.542100 -0.566300 13.610000 255 0 0
1.530400 -0.623200 10.565700 255 0 0
1.543300 -0.665000 7.313100 255 0 0
1.531000 -0.308500 4.210300 255 0 0
1.043200 0.232400 20.112000 0 255 0
0.933200 -1.531500 -1.130200 0 255 255
1.235000 -0.820000 21.049999 0 255 0
1.238300 -0.271700 -1.286700 0 255 0
1.243000 -0.970600 17.602400 0 255 0
2.485000 -0.665000 24.290001 0 255 0
2.475000 -1.075000 -1.010000 0 255 255
1.945000 -0.530000 19.501699 255 0 0
1.940000 -0.470000 22.764999 255 0 0
1.932200 -0.578900 16.271099 255 0 0
1.280000 -1.620000 -0.580000 0 255 255
1.636000 -1.122000 24.250000 0 255 0
1.546700 -0.480000 15.116700 255 0 0
1.580000 -1.060000 29.615000 0 255 0
1.580000 -1.000000 26.270000 0 255 0
1.152500 -0.922500 15.960000 0 255 0
1.220000 -0.800000 19.670000 0 255 0
0.540300 -1.230000 -1.238700 0 255 255
1.420000 -0.360000 21.915001 0 255 0
1.450000 -0.330000 5.861100 255 0 0
1.438700 -0.370300 2.709700 255 0 0
0.860000 -0.460000 21.549999 0 255 0
1.690000 -0.550000 26.889999 0 255 0
1.697100 -0.671400 20.412901 255 0 0
1.680000 -0.756700 13.853300 255 0 0
1.694000 -0.356000 7.857000 255 0 0
1.691300 -0.410000 11.017500 255 0 0
0.848000 -0.574000 22.520000 0 255 0
0.840300 -1.108000 -1.050200 0 255 255
2.360000 -1.320000 20.910000 0 255 0
0.742200 -0.671100 19.755600 0 255 0
0.724000 -1.114000 17.865999 0 255 0
0.741800 -1.023500 -1.482800 0 255 255
2.880000 -0.900000 20.850000 0 255 0
2.876700 -0.830000 27.206699 0 255 0
2.886700 -0.406700 -1.293300 0 255 255
2.886700 -0.910000 17.913300 0 255 0
1.543500 -0.281500 3.559800 0 255 0
2.489300 -1.375300 15.313000 0 255 0
2.296000 -0.324000 29.666000 0 255 0
1.430000 -0.520000 13.150000 0 255 0
1.455800 -0.432500 6.410800 255 0 0
1.445000 -0.575000 9.925000 255 0 0
1.429300 -0.315400 0.111000 0 255 0
1.427100 -0.468900 3.158100 0 255 0
1.450000 -0.530000 13.330000 255 0 0
1.456700 -0.583300 10.160000 255 0 0
1.460000 -0.430000 6.950000 255 0 0
1.441800 -0.320500 0.659800 255 0 0
1.434400 -0.470100 3.811200 0 255 0
1.460000 -1.520000 25.715000 0 255 0
1.460000 -0.420000 7.730000 255 0 0
1.445100 -0.328200 1.210800 0 255 0
1.443300 -0.470700 4.459300 0 255 0
2.891800 -1.071000 19.707199 0 255 0
2.060000 -0.710000 26.910000 255 0 0
1.539400 -0.280500 4.006900 0 255 0
1.454400 -0.560000 7.653300 255 0 0
1.452300 -0.420900 4.659200 255 0 0
1.422700 -0.469700 1.505900 0 255 0
1.430000 -1.650000 26.150000 0 255 0
1.440000 -0.500000 10.680000 255 0 0
1.450000 -1.578300 19.665001 0 255 0
1.435800 -0.420500 4.111000 0 255 0
1.453600 -0.570000 7.405100 0 255 0
1.424700 -0.472400 0.860300 255 0 0
1.510000 -0.650000 8.930000 255 0 0
1.500000 -0.330000 -0.590000 255 0 0
1.507500 -0.575000 15.212500 255 0 0
1.506900 -0.523100 12.062500 255 0 0
1.487300 -0.618300 5.759800 0 255 0
1.470000 -0.356000 2.562000 255 0 0
1.510000 -0.500000 13.400000 255 0 0
1.504300 -0.662900 10.367100 255 0 0
1.495800 -1.668300 21.810801 0 255 0
1.496300 -0.616300 7.108300 255 0 0
1.476200 -0.356800 3.608800 0 255 0
1.473200 -0.306400 0.359100 0 255 0
1.140400 -1.275200 -1.637800 0 255 255
1.460000 -0.510000 9.150000 255 0 0
1.434000 -1.670000 24.455999 0 255 0
1.423500 -0.416200 2.407100 0 255 0
1.455700 -0.565000 5.911600 0 255 0
1.645000 -0.715000 18.459999 255 0 0
1.640000 -0.550000 15.230000 255 0 0
1.554000 -0.574000 15.766000 255 0 0
1.533500 -0.621300 12.411900 255 0 0
1.530000 -0.420000 -0.230000 255 0 0
1.539000 -0.667100 9.261000 255 0 0
1.546300 -0.329200 6.262200 255 0 0
1.642000 -0.760000 11.298000 255 0 0
1.540000 -0.305000 0.995000 255 0 0
1.545800 -0.520000 13.661100 255 0 0
1.521700 -0.570000 10.408300 255 0 0
1.538500 -0.663600 4.110600 255 0 0
1.529400 -0.626300 7.359200 255 0 0
1.270000 -1.540000 28.350000 0 255 0
1.295300 -1.581200 -0.990800 0 255 255
1.503300 -0.530000 13.660000 255 0 0
1.508300 -0.663300 10.516700 255 0 0
1.474500 -0.358100 4.158400 255 0 0
1.476300 -0.307400 1.012500 0 255 0
1.493900 -0.614600 7.360900 255 0 0
1.040000 0.180000 24.139999 0 255 0
2.280000 -1.450000 29.930000 0 255 0
1.685000 -0.315000 3.960000 255 0 0
1.695000 -0.258700 0.809100 0 255 0
1.305000 -1.615000 17.750000 0 255 0
1.287300 -1.717600 11.010200 0 255 0
1.570000 -0.640000 1.180000 255 0 0
1.595300 -0.382000 11.060000 255 0 0
1.595000 -0.712500 7.658500 0 255 0
1.595000 -0.421900 14.207500 255 0 0
1.581500 -0.681500 4.508300 0 255 0
1.570000 -0.640000 6.610000 255 0 0
1.596700 -0.716700 13.110000 255 0 0
1.587600 -0.677600 9.860000 255 0 0
1.590000 -0.419400 19.255899 0 255 0
1.576700 -0.636700 6.643300 255 0 0
1.594700 -0.717900 12.961600 255 0 0
1.588200 -0.418200 19.306400 0 255 0
1.585600 -0.676100 9.810600 255 0 0
1.691400 -1.072100 -1.449300 0 255 255
1.688900 -0.772200 17.502199 0 255 0
1.670000 -1.070000 -1.270000 0 255 255
1.695000 -0.860000 11.767500 0 255 0
2.442500 -1.218800 19.764999 0 255 0
0.688200 -0.304500 -1.252700 0 255 255
2.540000 -1.270400 15.497100 0 255 0
1.892000 -0.512000 21.356001 255 0 0
1.390700 -1.215300 -0.790000 0 255 255
2.640000 0.230000 23.596701 0 255 0
2.595000 -1.321200 19.758301 0 255 0
1.788800 -0.321100 0.759900 0 255 0
1.802000 -0.362400 3.909900 255 0 0
2.683300 -0.706700 21.910000 0 255 0
2.680000 -0.470000 20.103800 0 255 0
2.889300 -1.125300 19.754700 0 255 0
2.885000 -1.120000 17.879999 0 255 0
1.610000 -0.430000 15.700000 255 0 0
1.586700 -0.630000 3.050000 255 0 0
1.585700 -0.710000 9.360400 255 0 0
1.581600 -0.684500 6.214800 0 255 0
1.596200 -0.374100 12.558300 255 0 0
1.600000 -0.420000 15.655000 255 0 0
1.588300 -1.770000 25.858299 0 255 0
1.591100 -0.707900 9.507900 255 0 0
1.581700 -0.685200 6.257400 255 0 0
1.594000 -0.374000 12.404000 255 0 0
1.596700 -1.260000 26.203300 0 255 0
1.597600 -0.767000 14.418500 0 255 0
2.490000 -0.175000 20.860001 0 255 0
2.490000 -0.326800 17.518200 0 255 0
2.390000 -1.210000 18.160000 0 255 0
1.088700 -1.074000 13.354600 0 255 0
1.580000 -0.610000 8.370000 255 0 0
1.588300 -0.713300 14.860000 255 0 0
1.590000 -0.690000 11.700000 0 255 0
1.595000 -0.887100 -1.335000 0 255 255
1.580000 -0.626700 12.050000 255 0 0
1.585000 -0.575000 8.925000 255 0 0
1.585400 -0.675400 15.210800 255 0 0
1.400000 -1.080000 21.059999 0 255 0
1.383300 -0.376700 27.613300 0 255 0
1.903300 -1.266700 -1.586700 0 255 255
1.386700 -0.430000 29.920000 0 255 0
1.379100 -0.912700 10.762700 0 255 0
1.393300 -0.516700 29.719999 0 255 0
1.386700 -0.413300 23.370001 0 255 0
0.840000 -0.322900 13.296800 0 255 0
1.087100 -0.374300 19.667101 0 255 0
1.107500 -0.977500 15.962500 0 255 0
1.633300 -0.466700 20.613300 0 255 0
1.630000 -0.690000 7.560000 255 0 0
1.646300 -0.375000 14.315000 255 0 0
1.636700 -0.406700 11.162200 255 0 0
1.641700 -0.705000 4.411700 255 0 0
1.637300 -0.527300 17.459999 255 0 0
2.070000 0.360000 -1.250000 0 255 255
1.610000 -0.350000 3.430000 255 0 0
1.578000 -0.508000 13.154000 255 0 0
1.589000 -0.702000 0.113000 255 0 0
1.880000 -0.252500 -0.780000 0 255 0
0.588900 -1.061600 -1.243300 0 255 255
0.691700 -0.580000 20.003300 0 255 0
1.437000 -1.478200 -0.886400 0 255 255
0.735000 -0.910000 17.754999 0 255 0
0.732700 -0.917300 17.918200 0 255 0
1.275000 -0.575000 30.059999 0 255 0
1.840000 -0.670000 3.460000 255 0 0
1.835000 -0.730000 12.925000 255 0 0
1.829300 -0.612500 6.615000 255 0 0
1.824600 -0.514900 0.260500 255 0 0
1.696700 -0.766700 16.656700 255 0 0
1.691200 -0.722500 25.549999 0 255 0
2.110000 -1.570000 -0.720000 0 255 255
1.510000 -0.340000 6.770000 255 0 0
1.510000 -0.610000 13.500000 255 0 0
1.480000 -0.490000 3.690000 255 0 0
1.510000 -0.390000 10.020000 255 0 0
1.510000 -0.575000 23.059999 0 255 0
0.880000 -0.990000 17.680000 0 255 0
0.890000 -1.268000 -1.286000 0 255 255
0.843700 -0.971200 21.152500 0 255 0
0.826700 -1.026700 17.676701 0 255 0
1.530000 0.490000 -0.750000 0 255 255
0.741500 -1.415300 -1.290700 0 255 255
1.910000 -1.460000 26.490000 0 255 0
1.887800 -1.577800 20.222200 0 255 0
1.390000 -0.370000 29.990000 0 255 0
0.837300 -1.076000 17.754000 0 255 0
0.840000 -1.170000 -1.410000 0 255 255
1.692000 -0.874000 26.156000 0 255 0
1.045400 -0.870000 13.398500 0 255 0
1.851700 0.170000 23.120001 0 255 0
1.093500 -0.374600 -1.291000 0 255 0
1.240000 0.224000 20.174000 0 255 0
1.240000 0.235000 20.405001 0 255 0
2.095000 -1.468300 -1.633300 0 255 255
2.137400 -0.322600 -1.330000 0 255 255
0.892100 0.030700 20.012100 0 255 0
1.580000 -0.300000 2.810000 255 0 0
1.580000 -0.270000 -0.445000 255 0 0
1.570000 -0.300000 2.070000 255 0 0
1.740000 -0.690000 17.055000 255 0 0
1.745000 -0.470000 29.722500 0 255 0
1.750000 -0.560000 23.340000 255 0 0
1.732500 -0.721300 13.910000 255 0 0
1.735000 -0.616700 20.201700 255 0 0
1.747700 -0.762900 10.706100 255 0 0
1.796600 -1.324700 11.567000 0 255 0
2.182000 -1.166000 -1.140000 0 255 255
2.190000 -0.712900 21.717100 0 255 0
1.838000 -0.422000 17.209999 255 0 0
1.846700 -0.471000 13.955700 255 0 0
0.893600 0.640000 -0.695000 0 255 255
0.890000 0.530000 -0.725000 0 255 255
2.090000 -0.550000 -0.670000 0 255 255
2.089600 -1.066100 19.266100 0 255 0
1.137700 -1.266700 -0.496800 0 255 255
1.156700 -1.423300 16.056700 0 255 0
1.149100 -1.262700 -0.521800 0 255 255
1.644500 -1.722700 17.712700 0 255 0
1.536100 0.531700 20.660000 0 255 0
1.551700 -1.432200 -0.691000 0 255 255
1.294000 -0.424000 21.958000 0 255 0
0.782000 0.436000 -0.781000 0 255 255
1.449800 -0.609600 -0.390300 255 0 0
0.990000 -1.315000 17.629999 0 255 0
1.035700 -0.468600 19.610001 0 255 0
1.541000 -0.470700 15.299000 255 0 0
0.785000 -0.920000 13.610000 0 255 0
0.798300 -0.616700 19.758301 0 255 0
0.793300 -0.773300 -1.140000 0 255 255
0.792900 -1.076200 -1.387600 0 255 255
2.150000 -0.924400 -1.534400 0 255 255
1.189000 -1.024800 -1.048500 0 255 255
2.542100 -1.370000 18.357901 0 255 0
1.288700 -1.273200 -0.987100 0 255 255
1.938400 0.130700 -1.193800 0 255 255
2.910000 -0.490000 20.150000 0 255 0
0.795000 -0.221700 -1.386700 0 255 255
2.079900 -0.126200 -0.787800 0 255 255
1.579300 -0.513600 14.760700 255 0 0
1.570000 -0.460000 11.520000 255 0 0
1.585000 -0.405000 8.255000 255 0 0
1.595600 -0.703400 1.707500 0 255 0
1.585000 -0.640000 6.565000 255 0 0
1.592000 -0.419000 19.216999 0 255 0
1.594700 -0.722200 13.058400 255 0 0
1.588000 -0.679500 9.909000 255 0 0
1.150000 -1.023300 17.575001 0 255 0
0.989800 0.179900 -1.142100 0 255 255
0.987500 -0.175000 21.042500 0 255 0
1.535500 -0.762300 15.262500 0 255 0
1.670000 -0.040000 21.090000 0 255 0
1.696000 -0.306000 1.772000 255 0 0
0.926700 -0.730000 19.719999 0 255 0
0.939300 -1.075000 -1.528900 0 255 255
2.038800 -1.456200 -0.795000 0 255 255
2.805000 -0.420000 20.010000 0 255 0
1.310000 -0.070000 29.830000 0 255 0
1.500400 -0.655000 3.566700 255 0 0
1.482700 -0.626100 0.310500 0 255 0
1.494000 -0.571500 9.858500 0 255 0
1.475900 -0.522400 6.611300 255 0 0
1.494800 -0.568500 9.711000 255 0 0
1.474900 -0.522100 6.560300 0 255 0
1.482100 -0.626600 0.060100 255 0 0
1.502600 -0.656300 3.211600 255 0 0
1.986700 -1.506700 26.313299 0 255 0
2.773900 -0.569700 -1.000000 0 255 255
2.795000 -0.425000 15.355000 0 255 0
2.792000 -0.574000 -0.936000 0 255 255
2.234000 -0.720000 26.818001 0 255 0
2.242200 -1.162200 -1.636700 0 255 255
1.085000 -0.517000 -1.338600 0 255 0
0.935300 -1.270700 -1.634000 0 255 255
1.605000 -0.705000 12.702500 255 0 0
1.582400 -0.678400 9.458800 255 0 0
2.145700 -0.858600 -0.791400 0 255 255
1.300000 0.270000 21.209999 0 255 0
1.276700 0.830000 -0.923300 0 255 255
0.996400 -1.465500 -1.190000 0 255 255
2.385000 0.415000 23.424999 0 255 0
0.935300 -1.267300 13.258500 0 255 0
1.690000 -0.750000 17.549999 255 0 0
1.691800 -1.063600 -1.387300 0 255 255
2.093100 -1.011500 -1.184600 0 255 255
1.146700 0.180000 23.313299 0 255 0
1.134400 -1.116900 13.406300 0 255 0
1.139300 -1.177300 -1.548700 0 255 255
1.242500 0.135000 23.355000 0 255 0
2.635000 -0.535000 29.639999 0 255 0
2.640900 -0.477300 20.104500 0 255 0
0.984000 0.334000 13.452000 0 255 0
1.030000 -1.270000 15.725000 0 255 0
1.041300 -0.913500 -1.449000 0 255 255
0.890000 -1.173800 19.771000 0 255 0
2.590000 -1.411700 17.858299 0 255 0
2.590000 -1.440000 18.420000 0 255 0
1.231700 -0.828300 20.903299 0 255 0
1.245800 -0.363300 -1.148300 0 255 0
0.946200 0.383400 13.369000 0 255 0
1.186700 -1.319300 15.870700 0 255 0
1.195000 -1.335000 15.830000 0 255 0
1.610000 -0.580000 17.370001 255 0 0
1.570000 -0.380000 30.020000 0 255 0
1.275000 -1.000000 10.780000 0 255 0
1.210000 -0.380000 22.450001 0 255 0
2.441700 -0.875700 -1.000500 0 255 255
2.593300 -1.163300 29.709999 0 255 0
1.084800 0.581000 -0.942100 0 255 255
0.939100 0.377500 13.409700 0 255 0
0.994900 -0.871800 13.354400 0 255 0
0.990000 -0.735000 13.390000 0 255 0
1.210000 -1.130000 -1.620000 0 255 255
1.034100 0.534600 -0.883600 0 255 255
2.460000 -1.500000 20.770000 0 255 0
1.180000 -0.280000 19.680000 0 255 0
1.180000 -0.560000 13.290000 0 255 0
1.084300 -0.570900 -1.054800 0 255 0
1.095000 -0.905000 21.004999 0 255 0
0.749500 0.228200 13.462000 0 255 0
2.430000 0.122000 -1.186000 0 255 255
1.471400 -0.530000 4.057100 255 0 0
1.488200 -0.569500 7.210300 0 255 0
1.498200 -0.658000 0.906800 255 0 0
1.087500 -1.478800 16.348801 0 255 0
0.992000 -1.364800 -1.133000 0 255 255
1.360000 0.080000 24.280001 0 255 0
1.350000 0.010000 21.129999 0 255 0
1.135000 -0.826200 20.857500 0 255 0
1.138700 -0.773800 -1.348700 0 255 0
1.160000 -0.250000 24.610001 0 255 0
1.430000 -1.620000 28.170000 0 255 0
1.452200 -0.522200 8.613300 255 0 0
1.450700 -0.565000 5.461400 255 0 0
1.424800 -0.416300 2.061500 0 255 0
2.432500 -0.672500 20.645000 0 255 0
2.433700 -0.820000 -1.542500 0 255 255
2.434400 -0.666700 26.964399 0 255 0
2.446000 -1.130000 -1.586000 0 255 255
1.454400 -0.653300 0.868900 255 0 0
1.455600 -0.606900 4.008800 255 0 0
2.450000 -0.855000 17.730000 0 255 0
2.189300 -0.064000 -1.142700 0 255 255
1.470000 -0.390000 0.620000 255 0 0
1.490000 -0.560000 13.265000 255 0 0
1.501100 -1.524400 21.871099 0 255 0
1.488700 -0.619400 3.709000 255 0 0
1.495500 -0.656500 6.964700 255 0 0
1.492000 -0.518000 10.007300 0 255 0
1.490000 -0.360000 0.380000 255 0 0
1.492500 -0.565000 13.415000 255 0 0
1.500900 -0.660900 7.110900 255 0 0
1.489800 -0.618300 3.959800 255 0 0
1.495100 -0.521100 10.260500 0 255 0
2.220000 -1.130000 19.500000 0 255 0
2.845000 -0.465000 27.145000 0 255 0
2.920000 -0.510000 21.990000 0 255 0
2.537500 -0.667500 29.767500 0 255 0
0.540400 -0.576200 13.406900 0 255 0
2.336700 -0.726700 26.820000 0 255 0
2.340000 -0.830000 20.520000 0 255 0
2.342000 -1.176700 -1.640700 0 255 255
2.935000 -0.430000 19.559999 0 255 0
2.690000 -0.050000 24.000000 0 255 0
2.680000 -0.360000 29.770000 0 255 0
2.695400 0.080800 17.756901 0 255 0
1.134600 -1.116500 10.848900 0 255 0
1.130000 -0.190000 21.900000 0 255 0
1.130000 0.296500 -0.946500 0 255 255
1.150000 0.170000 22.110001 0 255 0
1.139100 0.231800 -1.092200 0 255 255
1.044300 0.278100 -1.038500 0 255 255
1.275000 -0.580000 29.790001 0 255 0
2.495000 -1.400000 15.505000 0 255 0
2.495000 -1.275600 19.723801 0 255 0
2.346400 -1.020000 18.122700 0 255 0
2.331400 -1.320600 -0.679400 0 255 255
2.789300 -0.927100 17.903601 0 255 0
1.637200 -1.419400 -0.937400 0 255 255
2.845000 -0.880000 19.815001 0 255 0
1.051400 0.775700 -0.978600 0 255 255
3.020000 -0.690000 22.160000 0 255 0
1.858700 -0.328100 -1.290000 0 255 0
0.890000 -1.300000 10.960000 0 255 0
0.884600 -1.532200 -1.038500 0 255 255
0.440200 -0.868500 -1.392000 0 255 255
0.538400 -1.011200 -1.444300 0 255 255
0.493100 -1.057300 -1.339100 0 255 255
0.540000 -1.065100 -1.335500 0 255 255
1.685000 -0.235000 7.605000 255 0 0
1.697100 -0.301400 1.105700 255 0 0
1.697100 -0.301400 1.164300 0 255 0
1.697000 -1.773300 17.710400 0 255 0
1.439500 -1.369900 -0.834000 0 255 255
1.686700 -0.873300 29.743299 0 255 0
0.737500 -0.770000 20.007500 0 255 0
0.742100 -0.874200 13.509500 0 255 0
0.741500 -1.117000 -1.232300 0 255 255
0.741700 -1.376700 -1.435000 0 255 255
0.984500 -1.472100 -1.682400 0 255 255
1.710000 -0.300000 2.980000 255 0 0
1.710000 0.140000 25.889999 0 255 0
1.701900 -0.255400 -0.190800 0 255 0
0.730000 -1.423500 -1.432000 0 255 255
0.842400 -1.473200 -1.482600 0 255 255
0.592400 -1.224900 -1.192200 0 255 255
1.690700 0.628200 -0.937600 0 255 255
0.588000 -1.111000 -1.143000 0 255 255
0.697400 -1.271000 -1.230900 0 255 255
0.783500 -1.018700 -1.235100 0 255 255
0.736700 -0.528300 19.671700 0 255 0
0.743000 -0.617000 13.354000 0 255 0
0.741700 -1.271000 -1.235800 0 255 255
0.784700 -1.119200 -1.232800 0 255 255
0.691100 -1.364900 -1.236600 0 255 255
0.840600 -0.519700 19.655500 0 255 0
1.533300 0.290000 -1.170000 0 255 255
0.740000 -1.308300 -1.160000 0 255 255
0.890200 -1.622900 -1.344000 0 255 255
1.245300 -0.922700 10.800900 0 255 0
0.840300 -1.574900 -1.290800 0 255 255
1.202700 -0.970900 10.778200 0 255 0
0.889500 -1.266600 -1.193600 0 255 255
1.330000 -0.080000 20.040001 0 255 0
1.338700 -0.023100 23.305599 0 255 0
1.203300 0.083300 24.216700 0 255 0
1.600000 -0.060000 24.940001 0 255 0
1.360000 -1.350000 26.240000 0 255 0
1.545000 -0.465000 23.344999 0 255 0
1.550000 -0.700000 7.823300 255 0 0
1.557600 -0.769400 4.561500 0 255 0
1.910000 -1.030000 19.860001 0 255 0
1.400000 -0.286700 0.953300 255 0 0
1.386200 0.172500 23.250000 0 255 0
1.383300 0.236700 20.129999 0 255 0
1.410000 -0.285000 1.105000 255 0 0
1.870000 0.500000 23.160000 0 255 0
1.091400 -1.515900 -1.288600 0 255 255
1.086000 -1.525800 -1.434200 0 255 255
1.175000 -0.665000 29.809999 0 255 0
1.040700 -1.363400 -1.141400 0 255 255
1.680000 -0.750000 17.049999 255 0 0
1.692500 -0.827500 20.216299 0 255 0
1.640000 -0.430000 7.550000 255 0 0
1.650000 -0.480000 17.020000 255 0 0
1.631500 -0.704600 0.816900 255 0 0
1.639300 -0.375200 10.707200 255 0 0
1.641300 -0.677700 3.960800 0 255 0
1.940000 -1.120000 22.920000 0 255 0
1.457500 -0.650000 1.110000 255 0 0
1.457500 -0.612500 4.370000 0 255 0
0.990600 -1.571400 -1.389200 0 255 255
0.984600 -1.562300 -1.151500 0 255 255
1.980000 -0.850000 19.650000 0 255 0
1.985000 -0.970000 26.139999 0 255 0
2.000000 -0.960000 19.840000 0 255 0
2.005000 -1.015000 23.004999 0 255 0
1.470000 0.070000 24.770000 0 255 0
1.490000 0.090000 24.705000 0 255 0
1.890000 -1.380000 -1.695000 0 255 255
1.887000 -1.723300 20.208799 0 255 0
1.380000 -0.420000 23.165701 0 255 0
1.370000 -1.010000 10.910000 0 255 0
1.390000 -0.523300 29.906700 0 255 0
1.940000 -0.810000 30.280001 0 255 0
1.930000 -0.710000 10.715000 0 255 0
1.932700 -0.613600 17.213600 0 255 0
1.538000 -0.816000 20.308001 0 255 0
0.940000 -1.375000 18.013300 0 255 0
0.949500 -1.667300 -1.131800 0 255 255
0.794800 -1.611100 -0.978500 0 255 255
0.956000 -1.420400 -0.991600 0 255 255
1.188100 -1.217500 -1.087700 0 255 255
2.310000 -0.600000 19.260000 0 255 0
2.290000 -0.640000 25.559999 0 255 0
2.290000 -1.272000 15.368000 0 255 0
1.990000 -0.865000 30.264999 0 255 0
2.388700 -1.670600 19.964399 0 255 0
1.599500 -1.720000 -1.179800 0 255 255
1.598000 -1.719000 -1.336000 0 255 255
2.040000 -0.890000 17.475000 0 255 0
1.241900 -1.470000 -1.095900 0 255 255
1.920000 -0.530000 13.600000 255 0 0
1.940000 -0.780000 23.000000 255 0 0
1.233800 -1.608200 -1.003600 0 255 255
1.235500 -1.610900 -1.038500 0 255 255
1.125000 -1.410000 18.030001 0 255 0
1.142500 -1.319200 -0.933000 0 255 255
1.187100 -1.275900 -0.891800 0 255 255
2.040000 0.020000 24.655001 0 255 0
1.093600 -1.274400 -0.838600 0 255 255
1.339800 -1.769400 -1.040600 0 255 255
1.438300 -1.570000 -1.045800 0 255 255
2.437500 -0.722500 -1.432500 0 255 255
2.436700 -0.170000 20.863300 0 255 0
2.442200 -0.682200 -1.343300 0 255 255
2.973300 -0.116700 23.959999 0 255 0
1.585400 -1.572300 -0.897700 0 255 255
1.570000 -1.480000 17.830000 0 255 0
1.603700 -1.571300 -0.746200 0 255 255
1.590000 -1.374600 11.522900 0 255 0
2.937500 -0.725000 15.957500 0 255 0
2.120000 -0.600000 25.549999 0 255 0
1.870000 -0.470000 1.150000 255 0 0
1.876700 -0.663300 13.816700 255 0 0
1.890000 -0.820000 24.110001 0 255 0
1.885300 -0.612900 10.658200 255 0 0
1.398000 -1.669300 -0.943600 0 255 255
1.887500 -0.568800 11.565000 255 0 0
1.890000 -0.725000 21.049999 255 0 0
1.897500 -0.780000 24.195000 255 0 0
1.870000 -0.423300 14.716700 255 0 0
1.895600 -0.473300 17.855600 255 0 0
1.881900 -0.521400 8.410500 0 255 0
1.391300 -1.413500 -0.886300 0 255 255
1.299500 -1.472400 -0.845600 0 255 255
1.233900 -1.376600 -0.941100 0 255 255
1.280000 0.887500 -0.922500 0 255 255
1.290000 -0.170000 27.049999 0 255 0
1.339400 0.582900 -0.898200 0 255 255
1.443300 -1.406700 24.406700 0 255 0
1.441400 -1.814700 -0.888800 0 255 255
1.397800 -1.554500 -0.843900 0 255 255
1.644400 -0.466700 16.604401 255 0 0
1.637100 -0.674600 3.560300 255 0 0
1.635800 -0.702400 0.419700 0 255 0
1.641600 -0.371400 10.310500 255 0 0
1.533700 -1.513700 -0.848800 0 255 255
1.637500 -0.472500 16.763800 255 0 0
1.638400 -0.675200 3.711100 0 255 0
1.637000 -0.374300 10.262000 255 0 0
1.634800 -0.701000 0.454300 255 0 0
1.445000 -1.360000 -0.650000 0 255 255
0.733300 -1.218600 17.763300 0 255 0
1.438300 -1.371700 -0.799600 0 255 255
1.982500 -1.767500 23.662500 0 255 0
1.650000 0.350000 24.840000 0 255 0
1.889800 -1.571400 -0.935200 0 255 255
1.640000 -0.075000 -1.110000 0 255 0
1.891100 -1.574400 -1.588900 0 255 255
1.385600 -1.023300 -1.573300 0 255 255
1.395000 -1.470000 24.417500 0 255 0
1.870000 -0.510000 23.250000 255 0 0
1.896400 -1.727700 -1.231400 0 255 255
1.910000 -0.420000 29.740000 0 255 0
1.388000 -1.773000 -1.092500 0 255 255
1.391800 -1.758900 -0.747400 0 255 255
2.000000 -0.660000 23.290001 255 0 0
1.480000 -1.380000 11.470000 0 255 0
1.493300 -1.176700 -1.193300 0 255 255
1.288100 0.832200 -0.784100 0 255 255
1.680800 -1.171500 -0.994600 0 255 255
1.687900 -1.467400 -0.790000 0 255 255
1.794600 -1.621600 -0.786400 0 255 255
2.395000 -1.485000 19.549999 0 255 0
1.399300 -1.772000 -0.642100 0 255 255
1.796700 -0.732500 -1.283300 0 255 0
2.295000 -0.910000 29.754999 0 255 0
2.296000 -1.411000 -1.242000 0 255 255
1.292800 -0.770000 -1.390300 0 255 0
1.597300 -1.476000 -1.041300 0 255 255
1.748400 -1.713700 -0.534100 0 255 255
0.638000 -0.416000 13.304900 0 255 0
0.494800 -0.223000 13.357000 0 255 0
0.496500 -0.320600 13.308400 0 255 0
1.684000 0.876700 -0.886200 0 255 255
2.480000 -1.110000 15.550000 0 255 0
2.490000 -1.290000 -0.755000 0 255 255
2.490000 0.340000 26.320000 0 255 0
2.230000 -0.430000 29.799999 0 255 0
2.240000 -0.480000 29.709999 0 255 0
2.260000 -1.160000 19.360001 0 255 0
0.491000 -0.417800 -1.303100 0 255 255
1.395000 -0.620000 20.195000 0 255 0
1.390000 -0.650000 23.469999 0 255 0
1.410000 -0.385000 4.112500 255 0 0
1.402900 -0.332700 0.859800 255 0 0
2.395300 -0.409700 -1.098300 0 255 255
1.060000 -0.710000 19.400000 0 255 0
1.060000 -0.840000 25.770000 0 255 0
1.036300 -0.871300 22.512501 0 255 0
1.030000 -1.323300 26.966700 0 255 0
1.048300 -1.123300 17.625000 0 255 0
1.240000 -0.190000 29.790001 0 255 0
1.260000 -0.080000 23.500000 0 255 0
1.240600 -0.120000 20.257799 0 255 0
1.050000 -0.630000 19.410000 0 255 0
1.020000 -0.770000 22.670000 0 255 0
1.037500 -0.516300 13.254200 0 255 0
1.030000 -0.760000 22.504999 0 255 0
2.380000 -0.080000 29.705000 0 255 0
2.288900 -0.073200 20.854700 0 255 0
1.141800 -0.922600 13.405300 0 255 0
1.125000 -0.215000 22.320000 0 255 0
2.680000 -0.140000 29.590000 0 255 0
2.690000 0.016700 15.650000 0 255 0
1.140000 -0.490000 13.195000 0 255 0
1.150000 -0.720000 22.590000 0 255 0
0.988000 -1.420000 17.766001 0 255 0
0.993300 -1.123600 -1.039100 0 255 255
0.996200 -1.430000 -1.337700 0 255 255
2.540000 -0.300000 15.710000 0 255 0
2.392300 0.633100 -0.894600 0 255 255
2.540000 -0.080000 29.660000 0 255 0
2.533300 -0.006700 25.913300 0 255 0
2.534600 -0.173700 15.602300 0 255 0
1.537400 -0.271900 2.762600 0 255 0
1.546700 0.431700 20.754999 0 255 0
1.540100 -0.270100 1.810700 0 255 0
1.538200 -0.271200 2.061800 0 255 0
1.547100 0.429300 20.606400 0 255 0
1.530000 -0.105000 20.990000 0 255 0
1.350000 -1.210000 -1.594000 0 255 255
1.303700 -1.501200 -0.808800 0 255 255
1.188200 -0.565100 -1.301800 0 255 0
1.191300 -0.922000 20.862700 0 255 0
1.134000 -0.226000 19.658001 0 255 0
0.728300 -1.121100 13.506100 0 255 0
1.270000 -0.790000 25.750000 0 255 0
2.294000 -1.718000 24.910000 0 255 0
2.310000 -1.720000 24.959999 0 255 0
1.530000 -1.340000 24.280001 0 255 0
1.541400 -1.122900 11.617100 0 255 0
1.541100 -1.713300 -1.037800 0 255 255
2.844400 -0.618700 19.452499 0 255 0
1.625000 -1.420000 24.355000 0 255 0
1.660000 -1.670000 21.620001 0 255 0
1.544000 0.542000 20.414000 0 255 0
1.546500 -1.429800 -0.832700 0 255 255
2.891800 -1.070000 19.669100 0 255 0
2.237700 -1.518800 -0.885400 0 255 255
1.084400 -1.574400 -1.542800 0 255 255
1.220000 0.220000 21.120001 0 255 0
1.230000 -0.070000 27.610001 0 255 0
1.243300 -0.113300 24.370001 0 255 0
2.470000 -0.890000 18.120001 0 255 0
2.490000 -0.770000 24.400000 0 255 0
2.480000 -1.190000 -0.880000 0 255 255
1.134600 -1.675700 -1.090000 0 255 255
2.880000 -0.220000 28.240000 0 255 0
0.787800 -0.126200 13.204500 0 255 0
2.638600 -0.730000 -1.301400 0 255 255
1.144400 0.329400 20.359400 0 255 0
1.310000 -0.830000 -0.790000 0 255 255
1.290000 -1.230000 26.115000 0 255 0
1.040500 -1.469000 17.858101 0 255 0
1.041900 -1.170100 -1.146100 0 255 255
1.031400 -1.424300 19.607100 0 255 0
1.041600 -1.472800 16.361200 0 255 0
1.041400 -1.420000 16.255699 0 255 0
1.625000 -1.110000 17.465000 0 255 0
1.540000 -0.450000 20.309999 0 255 0
1.550000 -0.320000 29.760000 0 255 0
1.556300 -0.720000 4.467500 255 0 0
0.787600 -0.569600 19.662001 0 255 0
2.846000 -0.230000 20.122000 0 255 0
2.295000 -1.480000 20.910000 0 255 0
0.536900 0.226200 -1.042300 0 255 255
1.182500 -1.568800 16.352501 0 255 0
1.450000 -1.000000 26.020000 0 255 0
2.090200 0.225000 -1.140000 0 255 255
1.400000 -1.060000 29.719999 0 255 0
2.390000 -1.520000 20.776699 0 255 0
2.380000 -1.420000 25.629999 0 255 0
1.196700 0.330000 21.813299 0 255 0
1.200000 0.300000 21.900000 0 255 0
1.930000 0.190000 24.680000 0 255 0
1.953300 -1.000000 -1.440000 0 255 255
1.091300 -1.163800 15.871200 0 255 0
1.281200 -0.876200 -1.039600 0 255 255
1.292000 -1.017600 -1.031800 0 255 255
0.993800 -0.165600 19.654699 0 255 0
0.935800 -0.815800 -1.241600 0 255 255
1.150000 -0.130000 27.530001 0 255 0
1.140000 -0.183300 24.366699 0 255 0
1.210000 0.240000 24.049999 0 255 0
2.550000 -1.300000 18.115000 0 255 0
2.550000 -1.367500 15.505000 0 255 0
0.691000 -0.621600 -1.388300 0 255 255
0.690000 -0.640000 -1.540000 0 255 255
0.850000 -1.470000 15.754300 0 255 0
0.995000 -0.511700 22.373301 0 255 0
0.836700 -1.073300 13.506700 0 255 0
2.588900 -1.520000 19.762600 0 255 0
1.450000 -1.540000 17.879999 0 255 0
1.431700 -0.420000 -0.138300 255 0 0
1.439200 -0.670000 9.357500 255 0 0
1.452400 -0.520700 6.010700 255 0 0
1.439400 -0.570200 2.859100 255 0 0
2.693300 -1.268300 18.258301 0 255 0
2.685000 -0.872500 -1.535000 0 255 255
2.695000 -1.235000 18.264999 0 255 0
2.695600 -1.127900 -1.096700 0 255 255
1.488800 -1.621200 -1.447600 0 255 255
1.970000 -0.610000 17.825001 255 0 0
1.984200 -0.720000 -1.335000 0 255 0
1.938400 0.276900 -1.132100 0 255 255
2.287500 -1.172500 29.677500 0 255 0
2.620000 -1.560000 25.680000 0 255 0
1.910000 -0.970000 26.980000 0 255 0
1.890000 -0.680000 20.389999 255 0 0
1.873800 -0.432500 4.212500 255 0 0
1.891300 -0.621200 17.258801 255 0 0
1.875200 -0.474300 7.364800 255 0 0
1.405000 -0.605000 0.820000 255 0 0
2.430000 -1.120000 18.245001 0 255 0
2.436800 -1.224100 -0.904900 0 255 255
2.782500 -0.077500 23.020000 0 255 0
2.342600 -1.573200 19.456800 0 255 0
2.437800 -1.386700 -0.707800 0 255 255
1.810000 -1.130000 25.830000 0 255 0
0.543800 -0.321900 13.255200 0 255 0
0.891700 -1.318300 16.013500 0 255 0
1.460000 -0.520000 10.230000 255 0 0
1.455000 -0.566000 7.066000 255 0 0
1.421500 -0.475400 0.511500 255 0 0
1.436600 -0.420100 3.661200 0 255 0
1.345000 -1.225000 -1.550000 0 255 255
0.499200 -1.123700 -1.290200 0 255 255
1.456000 -0.655000 1.058000 255 0 0
1.456700 -0.604700 4.202700 0 255 0
1.500000 -0.660000 13.840000 255 0 0
1.475000 -1.610000 24.469999 0 255 0
1.504300 -0.380700 7.312100 0 255 0
1.493900 -0.326000 4.061800 255 0 0
1.497100 -0.620000 10.611500 255 0 0
1.990000 -1.530000 23.580000 0 255 0
0.744100 0.426600 -1.040800 0 255 255
1.460000 -0.430000 -1.190000 0 255 0
1.450000 -0.615000 11.845000 255 0 0
1.433000 -0.569100 2.308500 0 255 0
1.441200 -0.516700 5.559900 0 255 0
0.745400 0.431100 -0.988900 0 255 255
1.450000 -0.522500 10.500000 255 0 0
1.422900 -0.472700 1.009600 0 255 0
1.452700 -0.572900 7.353700 255 0 0
1.433400 -0.421300 4.158200 0 255 0
1.544700 -0.276500 3.162900 255 0 0
1.730000 0.020000 20.860001 0 255 0
1.736800 -0.278500 1.310900 0 255 0
1.730900 -0.234000 4.554000 0 255 0
2.895000 -1.027500 17.962500 0 255 0
1.041700 -0.463300 21.445000 0 255 0
2.860000 -0.290000 19.660000 0 255 0
1.639400 -0.275200 4.911900 255 0 0
2.443300 -1.620000 23.203300 0 255 0
1.490700 0.077800 -1.146900 0 255 0
1.473300 -0.206700 -1.083300 0 255 0
1.499800 -0.283400 2.159300 0 255 0
1.485000 0.117500 28.405001 0 255 0
1.498200 -0.280500 2.306600 0 255 0
1.483700 -0.210900 -0.840300 255 0 0
1.560000 -1.560000 20.180000 0 255 0
1.535000 -0.565000 7.110000 255 0 0
1.538300 -0.668500 0.610600 0 255 0
1.527500 -0.634800 3.860900 255 0 0
1.524400 -0.518100 10.362500 0 255 0
1.640000 -0.870000 19.290001 0 255 0
1.634300 -0.611400 22.911400 0 255 0
1.637400 -0.764900 13.020800 255 0 0
1.520000 -0.360000 -0.470000 255 0 0
1.527700 -0.567300 12.164700 255 0 0
1.540400 -0.515200 15.308700 255 0 0
1.538600 -0.664700 5.661400 0 255 0
1.534900 -0.624300 8.808400 255 0 0
1.527100 -0.302100 2.663700 255 0 0
1.832900 -0.382100 6.515700 255 0 0
1.826700 -0.290000 0.003300 255 0 0
1.554500 -0.284500 5.311800 255 0 0
0.975000 -0.735000 19.905001 0 255 0
1.620000 -0.050000 24.260000 0 255 0
1.630000 -0.140000 21.000000 0 255 0
1.639500 -0.237300 1.864300 0 255 0
1.641400 -0.328600 8.362500 255 0 0
2.443500 -1.266000 -1.144000 0 255 255
1.450800 -0.574600 9.261500 255 0 0
1.428900 -0.313400 -0.239500 255 0 0
1.427800 -0.470600 3.109900 255 0 0
1.453400 -0.429500 6.260800 255 0 0
1.660000 -0.730000 16.709999 255 0 0
1.656300 -0.862500 6.407500 0 255 0
1.530000 -0.530000 23.049999 0 255 0
1.550000 -0.340000 9.990000 255 0 0
1.553300 -0.668300 13.501700 255 0 0
1.536900 -0.369500 6.761000 255 0 0
1.235000 -1.618800 16.267500 0 255 0
0.536700 0.118300 -1.285000 0 255 255
1.505000 -0.476100 10.961100 255 0 0
1.504900 -0.426200 7.812100 255 0 0
2.296700 -1.264300 15.456900 0 255 0
0.693300 -1.103300 -1.086700 0 255 255
2.490000 -1.158000 17.766001 0 255 0
0.930000 -0.911700 13.451700 0 255 0
0.933300 -1.163300 -1.286700 0 255 255
1.142200 -1.123100 13.315000 0 255 0
2.293400 -0.967600 18.159599 0 255 0
2.495000 0.022500 15.653800 0 255 0
0.885500 -0.968700 -1.442100 0 255 255
2.835000 -0.465000 19.650000 0 255 0
0.897800 -1.465600 15.748900 0 255 0
0.790700 -1.369300 16.102200 0 255 0
1.096700 -0.916700 15.946700 0 255 0
1.450000 -0.720000 9.455000 255 0 0
1.436000 -0.966000 19.351999 0 255 0
1.380000 0.420000 -0.940000 0 255 255
1.436700 -0.520000 23.143299 0 255 0
1.455000 -0.435000 16.410000 0 255 0
2.293600 -0.375700 22.916401 0 255 0
0.787600 -0.222700 13.298200 0 255 0
1.846700 -1.226700 -1.580000 0 255 255
0.450000 -1.120000 -1.090000 0 255 255
0.945000 -0.420000 26.094999 0 255 0
0.938600 -0.524300 19.609100 0 255 0
1.520000 0.090000 27.430000 0 255 0
1.527500 0.027500 24.145000 0 255 0
1.540300 -0.029700 20.910700 0 255 0
1.810000 0.290000 25.740000 0 255 0
1.782000 -0.920000 -1.124000 0 255 255
2.096700 -0.976700 18.205000 0 255 0
2.088800 -0.465600 -1.394400 0 255 255
2.140000 0.690000 -0.770000 0 255 255
1.476000 -0.714000 -1.480000 0 255 0
1.075000 0.140000 24.504999 0 255 0
1.110000 -0.140000 27.400000 0 255 0
1.045000 0.330000 20.196699 0 255 0
1.575000 -1.425000 24.350000 0 255 0
1.588300 -1.171500 17.519800 0 255 0
1.560000 -0.590000 -0.670000 255 0 0
1.550000 -1.740000 27.840000 0 255 0
1.492000 -1.608000 -1.088000 0 255 255
1.480000 -0.360000 1.350000 255 0 0
1.510000 -0.550000 14.020000 255 0 0
1.495000 -0.650000 7.713300 255 0 0
1.497100 -0.525000 10.858200 255 0 0
1.481800 -0.618900 4.555300 0 255 0
1.480000 -0.320000 -0.780000 255 0 0
1.476700 -1.620000 19.796700 0 255 0
1.506000 -0.650000 9.110000 255 0 0
1.472000 -0.350000 2.356000 255 0 0
1.488100 -0.620000 5.961500 0 255 0
1.501000 -0.523000 12.260000 255 0 0
1.480000 -0.400000 -0.800000 255 0 0
1.510000 -0.660000 15.400000 255 0 0
1.500700 -0.613600 12.255700 255 0 0
1.501700 -0.336700 5.703300 255 0 0
1.470000 -0.440000 2.690000 255 0 0
1.470000 -0.950000 -0.500000 0 255 255
1.472700 -0.466500 5.862800 0 255 0
1.410000 -1.150000 20.170000 0 255 0
1.589100 0.338200 -0.995500 0 255 255
1.880000 -0.710000 8.170000 0 255 0
1.895000 -0.671700 17.805000 255 0 0
1.880000 -0.618000 14.666000 255 0 0
1.890800 -0.577700 -1.331500 0 255 0
1.873800 -0.470800 5.166900 255 0 0
1.396000 -1.623300 -1.544700 0 255 255
1.882000 -0.620000 8.216000 255 0 0
1.900000 -0.465000 -1.202500 0 255 0
1.389200 -1.522300 -1.486200 0 255 255
0.897500 -1.412500 17.767500 0 255 0
0.830000 -1.250000 17.860001 0 255 0
1.540500 -1.271400 17.522699 0 255 0
1.650000 -0.530000 19.590000 255 0 0
1.645000 -0.640000 0.670000 255 0 0
1.632500 -0.685000 10.205000 255 0 0
1.639200 -0.713300 6.958300 255 0 0
1.640000 -0.419000 13.308500 255 0 0
0.850000 -1.120000 20.920000 0 255 0
0.850000 -0.990000 17.680000 0 255 0
1.150000 -1.160000 22.260000 0 255 0
1.140600 -0.712600 -1.389000 0 255 0
2.539000 0.033100 -1.184800 0 255 255
0.888900 -1.116700 -1.582200 0 255 255
0.830000 -0.830000 22.143299 0 255 0
0.846700 -0.773300 19.976700 0 255 0
0.833300 -1.306700 -1.390000 0 255 255
1.596700 -1.076700 26.113300 0 255 0
1.597500 -0.975000 26.152500 0 255 0
1.570000 -0.080000 29.825001 0 255 0
1.586000 0.028000 23.319000 0 255 0
1.790000 -1.482500 20.217501 0 255 0
1.745000 -0.340000 10.672500 255 0 0
1.750000 -0.020000 29.825001 0 255 0
2.394000 -0.274000 -1.346000 0 255 255
1.942700 -0.268600 -1.329500 0 255 0
0.793300 -1.520000 -1.038300 0 255 255
2.895000 -0.020000 24.775000 0 255 0
1.838500 0.327800 -1.134600 0 255 255
1.841500 -1.121500 -1.484600 0 255 255
1.835000 -0.812500 -1.080000 0 255 0
1.847100 -1.021400 11.572900 0 255 0
1.860000 -1.090000 11.580000 0 255 0
1.840000 -0.860000 -1.070000 0 255 0
1.610000 -0.150000 30.100000 0 255 0
1.582300 0.728200 -0.941400 0 255 255
1.136700 -1.571500 -1.335000 0 255 255
1.433200 -0.364900 2.409600 255 0 0
0.693100 -1.120800 16.018499 0 255 0
1.475700 -0.525700 4.214300 255 0 0
1.481100 -0.573100 7.460600 255 0 0
1.497300 -0.657100 1.160600 0 255 0
1.740000 -0.409400 13.510000 255 0 0
1.760000 -0.450000 10.270000 255 0 0
1.745800 -0.622400 0.460800 0 255 0
1.753300 -0.580000 3.713300 255 0 0
1.187900 -0.923500 13.409300 0 255 0
1.193300 -0.953300 13.520000 0 255 0
1.180000 -0.660000 19.660000 0 255 0
1.990000 -1.015000 19.610001 0 255 0
1.510000 -0.030000 28.049999 0 255 0
2.082500 -1.662500 23.615000 0 255 0
1.685000 -1.120000 15.895000 0 255 0
1.855000 -0.680000 24.514999 255 0 0
1.846700 -0.513300 21.616699 255 0 0
1.834700 -0.473900 11.858100 255 0 0
1.828500 -0.431500 15.111500 255 0 0
2.990000 -0.680000 24.389999 0 255 0
1.380000 -0.566700 20.863300 0 255 0
1.393800 -1.027500 -1.181200 0 255 255
1.894600 -1.569300 -1.189300 0 255 255
1.043200 -0.918200 -1.095100 0 255 255
1.294100 -1.475800 -1.040200 0 255 255
1.610000 -0.570000 17.162500 255 0 0
1.150300 -1.219100 -0.528400 0 255 255
2.342000 -0.720000 -1.088000 0 255 255
2.410000 -0.540000 -0.620000 0 255 255
2.395000 -0.110000 24.665001 0 255 0
2.640700 -1.222400 -0.997400 0 255 255
1.146000 -1.016000 -1.290000 0 255 255
0.498300 -0.421700 13.355000 0 255 0
0.487200 -0.363200 13.356800 0 255 0
1.360000 -1.515000 -0.735000 0 255 255
2.328300 0.333300 24.913300 0 255 0
2.097100 0.382900 24.811399 0 255 0
1.097200 0.334300 -0.892200 0 255 255
1.140000 -1.290000 -1.220000 0 255 255
2.687500 -1.067500 18.004999 0 255 0
1.640000 -0.010000 28.620001 0 255 0
2.820000 -0.760000 16.190001 0 255 0
2.580000 -0.670000 29.940001 0 255 0
2.603300 -0.156700 -1.295000 0 255 255
1.346700 -0.470000 1.703300 255 0 0
0.925000 -0.585000 21.245001 0 255 0
2.600000 -1.020000 17.809999 0 255 0
2.584600 -0.771500 -0.987500 0 255 255
0.976700 -1.178300 -1.383300 0 255 255
1.046300 -1.374700 19.501600 0 255 0
2.336700 -1.172500 -1.189200 0 255 255
1.194100 -1.175700 13.268000 0 255 0
2.653300 -0.170000 -1.380000 0 255 255
2.649300 -0.916800 -1.191500 0 255 255
2.641900 -1.221200 18.409401 0 255 0
2.653300 -0.926700 -0.956700 0 255 255
2.639000 -1.272200 15.413400 0 255 0
1.137600 -1.068700 10.848100 0 255 0
0.990000 -0.035000 23.445000 0 255 0
0.980000 0.120000 13.420000 0 255 0
1.003300 0.036700 19.916700 0 255 0
0.870000 -0.200000 21.280001 0 255 0
0.890400 -0.470800 -1.346500 0 255 255
1.536300 -1.171000 -0.894000 0 255 255
1.620000 -1.670000 17.850000 0 255 0
1.637000 -1.772300 -1.291300 0 255 255
2.860000 -1.190000 23.500000 0 255 0
1.355000 0.125000 27.365000 0 255 0
1.350000 0.070000 24.110001 0 255 0
2.090000 -1.308800 26.306299 0 255 0
2.553300 0.033300 -1.380000 0 255 255
2.447100 -0.462900 20.108601 0 255 0
2.070000 -1.820000 23.400000 0 255 0
2.070000 -1.760000 20.280001 0 255 0
1.453300 -0.466700 8.466700 255 0 0
1.453300 -1.026700 -1.330000 0 255 255
1.430700 -0.367800 1.960300 0 255 0
1.450000 -0.450000 27.820000 0 255 0
1.440500 -0.715900 -1.442600 0 255 0
1.430000 -0.350000 20.860001 0 255 0
1.435500 -0.705500 -1.205900 0 255 0
1.450000 -0.340000 4.990000 255 0 0
1.460000 -0.490000 8.245000 255 0 0
1.432000 -0.368900 1.758900 0 255 0
1.439300 -1.028200 -1.132900 0 255 255
1.460000 -0.480000 8.100000 255 0 0
1.441700 -0.325000 4.756700 255 0 0
1.439400 -1.018100 -0.991200 0 255 255
1.433500 -0.367900 1.610500 0 255 0
1.642500 -0.616200 17.620001 255 0 0
1.524500 -0.518500 11.653500 0 255 0
1.545200 -1.569500 21.856701 0 255 0
1.526700 -0.576700 8.411000 255 0 0
1.541000 -0.665800 2.109800 0 255 0
1.526700 -0.633600 5.360000 255 0 0
0.690800 -0.173300 -1.297100 0 255 255
1.440000 -1.430000 29.896700 0 255 0
0.835800 -0.071600 19.758400 0 255 0
2.045000 -1.460000 -0.755000 0 255 255
2.036800 -1.563900 -0.685500 0 255 255
2.793400 -0.027700 15.466200 0 255 0
1.878300 -0.621700 8.710000 255 0 0
1.890000 -0.820000 20.980000 0 255 0
1.890000 -0.480000 -1.092500 255 0 0
1.893300 -0.660000 11.966700 255 0 0
1.900000 -0.860000 24.195000 0 255 0
2.776700 -0.470000 19.816700 0 255 0
2.096700 0.450000 24.803301 0 255 0
1.405000 -0.563800 -0.243100 0 255 0
1.870000 -0.540000 0.530000 255 0 0
1.880000 -0.750000 16.709999 255 0 0
1.870000 -0.416700 7.023300 255 0 0
1.883300 -0.553300 3.660000 255 0 0
1.880000 -0.476700 10.143300 255 0 0
1.870000 -0.630000 20.080000 255 0 0
1.406100 -0.557500 -0.090900 0 255 0
1.876700 -0.563300 3.626700 255 0 0
1.872500 -0.477500 9.905000 255 0 0
1.870000 -0.520000 0.355000 255 0 0
1.875000 -0.415000 6.650000 255 0 0
1.880000 -0.683300 22.566700 255 0 0
1.130000 -1.405000 22.469999 0 255 0
1.145700 -1.206400 -0.627900 0 255 255
1.146400 -1.578000 10.962400 0 255 0
1.688700 -0.626200 18.700001 255 0 0
1.687500 -0.687500 8.957500 255 0 0
1.692200 -0.725600 12.211700 255 0 0
1.400000 -0.610000 2.520000 255 0 0
1.402700 -0.561600 -0.739400 255 0 0
1.870000 -0.406700 7.120000 255 0 0
1.890000 -0.690000 22.900000 255 0 0
1.875000 -0.465000 10.265000 255 0 0
1.887500 -0.567500 3.967500 255 0 0
1.410000 -0.620000 2.740000 255 0 0
1.405000 -1.650000 19.764999 0 255 0
1.403800 -0.561000 -0.589500 255 0 0
0.590000 0.090000 -1.380000 0 255 255
1.700000 -0.750000 7.570000 255 0 0
1.685000 -0.680000 13.915000 255 0 0
1.670000 -0.540000 29.690001 0 255 0
1.686000 -0.560000 20.212000 255 0 0
1.697500 -0.711300 17.059999 255 0 0
1.455000 -1.415000 -1.590000 0 255 255
1.440000 -1.430000 -1.746700 0 255 255
0.743000 -1.068200 -1.193200 0 255 255
1.705000 -0.635000 1.915000 255 0 0
1.693300 -0.373000 11.313000 0 255 0
1.686000 -0.424000 14.559000 255 0 0
1.690000 -0.417300 14.713600 255 0 0
1.700000 -0.636400 1.663600 255 0 0
